ply
format ascii 1.0
comment ---
element vertex 1594
property float x
property float y
property float z
element face 0
property list uchar uint vertex_indices
end_header
-4.147014 -2.494878 -1.419181
-4.141841 -2.481889 -1.416607
-4.147253 -2.467957 -1.419428
-4.136486 -2.455546 -1.413993
-4.146063 -2.441130 -1.418933
-4.140765 -2.428217 -1.416282
-4.137077 -2.415164 -1.414450
-4.133085 -2.402172 -1.412459
-4.131771 -2.388874 -1.411831
-4.131984 -2.375379 -1.411980
-4.131130 -2.362010 -1.411581
-4.125744 -2.349273 -1.408867
-4.123705 -2.336089 -1.407857
-4.121863 -2.322883 -1.406946
-4.118268 -2.309954 -1.405136
-4.115578 -2.296902 -1.403786
-4.114091 -2.283661 -1.403046
-4.111921 -2.270537 -1.401955
-4.111777 -2.257060 -1.401894
-4.110104 -2.243847 -1.401050
-4.110593 -2.230228 -1.401307
-4.107451 -2.217288 -1.399707
-4.112758 -2.202683 -1.402415
-4.112503 -2.189139 -1.402281
-4.112702 -2.175483 -1.402376
-4.113712 -2.161632 -1.402881
-4.112759 -2.148183 -1.402380
-4.108085 -2.135566 -1.399977
-4.104596 -2.122704 -1.398174
-4.104001 -2.109174 -1.397845
-4.107487 -2.094639 -1.399594
-4.105680 -2.081356 -1.398638
-4.105919 -2.067552 -1.398721
-4.100655 -2.055147 -1.395992
-4.093195 -2.043355 -1.392138
-4.100694 -2.027587 -1.395911
-4.097264 -2.014719 -1.394103
-4.088605 -2.003331 -1.389623
-4.082988 -1.991141 -1.386690
-4.083693 -1.977143 -1.386977
-4.083200 -1.963466 -1.386646
-4.085212 -1.949008 -1.387588
-4.083625 -1.935607 -1.386688
-4.083924 -1.921603 -1.386743
-4.079568 -1.909052 -1.384419
-4.076220 -1.896191 -1.382602
-4.074929 -1.882654 -1.381828
-4.072062 -1.869629 -1.380243
-4.070414 -1.856185 -1.379272
-4.067223 -1.843261 -1.377508
-4.073153 -1.827114 -1.380385
-4.076679 -1.811727 -1.382027
-4.073125 -1.798841 -1.380055
-4.058365 -1.790106 -1.372366
-4.051273 -1.778615 -1.368576
-4.050805 -1.764635 -1.368152
-4.061358 -1.746347 -1.373330
-4.063157 -1.731335 -1.374040
-4.062226 -1.717345 -1.373351
-4.052562 -1.706855 -1.368208
-4.044369 -1.695824 -1.363805
-4.042259 -1.682305 -1.362487
-4.050817 -1.664253 -1.366585
-4.049562 -1.650249 -1.365681
-4.043664 -1.638222 -1.362405
-4.041145 -1.624721 -1.360836
-4.039988 -1.610584 -1.359948
-4.040448 -1.595669 -1.359870
-4.041968 -1.580202 -1.360318
-4.036660 -1.567822 -1.357286
-4.034005 -1.554194 -1.355589
-4.039513 -1.536642 -1.358022
-4.031956 -1.525257 -1.353812
-4.023713 -1.514229 -1.349243
-4.020522 -1.500730 -1.347224
-4.021297 -1.485209 -1.347201
-4.027597 -1.466799 -1.349964
-4.028921 -1.450787 -1.350189
-4.022874 -1.438509 -1.346668
-4.019294 -1.424927 -1.344381
-4.017486 -1.410362 -1.342978
-4.014423 -1.396410 -1.340926
-4.009324 -1.383520 -1.337831
-4.014389 -1.364996 -1.339857
-4.017096 -1.347632 -1.340676
-4.013857 -1.333498 -1.338476
-4.011441 -1.318841 -1.336677
-4.008284 -1.304549 -1.334491
-4.005552 -1.289953 -1.332506
-4.002097 -1.275724 -1.330143
-4.012364 -1.253231 -1.334677
-3.999153 -1.244708 -1.327376
-3.993449 -1.231672 -1.323845
-3.997570 -1.212534 -1.325243
-3.997488 -1.195873 -1.324515
-3.990310 -1.183606 -1.320213
-3.988140 -1.168139 -1.318419
-3.991294 -1.149166 -1.319287
-3.975596 -1.142387 -1.310696
-3.987599 -1.117432 -1.315985
-3.987222 -1.100497 -1.315065
-3.985043 -1.084707 -1.313241
-3.984140 -1.068004 -1.312056
-3.972236 -1.058841 -1.305376
-3.968842 -1.043861 -1.302958
-3.973535 -1.023184 -1.304585
-3.972543 -1.006448 -1.303383
-3.973108 -0.988579 -1.302971
-3.971671 -0.972139 -1.301577
-3.966042 -0.958791 -1.298116
-3.968751 -0.939355 -1.298829
-3.956837 -0.930845 -1.292294
-3.943949 -0.923281 -1.285310
-3.969740 -0.886450 -1.297587
-3.968562 -0.870080 -1.296492
-3.961874 -0.858092 -1.292701
-3.956513 -0.845256 -1.289614
-3.950305 -0.833280 -1.286155
-3.954581 -0.813145 -1.287947
-3.962080 -0.790496 -1.291387
-3.967063 -0.769939 -1.293632
-3.548037 -3.431184 -1.101956
-3.546622 -3.419121 -1.101815
-3.572663 -3.301734 -1.121147
-3.578512 -3.292141 -1.124639
-3.582142 -3.281885 -1.126998
-3.576966 -3.269139 -1.124873
-3.573977 -3.257099 -1.123847
-3.579272 -3.247381 -1.127024
-3.572653 -3.234477 -1.124129
-3.566839 -3.221896 -1.121631
-3.559720 -3.209085 -1.118454
-3.558789 -3.197933 -1.118418
-3.558147 -3.186898 -1.118518
-3.557289 -3.175854 -1.118497
-3.557164 -3.165024 -1.118839
-3.558780 -3.154625 -1.120059
-3.560053 -3.144165 -1.121095
-3.563370 -3.134165 -1.123166
-3.563464 -3.123478 -1.123580
-3.542224 -3.108437 -1.113078
-3.547892 -3.099036 -1.116320
-3.554672 -3.089818 -1.120122
-3.551479 -3.078664 -1.118814
-3.547928 -3.067502 -1.117313
-3.550848 -3.057558 -1.119115
-3.550757 -3.047084 -1.119367
-4.048574 -2.990684 -1.377805
-4.093995 -2.969715 -1.401652
-4.127223 -2.959942 -1.418975
-4.189421 -2.952572 -1.451188
-4.197046 -2.939684 -1.455348
-4.184379 -2.925017 -1.449067
-4.177886 -2.910975 -1.445953
-4.171109 -2.896987 -1.442683
-4.178612 -2.884053 -1.446752
-4.185459 -2.871004 -1.450478
-4.176609 -2.856973 -1.446120
-4.167080 -2.843001 -1.441405
-4.156890 -2.829098 -1.436342
-4.149774 -2.815432 -1.432854
-4.145952 -2.801963 -1.431056
-4.150425 -2.788801 -1.433523
-4.161955 -2.775782 -1.439619
-4.168292 -2.762527 -1.443037
-4.171570 -2.749153 -1.444875
-4.175845 -2.735753 -1.447220
-4.163883 -2.722203 -1.441197
-4.158621 -2.708779 -1.438619
-4.161064 -2.695373 -1.440008
-4.159118 -2.681978 -1.439130
-4.160225 -2.668551 -1.439821
-4.160740 -2.655118 -1.440203
-4.161681 -2.641662 -1.440800
-4.154796 -2.628424 -1.437358
-4.148614 -2.615226 -1.434276
-4.141658 -2.602115 -1.430789
-4.136375 -2.588991 -1.428161
-4.135356 -2.575694 -1.427728
-4.141610 -2.561989 -1.431043
-4.144574 -2.548410 -1.432658
-4.145859 -2.534903 -1.433405
-4.151948 -2.521024 -1.436626
-4.153246 -2.507441 -1.437373
-4.149347 -2.494262 -1.435435
-4.133321 -2.482177 -1.427238
-4.127068 -2.469339 -1.424079
-4.133258 -2.455330 -1.427338
-4.128441 -2.442384 -1.424914
-4.128413 -2.428954 -1.424959
-4.127784 -2.415580 -1.424690
-4.120917 -2.402944 -1.421200
-4.126459 -2.388818 -1.424110
-4.127367 -2.375222 -1.424627
-4.124803 -2.362072 -1.423349
-4.114477 -2.350027 -1.418061
-4.115910 -2.336359 -1.418841
-4.115909 -2.322878 -1.418877
-4.114694 -2.309572 -1.418284
-4.112337 -2.296447 -1.417098
-4.114326 -2.282605 -1.418154
-4.110896 -2.269660 -1.416408
-4.109112 -2.256443 -1.415510
-4.107354 -2.243222 -1.414622
-4.102638 -2.230561 -1.412204
-4.104929 -2.216573 -1.413400
-4.111342 -2.201719 -1.416721
-4.112899 -2.187773 -1.417532
-4.103082 -2.176184 -1.412467
-4.106174 -2.161896 -1.414064
-4.108510 -2.147723 -1.415267
-4.105490 -2.134717 -1.413700
-4.096491 -2.123112 -1.409043
-4.099744 -2.108674 -1.410709
-4.100428 -2.094802 -1.411044
-4.105178 -2.079892 -1.413473
-4.100462 -2.067309 -1.411012
-4.094709 -2.055025 -1.408012
-4.092402 -2.041868 -1.406785
-4.092840 -2.027969 -1.406971
-4.091204 -2.014613 -1.406082
-4.082921 -2.003120 -1.401757
-4.080245 -1.990084 -1.400321
-4.082964 -1.975473 -1.401665
-4.081948 -1.961917 -1.401076
-4.079343 -1.948827 -1.399661
-4.080938 -1.934439 -1.400407
-4.077915 -1.921456 -1.398765
-4.072176 -1.909347 -1.395716
-4.069255 -1.896352 -1.394115
-4.068739 -1.882560 -1.393747
-4.072367 -1.867344 -1.395511
-4.069591 -1.854247 -1.393965
-4.068454 -1.840576 -1.393257
-4.069616 -1.826067 -1.393727
-4.069276 -1.812049 -1.393415
-4.068170 -1.798275 -1.392700
-4.060730 -1.786826 -1.388712
-4.050620 -1.776428 -1.383340
-4.053299 -1.761209 -1.384554
-4.055561 -1.746078 -1.385542
-4.053197 -1.732700 -1.384138
-4.048360 -1.720294 -1.381451
-4.047134 -1.706430 -1.380615
-4.044860 -1.692963 -1.379230
-4.047669 -1.677350 -1.380452
-4.044923 -1.664005 -1.378804
-4.037006 -1.652859 -1.374484
-4.038713 -1.637563 -1.375108
-4.049997 -1.617962 -1.380648
-4.045921 -1.605040 -1.378272
-4.034786 -1.595306 -1.372256
-4.035583 -1.580163 -1.372366
-4.037708 -1.564329 -1.373145
-4.038518 -1.549023 -1.373237
-4.036312 -1.535081 -1.371765
-4.029647 -1.523253 -1.367991
-4.024577 -1.510655 -1.365025
-4.018663 -1.498465 -1.361614
-4.020049 -1.482606 -1.361936
-4.027652 -1.463492 -1.365434
-4.025737 -1.449103 -1.364034
-4.020627 -1.436323 -1.360983
-4.017859 -1.422289 -1.359119
-4.019354 -1.405928 -1.359426
-4.010866 -1.394857 -1.354605
-4.009979 -1.379650 -1.353664
-4.013277 -1.362048 -1.354849
-4.015791 -1.344749 -1.355616
-4.010626 -1.331674 -1.352443
-4.007217 -1.317565 -1.350154
-4.001908 -1.304506 -1.346881
-3.999297 -1.289838 -1.344973
-4.006055 -1.269548 -1.347834
-4.009950 -1.250785 -1.349216
-3.999880 -1.240343 -1.343465
-3.985631 -1.232503 -1.335576
-3.998389 -1.208000 -1.341435
-4.003207 -1.188203 -1.343234
-3.992426 -1.178137 -1.337085
-3.988250 -1.163889 -1.334289
-3.989082 -1.146357 -1.334032
-3.992001 -1.127352 -1.334826
-3.984735 -1.114969 -1.330444
-3.984395 -1.097964 -1.329574
-3.979733 -1.083812 -1.326510
-3.976715 -1.068529 -1.324281
-3.971359 -1.054841 -1.320871
-3.962359 -1.043718 -1.315624
-3.978434 -1.014962 -1.323071
-3.975829 -0.999263 -1.321075
-3.966387 -0.988501 -1.315637
-3.970509 -0.967978 -1.317069
-3.970534 -0.950402 -1.316449
-3.965219 -0.936799 -1.313156
-3.959256 -0.923780 -1.309564
-3.961939 -0.904331 -1.310359
-3.962528 -0.886492 -1.310131
-3.964574 -0.867584 -1.310669
-3.957915 -0.855514 -1.306863
-3.955707 -0.840133 -1.305340
-3.952626 -0.825587 -1.303423
-3.956927 -0.805295 -1.305265
-3.966350 -0.780943 -1.309730
-3.956336 -0.772459 -1.304475
-3.534987 -3.382339 -1.109336
-3.570828 -3.302723 -1.132032
-3.576886 -3.293179 -1.135656
-3.579026 -3.282476 -1.137260
-3.583323 -3.272402 -1.139964
-3.583787 -3.261256 -1.140689
-3.569082 -3.246019 -1.133598
-3.567590 -3.234508 -1.133292
-3.563366 -3.222340 -1.131569
-3.561107 -3.210760 -1.130845
-3.559387 -3.199377 -1.130389
-3.561576 -3.189005 -1.131938
-3.558917 -3.177487 -1.130975
-3.555302 -3.165810 -1.129508
-3.554062 -3.154748 -1.129256
-3.555952 -3.144427 -1.130611
-3.559906 -3.134565 -1.133023
-3.566434 -3.125235 -1.136757
-3.563117 -3.113834 -1.135393
-3.559479 -3.102433 -1.133853
-3.552909 -3.090525 -1.130784
-3.556919 -3.080723 -1.133181
-3.551015 -3.069072 -1.130437
-3.556114 -3.059480 -1.133381
-3.560458 -3.049724 -1.135926
-3.970367 -2.982487 -1.351600
-4.009528 -2.974321 -1.372196
-4.135432 -2.961558 -1.438122
-4.152113 -2.949811 -1.447036
-4.169512 -2.937964 -1.456320
-4.158881 -2.923575 -1.451023
-4.155951 -2.909914 -1.449721
-4.159946 -2.896802 -1.452015
-4.162182 -2.883533 -1.453388
-4.165422 -2.870307 -1.455276
-4.172278 -2.857263 -1.459042
-4.157908 -2.843019 -1.451753
-4.149266 -2.829202 -1.447437
-4.157147 -2.816183 -1.451719
-4.153182 -2.802636 -1.449827
-4.155236 -2.789324 -1.451063
-4.157279 -2.775989 -1.452289
-4.162339 -2.762697 -1.455082
-4.165842 -2.749323 -1.457059
-4.175487 -2.735979 -1.462232
-4.175232 -2.722468 -1.462243
-4.165450 -2.708945 -1.457284
-4.158046 -2.695509 -1.453559
-4.163065 -2.682028 -1.456305
-4.153190 -2.668705 -1.451281
-4.156798 -2.655212 -1.453284
-4.155163 -2.641804 -1.452549
-4.143754 -2.628702 -1.446713
-4.138772 -2.615483 -1.444224
-4.132645 -2.602353 -1.441135
-4.136262 -2.588831 -1.443123
-4.136579 -2.575431 -1.443387
-4.130800 -2.562361 -1.440469
-4.128378 -2.549135 -1.439298
-4.130528 -2.535617 -1.440508
-4.136806 -2.521768 -1.443870
-4.143560 -2.507804 -1.447478
-4.136540 -2.494897 -1.443896
-4.124449 -2.482499 -1.437664
-4.122150 -2.469303 -1.436538
-4.121305 -2.455974 -1.436169
-4.124254 -2.442248 -1.437778
-4.128735 -2.428310 -1.440183
-4.129247 -2.414766 -1.440514
-4.125510 -2.401711 -1.438625
-4.125084 -2.388268 -1.438462
-4.127614 -2.374430 -1.439839
-4.117598 -2.362253 -1.434663
-4.110885 -2.349702 -1.431210
-4.107734 -2.336686 -1.429613
-4.103472 -2.323857 -1.427433
-4.099488 -2.311014 -1.425395
-4.113078 -2.295343 -1.432531
-4.100655 -2.283875 -1.426082
-4.098121 -2.270812 -1.424794
-4.099359 -2.257085 -1.425472
-4.097494 -2.243899 -1.424527
-4.098464 -2.230179 -1.425061
-4.107316 -2.214896 -1.429707
-4.116185 -2.199496 -1.434358
-4.102734 -2.188568 -1.427351
-4.093822 -2.176810 -1.422711
-4.090342 -2.163954 -1.420904
-4.092025 -2.149971 -1.421791
-4.081994 -2.138611 -1.416556
-4.091840 -2.122715 -1.421699
-4.096956 -2.107818 -1.424368
-4.102008 -2.092858 -1.427000
-4.089387 -2.082223 -1.420398
-4.087376 -2.069004 -1.419333
-4.087746 -2.055164 -1.419507
-4.090423 -2.040684 -1.420882
-4.088417 -2.027419 -1.419808
-4.083912 -2.014843 -1.417424
-4.082028 -2.001552 -1.416403
-4.084974 -1.986867 -1.417900
-4.083135 -1.973525 -1.416894
-4.080112 -1.960530 -1.415264
-4.081493 -1.946200 -1.415928
-4.078243 -1.933261 -1.414169
-4.076853 -1.919742 -1.413376
-4.068022 -1.908597 -1.408692
-4.057688 -1.898010 -1.403218
-4.063529 -1.882133 -1.406182
-4.067471 -1.866797 -1.408147
-4.074162 -1.850439 -1.411541
-4.072413 -1.836918 -1.410522
-4.068319 -1.824212 -1.408273
-4.063274 -1.811859 -1.405521
-4.064578 -1.797198 -1.406074
-4.059163 -1.784984 -1.403115
-4.055025 -1.772308 -1.400814
-4.051985 -1.759217 -1.399078
-4.051163 -1.745253 -1.398490
-4.042522 -1.734345 -1.393818
-4.039104 -1.721397 -1.391860
-4.041001 -1.706278 -1.392665
-4.050066 -1.688129 -1.397196
-4.046319 -1.675188 -1.395039
-4.036314 -1.664897 -1.389612
-4.029447 -1.653320 -1.385812
-4.048021 -1.630664 -1.395253
-4.055463 -1.612654 -1.398883
-4.050605 -1.600014 -1.396097
-4.041893 -1.589124 -1.391295
-4.036613 -1.576695 -1.388270
-4.036992 -1.561627 -1.388177
-4.035230 -1.547500 -1.386959
-4.031126 -1.534448 -1.384512
-4.026235 -1.521759 -1.381644
-4.020594 -1.509427 -1.378375
-4.029891 -1.489661 -1.382857
-4.027310 -1.475687 -1.381153
-4.017771 -1.465216 -1.375822
-4.017519 -1.449991 -1.375303
-4.016988 -1.434834 -1.374625
-4.017202 -1.419206 -1.374319
-4.013392 -1.405644 -1.371913
-4.010943 -1.391307 -1.370199
-4.004567 -1.379065 -1.366437
-4.008514 -1.361089 -1.368011
-4.012833 -1.342758 -1.369761
-4.009475 -1.328637 -1.367522
-4.003111 -1.316193 -1.363713
-3.999089 -1.302373 -1.361105
-3.998538 -1.286468 -1.360279
-4.001719 -1.268251 -1.361367
-3.999796 -1.252961 -1.359804
-3.996911 -1.238181 -1.357733
-3.988662 -1.226641 -1.352881
-3.985600 -1.211885 -1.350697
-3.992870 -1.190571 -1.353830
-3.988296 -1.176591 -1.350845
-3.981503 -1.164004 -1.346709
-3.980582 -1.147599 -1.345591
-3.981756 -1.129736 -1.345544
-3.991372 -1.106153 -1.349831
-3.978215 -1.097649 -1.342403
-3.978327 -1.080240 -1.341796
-3.968800 -1.069371 -1.336239
-3.966088 -1.053844 -1.334184
-3.974629 -1.030406 -1.337905
-3.977825 -1.010575 -1.338887
-3.972069 -0.997061 -1.335289
-3.962179 -0.986588 -1.329588
-3.960643 -0.970136 -1.328182
-3.969264 -0.946199 -1.331988
-3.967763 -0.929684 -1.330634
-3.963068 -0.915611 -1.327672
-3.960253 -0.900210 -1.325699
-3.962283 -0.881179 -1.326230
-3.963048 -0.863159 -1.326147
-3.954822 -0.852237 -1.321513
-3.954462 -0.835319 -1.320933
-3.955864 -0.817112 -1.321293
-3.955486 -0.800438 -1.320790
-3.963569 -0.777049 -1.324647
-3.991464 -0.737495 -1.338645
-3.584317 -3.308347 -1.150906
-3.579162 -3.295391 -1.148733
-3.576693 -3.283313 -1.147945
-3.578407 -3.272494 -1.149321
-3.580070 -3.261683 -1.150663
-3.570253 -3.247763 -1.146018
-3.561539 -3.234289 -1.141934
-3.564929 -3.224118 -1.144142
-3.564315 -3.212923 -1.144255
-3.562011 -3.201350 -1.143477
-3.560729 -3.190090 -1.143220
-3.561719 -3.179424 -1.144139
-3.554876 -3.166949 -1.140959
-3.553478 -3.155828 -1.140610
-3.560074 -3.146536 -1.144428
-3.564079 -3.136640 -1.146885
-3.545389 -3.121919 -1.137467
-3.560290 -3.114370 -1.145603
-3.559449 -3.103521 -1.145498
-3.557640 -3.092518 -1.144878
-3.548954 -3.080250 -1.140648
-3.560504 -3.071845 -1.147003
-3.562466 -3.061617 -1.148331
-3.563278 -3.051189 -1.149049
-3.955164 -2.994028 -1.357391
-3.945403 -2.980434 -1.352517
-4.121815 -2.974299 -1.445717
-4.136214 -2.962445 -1.453534
-4.137871 -2.949236 -1.454648
-4.142251 -2.936264 -1.457187
-4.136279 -2.922376 -1.454275
-4.137335 -2.909116 -1.455053
-4.137478 -2.895783 -1.455344
-4.146986 -2.883100 -1.460555
-4.153239 -2.870113 -1.464050
-4.157874 -2.856969 -1.466687
-4.141567 -2.842660 -1.458295
-4.154916 -2.829952 -1.465509
-4.161654 -2.816821 -1.469237
-4.155687 -2.803139 -1.466271
-4.147637 -2.789452 -1.462201
-4.149598 -2.776119 -1.463399
-4.152874 -2.762794 -1.465284
-4.152116 -2.749362 -1.465041
-4.149724 -2.735916 -1.463931
-4.154710 -2.722538 -1.466705
-4.154304 -2.709096 -1.466633
-4.159008 -2.695632 -1.469250
-4.141885 -2.682317 -1.460358
-4.150796 -2.668795 -1.465186
-4.149148 -2.655382 -1.464443
-4.146790 -2.641997 -1.463322
-4.142824 -2.628676 -1.461349
-4.133127 -2.615593 -1.456350
-4.130081 -2.602332 -1.454854
-4.138788 -2.588552 -1.459556
-4.146717 -2.574711 -1.463843
-4.129012 -2.562226 -1.454605
-4.121876 -2.549263 -1.450939
-4.120988 -2.535947 -1.450566
-4.127906 -2.522063 -1.454309
-4.131338 -2.508366 -1.456210
-4.128410 -2.495148 -1.454752
-4.121253 -2.482322 -1.451060
-4.120339 -2.468976 -1.450660
-4.119476 -2.455621 -1.450283
-4.123374 -2.441768 -1.452418
-4.129822 -2.427580 -1.455896
-4.132209 -2.413777 -1.457228
-4.124603 -2.401134 -1.453282
-4.129891 -2.386940 -1.456141
-4.115836 -2.375206 -1.448785
-4.112092 -2.362202 -1.446870
-4.101332 -2.350217 -1.441247
-4.102827 -2.336533 -1.442094
-4.093683 -2.324435 -1.437319
-4.087897 -2.311892 -1.434315
-4.070274 -2.301322 -1.425056
-4.099008 -2.283128 -1.440279
-4.095985 -2.270121 -1.438727
-4.093759 -2.256986 -1.437592
-4.093373 -2.243520 -1.437427
-4.098574 -2.228980 -1.440210
-4.109643 -2.213221 -1.446091
-4.111376 -2.199196 -1.447037
-4.089907 -2.189914 -1.435724
-4.082790 -2.177811 -1.431989
-4.085021 -2.163739 -1.433189
-4.073863 -2.152601 -1.427312
-4.058636 -2.142490 -1.419283
-4.088436 -2.122023 -1.435038
-4.100731 -2.105388 -1.441542
-4.099918 -2.091797 -1.441118
-4.087416 -2.081113 -1.434514
-4.066212 -2.072764 -1.423309
-4.078137 -2.055989 -1.429603
-4.082908 -2.040963 -1.432112
-4.073968 -2.029586 -1.427375
-4.063683 -2.018657 -1.421922
-4.075554 -2.001550 -1.428171
-4.078229 -1.986937 -1.429556
-4.077933 -1.973141 -1.429366
-4.084363 -1.957307 -1.432726
-4.083949 -1.943460 -1.432464
-4.082153 -1.930019 -1.431468
-4.076334 -1.917840 -1.428340
-4.062422 -1.908302 -1.420934
-4.055993 -1.896438 -1.417474
-4.055081 -1.882776 -1.416923
-4.061708 -1.866535 -1.420346
-4.064123 -1.851637 -1.421538
-4.074447 -1.833906 -1.426900
-4.070056 -1.821259 -1.424485
-4.065079 -1.808836 -1.421754
-4.060544 -1.796270 -1.419250
-4.057210 -1.783267 -1.417373
-4.053842 -1.770276 -1.415471
-4.056163 -1.755092 -1.416563
-4.048213 -1.743849 -1.412227
-4.041952 -1.731985 -1.408775
-4.042261 -1.717505 -1.408782
-4.049911 -1.699978 -1.412652
-4.045503 -1.687303 -1.410152
-4.039803 -1.675174 -1.406963
-4.030933 -1.664408 -1.402094
-4.026935 -1.651592 -1.399784
-4.034647 -1.633643 -1.403638
-4.048741 -1.612713 -1.410843
-4.048037 -1.598210 -1.410238
-4.043746 -1.585290 -1.407733
-4.035271 -1.574291 -1.403015
-4.034988 -1.559498 -1.402600
-4.031306 -1.546254 -1.400385
-4.024225 -1.534620 -1.396369
-4.016387 -1.523371 -1.391945
-4.032564 -1.500319 -1.400146
-4.029156 -1.486761 -1.398029
-4.025076 -1.473509 -1.395546
-4.023296 -1.459055 -1.394261
-4.012340 -1.449293 -1.388141
-4.012487 -1.433770 -1.387845
-4.014516 -1.417164 -1.388523
-4.011553 -1.403127 -1.386566
-4.009111 -1.388756 -1.384870
-4.004555 -1.375490 -1.382052
-4.001667 -1.361264 -1.380096
-4.010587 -1.340336 -1.384320
-4.004949 -1.327486 -1.380894
-4.000334 -1.314026 -1.377994
-4.000759 -1.297590 -1.377722
-4.000580 -1.281407 -1.377119
-3.991851 -1.270223 -1.372028
-4.003081 -1.247018 -1.377368
-3.992194 -1.237051 -1.371127
-3.989856 -1.221856 -1.369346
-3.982032 -1.210015 -1.364688
-3.974577 -1.197948 -1.360215
-3.965336 -1.187026 -1.354803
-3.965408 -1.170127 -1.354244
-3.983360 -1.141468 -1.363000
-3.984045 -1.123843 -1.362740
-3.975343 -1.112374 -1.357583
-3.988761 -1.086038 -1.363942
-3.965114 -1.084666 -1.351004
-3.970387 -1.063654 -1.353117
-3.970635 -1.045990 -1.352615
-3.969708 -1.029083 -1.351506
-3.971620 -1.010118 -1.351876
-3.965237 -0.997031 -1.347947
-3.962669 -0.981237 -1.346009
-3.962250 -0.963880 -1.345200
-3.960695 -0.947359 -1.343818
-3.959230 -0.930792 -1.342501
-3.964713 -0.909017 -1.344805
-3.947693 -0.904343 -1.335483
-3.967057 -0.871958 -1.345021
-3.958905 -0.860730 -1.340351
-3.951964 -0.848748 -1.336344
-3.953861 -0.829960 -1.336945
-3.953806 -0.812811 -1.336576
-3.952596 -0.796717 -1.335653
-3.954715 -0.778069 -1.336495
-3.982308 -0.738642 -1.350540
-3.582805 -3.309488 -1.162116
-3.579749 -3.297129 -1.161005
-3.567620 -3.282212 -1.155112
-3.571184 -3.271946 -1.157460
-3.574158 -3.261515 -1.159491
-3.572289 -3.249768 -1.158962
-3.567297 -3.237247 -1.156778
-3.568523 -3.226452 -1.157859
-3.568769 -3.215432 -1.158415
-3.563449 -3.203049 -1.156024
-3.561091 -3.191490 -1.155185
-3.560533 -3.180426 -1.155286
-3.558592 -3.169078 -1.154646
-3.556005 -3.157638 -1.153655
-3.565614 -3.148985 -1.159099
-3.567790 -3.138637 -1.160606
-3.551884 -3.124452 -1.152545
-3.552903 -3.113976 -1.153422
-3.556944 -3.104126 -1.155889
-3.559490 -3.093966 -1.157558
-3.554725 -3.082408 -1.155348
-3.552512 -3.071400 -1.154480
-3.554324 -3.061163 -1.155735
-3.553117 -3.050402 -1.155383
-3.597836 -3.047460 -1.179365
-3.937565 -2.992769 -1.362056
-3.956633 -2.982594 -1.372438
-4.069706 -2.982693 -1.432768
-4.134969 -2.963141 -1.467954
-4.118972 -2.948220 -1.459692
-4.118180 -2.934848 -1.459505
-4.119377 -2.921660 -1.460370
-4.125384 -2.908851 -1.463787
-4.127860 -2.895720 -1.465320
-4.135900 -2.882954 -1.469807
-4.139110 -2.869798 -1.471720
-4.136054 -2.856242 -1.470293
-4.135035 -2.842829 -1.469943
-4.144881 -2.829953 -1.475373
-4.159777 -2.817193 -1.483488
-4.158556 -2.803665 -1.483016
-4.148845 -2.789872 -1.478018
-4.136265 -2.776100 -1.471485
-4.132896 -2.762661 -1.469853
-4.127294 -2.749216 -1.467027
-4.126905 -2.735888 -1.466973
-4.133376 -2.722604 -1.470571
-4.142910 -2.709250 -1.475798
-4.124289 -2.695904 -1.466014
-4.136481 -2.682462 -1.472651
-4.139940 -2.669012 -1.474630
-4.139527 -2.655595 -1.474540
-4.135401 -2.642267 -1.472468
-4.132831 -2.628928 -1.471221
-4.128390 -2.615674 -1.468972
-4.118625 -2.602675 -1.463881
-4.131687 -2.588717 -1.470962
-4.126914 -2.575528 -1.468527
-4.114396 -2.562818 -1.461957
-4.105896 -2.549981 -1.457526
-4.110975 -2.536310 -1.460338
-4.117689 -2.522456 -1.464020
-4.123805 -2.508566 -1.467381
-4.126903 -2.494850 -1.469129
-4.126265 -2.481420 -1.468880
-4.121812 -2.468340 -1.466593
-4.116356 -2.455395 -1.463767
-4.119611 -2.441586 -1.465589
-4.123380 -2.427673 -1.467684
-4.124311 -2.414032 -1.468261
-4.126687 -2.400193 -1.469607
-4.117263 -2.387798 -1.464650
-4.108117 -2.375452 -1.459840
-4.098382 -2.363270 -1.454711
-4.102323 -2.349239 -1.456883
-4.097773 -2.336400 -1.454519
-4.090375 -2.324028 -1.450631
-4.089221 -2.310735 -1.450075
-4.104615 -2.294737 -1.458356
-4.111450 -2.280000 -1.462064
-4.103189 -2.267799 -1.457704
-4.089570 -2.256632 -1.450480
-4.085300 -2.243868 -1.448248
-4.089192 -2.229579 -1.450373
-4.107320 -2.212444 -1.460101
-4.100284 -2.200155 -1.456383
-4.088161 -2.188975 -1.449944
-4.083308 -2.176367 -1.447386
-4.081899 -2.163043 -1.446665
-4.082250 -2.149323 -1.446882
-4.095247 -2.132690 -1.453853
-4.113496 -2.114667 -1.463629
-4.088849 -2.106689 -1.450477
-4.072780 -2.096860 -1.441907
-4.087467 -2.079487 -1.449768
-4.077064 -2.068348 -1.444219
-4.080170 -2.053771 -1.445884
-4.079170 -2.040231 -1.445351
-4.058113 -2.032144 -1.434097
-4.066039 -2.016207 -1.438326
-4.065707 -2.002500 -1.438138
-4.064878 -1.988913 -1.437681
-4.077489 -1.971348 -1.444400
-4.078109 -1.957216 -1.444708
-4.077633 -1.943384 -1.444424
-4.072472 -1.930988 -1.441633
-4.069515 -1.917921 -1.440014
-4.064185 -1.905623 -1.437122
-4.057578 -1.893773 -1.433542
-4.052698 -1.881389 -1.430880
-4.055211 -1.866514 -1.432162
-4.057334 -1.851712 -1.433229
-4.060587 -1.836453 -1.434894
-4.062944 -1.821441 -1.436073
-4.060169 -1.808225 -1.434505
-4.057127 -1.795101 -1.432787
-4.056043 -1.781240 -1.432108
-4.063797 -1.763992 -1.436141
-4.064312 -1.749404 -1.436301
-4.051250 -1.740084 -1.429205
-4.041056 -1.729731 -1.423633
-4.053461 -1.710337 -1.430117
-4.051940 -1.696448 -1.429158
-4.039734 -1.686963 -1.422489
-4.023811 -1.679137 -1.413829
-4.019076 -1.666671 -1.411132
-4.023266 -1.650344 -1.413187
-4.026524 -1.634322 -1.414735
-4.034552 -1.616082 -1.418817
-4.044580 -1.596784 -1.423954
-4.038371 -1.584725 -1.420422
-4.025191 -1.575906 -1.413165
-4.032742 -1.557458 -1.416948
-4.037958 -1.539961 -1.419475
-4.026471 -1.530373 -1.413091
-4.016649 -1.520046 -1.407586
-4.018879 -1.503817 -1.408488
-4.032596 -1.481741 -1.415493
-4.031940 -1.466696 -1.414833
-4.018284 -1.458246 -1.407243
-4.012010 -1.446057 -1.403571
-4.009099 -1.432099 -1.401678
-4.011852 -1.415082 -1.402783
-4.012250 -1.399211 -1.402623
-4.010591 -1.384368 -1.401356
-4.005863 -1.371148 -1.398447
-4.006769 -1.354754 -1.398517
-3.999937 -1.342623 -1.394467
-4.002434 -1.325159 -1.395355
-4.002277 -1.309098 -1.394823
-4.001866 -1.293089 -1.394141
-3.998488 -1.278740 -1.391874
-3.998278 -1.262439 -1.391274
-3.997266 -1.246525 -1.390236
-4.000069 -1.228187 -1.391207
-3.981493 -1.222936 -1.380849
-3.985717 -1.203573 -1.382550
-3.978256 -1.191441 -1.378058
-4.001451 -1.159699 -1.389764
-3.994579 -1.146977 -1.385563
-3.986841 -1.134820 -1.380900
-3.986773 -1.117604 -1.380281
-3.984114 -1.102027 -1.378289
-3.981541 -1.086342 -1.376338
-3.976341 -1.072401 -1.373001
-3.972854 -1.057275 -1.370566
-3.970616 -1.041253 -1.368791
-3.974478 -1.020898 -1.370230
-3.964989 -1.009940 -1.364646
-3.964152 -0.992844 -1.363624
-3.966995 -0.973045 -1.364544
-3.963979 -0.957481 -1.362397
-3.958913 -0.943469 -1.359189
-3.953625 -0.929695 -1.355884
-3.938905 -0.923156 -1.347651
-3.961015 -0.888696 -1.358767
-3.957743 -0.873547 -1.356591
-3.952204 -0.860271 -1.353257
-3.943489 -0.849649 -1.348293
-3.938493 -0.836289 -1.345316
-3.943708 -0.814923 -1.347725
-3.941493 -0.799610 -1.346283
-3.943841 -0.780743 -1.347272
-3.903292 -0.797303 -1.325855
-3.541606 -3.298636 -1.152273
-3.568082 -3.295254 -1.166824
-3.567252 -3.283657 -1.166856
-3.568310 -3.272651 -1.167883
-3.574446 -3.263097 -1.171604
-3.576069 -3.252277 -1.172915
-3.574094 -3.240514 -1.172301
-3.572574 -3.228934 -1.171919
-3.571240 -3.217458 -1.171625
-3.567477 -3.205423 -1.170026
-3.562702 -3.193219 -1.167877
-3.560667 -3.181764 -1.167178
-3.559582 -3.170590 -1.166978
-3.563342 -3.160575 -1.169355
-3.567951 -3.150742 -1.172179
-3.560475 -3.138247 -1.168535
-3.552835 -3.125829 -1.164792
-3.552524 -3.115047 -1.164958
-3.554927 -3.104845 -1.166568
-3.559069 -3.094986 -1.169101
-3.554866 -3.083510 -1.167158
-3.547294 -3.071477 -1.163403
-3.545940 -3.060672 -1.162969
-3.543914 -3.049786 -1.162166
-3.575158 -3.044600 -1.179187
-3.904275 -3.001858 -1.357901
-3.911085 -2.990425 -1.361812
-4.115025 -2.961957 -1.472384
-4.108469 -2.948008 -1.469102
-4.109452 -2.934818 -1.469865
-4.104549 -2.921123 -1.467456
-4.114793 -2.908698 -1.473187
-4.116401 -2.895525 -1.474268
-4.121218 -2.882562 -1.477071
-4.113835 -2.868768 -1.473304
-4.116079 -2.855623 -1.474711
-4.118349 -2.842457 -1.476126
-4.121556 -2.829313 -1.478042
-4.125836 -2.816183 -1.480531
-4.145117 -2.803578 -1.491094
-4.136374 -2.789850 -1.486562
-4.127556 -2.776210 -1.481983
-4.113653 -2.762546 -1.474660
-4.110596 -2.749210 -1.473174
-4.119054 -2.736038 -1.477888
-4.124923 -2.722755 -1.481205
-4.118157 -2.709390 -1.477708
-4.118534 -2.696061 -1.478057
-4.126451 -2.682653 -1.482466
-4.131897 -2.669190 -1.485542
-4.132215 -2.655765 -1.485849
-4.120246 -2.642635 -1.479528
-4.114894 -2.629423 -1.476771
-4.110415 -2.616228 -1.474480
-4.116091 -2.602656 -1.477664
-4.118343 -2.589173 -1.478999
-4.114348 -2.575978 -1.476961
-4.097628 -2.563536 -1.468054
-4.089930 -2.550702 -1.464011
-4.099640 -2.536766 -1.469358
-4.115998 -2.522233 -1.478292
-4.119302 -2.508532 -1.480179
-4.118616 -2.495116 -1.479910
-4.119718 -2.481537 -1.480604
-4.114625 -2.468516 -1.477952
-4.111004 -2.455389 -1.476092
-4.109494 -2.442068 -1.475368
-4.111558 -2.428356 -1.476572
-4.110954 -2.414917 -1.476334
-4.108160 -2.401733 -1.474911
-4.103679 -2.388779 -1.472574
-4.087433 -2.377402 -1.463882
-4.080891 -2.364859 -1.460427
-4.099400 -2.348813 -1.470500
-4.099557 -2.335258 -1.470659
-4.091662 -2.322916 -1.466467
-4.089985 -2.309660 -1.465631
-4.094588 -2.295378 -1.468185
-4.101031 -2.280719 -1.471731
-4.101720 -2.266978 -1.472167
-4.088528 -2.255709 -1.465100
-4.064234 -2.246623 -1.452033
-4.080334 -2.230078 -1.460787
-4.091481 -2.214314 -1.466864
-4.092689 -2.200413 -1.467568
-4.084221 -2.188483 -1.463040
-4.081485 -2.175410 -1.461607
-4.074609 -2.163249 -1.457934
-4.069803 -2.150681 -1.455377
-4.092522 -2.131844 -1.467693
-4.091629 -2.118273 -1.467244
-4.075072 -2.108449 -1.458327
-4.061282 -2.098107 -1.450901
-4.059567 -2.084864 -1.449999
-4.072605 -2.067834 -1.457067
-4.076881 -2.052933 -1.459396
-4.070571 -2.040793 -1.456000
-4.081054 -2.024112 -1.461677
-4.082954 -2.009682 -1.462711
-4.068897 -1.999743 -1.455115
-4.063540 -1.987412 -1.452218
-4.065755 -1.972877 -1.453409
-4.070148 -1.957633 -1.455774
-4.069790 -1.943770 -1.455565
-4.059067 -1.933120 -1.449749
-4.060560 -1.918676 -1.450532
-4.060796 -1.904591 -1.450630
-4.060647 -1.890599 -1.450515
-4.051196 -1.879693 -1.445367
-4.058661 -1.863097 -1.449356
-4.052152 -1.851223 -1.445787
-4.050960 -1.837516 -1.445086
-4.051076 -1.823318 -1.445086
-4.059567 -1.806036 -1.449604
-4.054258 -1.793715 -1.446660
-4.055473 -1.778969 -1.447233
-4.055874 -1.764477 -1.447360
-4.056709 -1.749770 -1.447714
-4.046639 -1.739291 -1.442171
-4.036316 -1.728987 -1.436484
-4.035938 -1.714736 -1.436161
-4.042163 -1.697733 -1.439396
-4.025625 -1.690081 -1.430332
-4.015738 -1.679767 -1.424851
-4.027540 -1.660235 -1.431072
-4.019881 -1.648955 -1.426778
-4.014413 -1.636748 -1.423658
-4.029123 -1.615548 -1.431420
-4.035335 -1.597955 -1.434584
-4.029124 -1.585918 -1.431035
-4.015558 -1.577308 -1.423510
-4.017845 -1.561344 -1.424527
-4.026364 -1.542315 -1.428893
-4.032103 -1.524455 -1.431748
-4.022688 -1.513863 -1.426423
-4.013081 -1.503412 -1.420986
-4.023767 -1.482830 -1.426473
-4.029945 -1.464327 -1.429517
-4.017290 -1.455350 -1.422405
-4.008107 -1.444646 -1.417155
-4.014492 -1.425774 -1.420274
-4.009695 -1.412699 -1.417362
-4.016973 -1.393082 -1.420936
-4.013380 -1.379221 -1.418647
-4.019241 -1.360089 -1.421431
-3.999068 -1.355351 -1.410204
-3.996096 -1.341049 -1.408215
-4.007475 -1.318471 -1.413925
-4.007366 -1.302300 -1.413448
-4.000242 -1.290141 -1.409191
-3.996109 -1.276205 -1.406530
-3.994990 -1.260416 -1.405475
-3.991045 -1.246252 -1.402892
-3.978924 -1.237056 -1.395916
-3.990388 -1.213289 -1.401572
-3.984843 -1.199931 -1.398101
-3.988526 -1.180691 -1.399563
-3.995537 -1.159160 -1.402794
-3.993111 -1.143549 -1.400963
-3.986754 -1.130449 -1.397023
-3.982163 -1.116171 -1.394022
-3.980246 -1.100072 -1.392445
-3.973712 -1.087036 -1.388398
-3.971334 -1.071162 -1.386570
-3.968664 -1.055443 -1.384584
-3.972888 -1.034864 -1.386277
-3.971697 -1.017982 -1.385082
-3.969826 -1.001544 -1.383528
-3.962604 -0.988945 -1.379130
-3.964489 -0.969769 -1.379593
-3.957091 -0.957376 -1.375124
-3.952646 -0.942877 -1.372243
-3.940142 -0.934500 -1.365094
-3.942848 -0.914766 -1.366055
-3.952680 -0.889550 -1.370824
-3.957189 -0.868348 -1.372785
-3.950457 -0.855923 -1.368803
-3.945124 -0.842565 -1.365596
-3.926989 -0.839573 -1.355628
-3.936481 -0.814733 -1.360362
-3.942441 -0.792741 -1.363258
-3.927008 -0.788310 -1.354845
-3.933753 -0.765934 -1.358241
-3.517588 -3.292956 -1.151221
-3.568171 -3.296884 -1.178881
-3.567153 -3.285203 -1.178796
-3.575708 -3.276317 -1.183855
-3.578672 -3.265807 -1.185898
-3.579973 -3.254848 -1.187037
-3.577419 -3.242878 -1.186091
-3.574993 -3.231012 -1.185204
-3.572065 -3.219083 -1.184035
-3.569114 -3.207220 -1.182844
-3.566425 -3.195492 -1.181784
-3.564278 -3.183962 -1.181007
-3.558788 -3.171702 -1.178414
-3.563303 -3.161842 -1.181215
-3.568250 -3.152061 -1.184243
-3.555570 -3.138393 -1.177735
-3.554914 -3.127465 -1.177717
-3.555725 -3.116880 -1.178483
-3.561233 -3.107266 -1.181783
-3.561523 -3.096590 -1.182253
-3.554109 -3.084456 -1.178542
-3.546295 -3.072352 -1.174607
-3.543350 -3.061238 -1.173298
-3.557280 -3.053147 -1.181125
-3.587358 -3.047680 -1.197700
-3.715942 -3.058181 -1.267678
-3.882909 -3.000048 -1.360151
-3.900213 -2.989987 -1.369800
-4.058322 -2.970110 -1.456433
-4.075763 -2.958814 -1.466155
-4.086793 -2.946726 -1.472389
-4.094193 -2.934201 -1.476646
-4.088287 -2.920465 -1.473662
-4.096976 -2.907969 -1.478610
-4.100424 -2.894994 -1.480702
-4.091697 -2.881137 -1.476166
-4.087080 -2.867640 -1.473859
-4.092383 -2.854783 -1.476944
-4.089092 -2.841407 -1.475349
-4.082213 -2.827892 -1.471794
-4.089406 -2.815060 -1.475894
-4.097589 -2.802191 -1.480530
-4.113763 -2.789497 -1.489515
-4.114157 -2.776194 -1.489903
-4.102619 -2.762616 -1.483788
-4.096732 -2.749254 -1.480746
-4.103211 -2.736096 -1.484436
-4.107411 -2.722851 -1.486882
-4.109746 -2.709553 -1.488308
-4.104484 -2.696254 -1.485590
-4.106383 -2.682939 -1.486772
-4.112713 -2.669533 -1.490366
-4.109493 -2.656242 -1.488751
-4.099566 -2.643144 -1.483476
-4.093649 -2.630022 -1.480383
-4.094952 -2.616696 -1.481224
-4.104122 -2.603026 -1.486353
-4.109977 -2.589402 -1.489672
-4.106277 -2.576199 -1.487777
-4.092648 -2.563588 -1.480463
-4.080056 -2.551047 -1.473710
-4.093742 -2.536857 -1.481292
-4.104571 -2.522717 -1.487313
-4.102184 -2.509483 -1.486121
-4.098457 -2.496374 -1.484196
-4.094336 -2.483328 -1.482052
-4.095744 -2.469793 -1.482924
-4.097656 -2.456179 -1.484070
-4.098289 -2.442666 -1.484515
-4.095329 -2.429529 -1.482996
-4.095693 -2.416025 -1.483290
-4.095900 -2.402524 -1.483496
-4.091329 -2.389608 -1.481092
-4.079452 -2.377689 -1.474695
-4.078269 -2.364417 -1.474136
-4.082631 -2.350354 -1.476603
-4.093116 -2.335324 -1.482413
-4.084020 -2.323165 -1.477525
-4.075326 -2.311024 -1.472855
-4.074426 -2.297683 -1.472440
-4.070795 -2.284799 -1.470530
-4.074839 -2.270595 -1.472812
-4.070410 -2.257858 -1.470462
-4.063715 -2.245573 -1.466872
-4.062374 -2.232319 -1.466204
-4.078312 -2.215665 -1.474977
-4.082879 -2.201117 -1.477533
-4.080881 -2.187862 -1.476501
-4.073133 -2.175836 -1.472322
-4.060989 -2.164837 -1.465739
-4.053086 -2.153001 -1.461470
-4.058029 -2.138283 -1.464219
-4.070437 -2.121735 -1.471047
-4.070209 -2.108070 -1.470964
-4.068127 -2.094842 -1.469866
-4.055796 -2.084194 -1.463162
-4.071415 -2.066472 -1.471733
-4.057942 -2.056198 -1.464397
-4.058443 -2.042300 -1.464697
-4.073482 -2.024392 -1.472942
-4.071118 -2.011154 -1.471669
-4.065959 -1.998714 -1.468864
-4.063944 -1.985392 -1.467774
-4.062362 -1.971938 -1.466917
-4.061310 -1.958313 -1.466345
-4.060355 -1.944643 -1.465822
-4.053142 -1.932915 -1.461873
-4.052915 -1.919011 -1.461739
-4.052157 -1.905252 -1.461310
-4.050828 -1.891658 -1.460563
-4.046709 -1.878984 -1.458287
-4.049523 -1.863956 -1.459795
-4.047531 -1.850531 -1.458670
-4.042407 -1.838199 -1.455828
-4.050464 -1.821159 -1.460186
-4.051737 -1.806463 -1.460829
-4.049421 -1.793043 -1.459504
-4.044081 -1.780748 -1.456520
-4.041770 -1.767317 -1.455185
-4.031698 -1.756881 -1.449602
-4.038662 -1.739812 -1.453323
-4.028487 -1.729465 -1.447670
-4.013134 -1.721291 -1.439183
-4.023474 -1.702682 -1.444725
-4.026006 -1.687159 -1.445994
-4.020646 -1.674897 -1.442944
-4.018112 -1.661433 -1.441430
-4.020118 -1.645970 -1.442387
-4.018334 -1.632100 -1.441265
-4.025849 -1.614035 -1.445213
-4.033758 -1.595642 -1.449365
-4.025384 -1.584574 -1.444619
-4.008532 -1.577492 -1.435237
-4.011602 -1.561155 -1.436719
-4.019240 -1.542531 -1.440684
-4.023070 -1.525589 -1.442560
-4.023841 -1.510027 -1.442756
-4.033214 -1.490113 -1.447633
-4.013944 -1.484410 -1.436879
-4.015768 -1.468132 -1.437617
-4.018414 -1.451329 -1.438792
-4.021778 -1.434037 -1.440346
-4.009469 -1.424900 -1.433349
-4.010294 -1.408812 -1.433497
-3.993607 -1.402105 -1.424097
-4.004739 -1.380288 -1.429835
-3.992905 -1.370965 -1.423057
-3.986950 -1.358408 -1.419469
-3.986989 -1.342434 -1.419132
-3.996878 -1.320706 -1.424139
-4.004443 -1.300097 -1.427867
-3.996451 -1.288429 -1.423126
-3.989970 -1.275871 -1.419195
-3.996487 -1.255480 -1.422315
-3.995666 -1.239360 -1.421436
-3.978816 -1.233007 -1.411846
-3.986869 -1.211289 -1.415763
-3.981117 -1.198039 -1.412179
-3.988253 -1.176565 -1.415573
-3.993267 -1.156249 -1.417806
-3.992117 -1.139768 -1.416687
-3.982611 -1.128697 -1.411035
-3.974353 -1.116833 -1.406055
-3.970327 -1.102147 -1.403362
-3.972584 -1.083156 -1.404065
-3.970868 -1.066772 -1.402615
-3.961222 -1.055835 -1.396876
-3.972677 -1.030156 -1.402542
-3.972507 -1.012479 -1.401926
-3.970413 -0.996122 -1.400273
-3.967925 -0.980027 -1.398414
-3.957133 -0.970000 -1.392084
-3.959502 -0.950375 -1.392865
-3.949394 -0.940010 -1.386932
-3.943624 -0.926518 -1.383355
-3.945186 -0.907532 -1.383747
-3.956239 -0.881243 -1.389269
-3.958548 -0.861616 -1.390103
-3.952138 -0.848846 -1.386271
-3.953183 -0.830338 -1.386480
-3.952249 -0.813480 -1.385656
-3.944397 -0.802319 -1.381147
-3.934761 -0.792844 -1.375716
-3.931649 -0.778284 -1.373833
-3.856662 -0.823470 -1.333363
-3.549911 -3.293060 -1.181018
-3.571872 -3.288183 -1.193415
-3.574312 -3.277493 -1.195188
-3.576445 -3.266731 -1.196787
-3.574633 -3.254900 -1.196229
-3.574435 -3.243567 -1.196542
-3.574916 -3.232456 -1.197215
-3.575638 -3.221443 -1.198011
-3.568906 -3.208573 -1.194733
-3.566849 -3.196974 -1.193993
-3.565668 -3.185647 -1.193724
-3.559443 -3.173175 -1.190690
-3.564188 -3.163341 -1.193638
-3.565380 -3.152686 -1.194638
-3.561111 -3.140849 -1.192645
-3.556503 -3.129017 -1.190457
-3.560862 -3.119139 -1.193164
-3.562292 -3.108644 -1.194262
-3.558094 -3.097047 -1.192272
-3.555355 -3.085802 -1.191073
-3.547313 -3.073619 -1.186961
-3.546258 -3.062816 -1.186667
-3.554894 -3.053756 -1.191674
-3.576593 -3.046858 -1.203835
-3.877295 -3.012451 -1.370607
-3.883972 -3.001111 -1.374529
-3.961026 -2.973151 -1.417587
-4.006977 -2.965477 -1.443072
-4.054898 -2.957528 -1.469642
-4.061831 -2.945125 -1.473690
-4.061738 -2.932017 -1.473871
-4.081597 -2.920630 -1.485015
-4.073940 -2.906820 -1.481028
-4.066364 -2.893103 -1.477078
-4.062482 -2.879728 -1.475154
-4.059310 -2.866443 -1.473614
-4.068389 -2.853923 -1.478809
-4.067670 -2.840778 -1.478609
-4.062295 -2.827413 -1.475843
-4.063734 -2.814402 -1.476822
-4.078157 -2.801874 -1.484944
-4.091194 -2.789146 -1.492301
-4.096133 -2.776052 -1.495197
-4.083862 -2.762516 -1.488611
-4.078830 -2.749230 -1.486008
-4.086269 -2.736143 -1.490269
-4.082755 -2.722899 -1.488494
-4.089976 -2.709703 -1.492630
-4.094124 -2.696436 -1.495070
-4.090020 -2.683194 -1.492960
-4.079681 -2.670079 -1.487409
-4.081846 -2.656818 -1.488747
-4.077418 -2.643692 -1.486448
-4.078399 -2.630441 -1.487127
-4.084603 -2.616985 -1.490684
-4.095138 -2.603276 -1.496627
-4.099178 -2.589746 -1.498986
-4.088678 -2.576913 -1.493325
-4.073984 -2.564420 -1.485346
-4.068567 -2.551496 -1.482481
-4.065432 -2.538464 -1.480872
-4.083184 -2.523931 -1.490785
-4.085146 -2.510433 -1.491985
-4.073884 -2.498007 -1.485885
-4.072770 -2.484787 -1.485383
-4.075625 -2.471192 -1.487069
-4.082600 -2.457143 -1.491027
-4.080719 -2.443936 -1.490096
-4.070780 -2.431625 -1.484715
-4.070067 -2.418339 -1.484424
-4.079069 -2.403870 -1.489494
-4.083461 -2.389873 -1.492019
-4.076395 -2.377326 -1.488214
-4.071803 -2.364501 -1.485774
-4.070205 -2.351283 -1.484984
-4.068941 -2.338017 -1.484378
-4.069404 -2.324485 -1.484723
-4.067019 -2.311385 -1.483493
-4.061400 -2.298826 -1.480475
-4.051768 -2.286993 -1.475237
-4.055617 -2.272885 -1.477445
-4.060527 -2.258528 -1.480237
-4.062660 -2.244616 -1.481493
-4.060653 -2.231457 -1.480459
-4.067837 -2.216490 -1.484502
-4.066652 -2.203122 -1.483918
-4.063520 -2.190154 -1.482256
-4.054622 -2.178433 -1.477405
-4.046669 -2.166584 -1.473073
-4.047709 -2.152782 -1.473710
-4.046651 -2.139432 -1.473183
-4.044611 -2.126305 -1.472111
-4.068908 -2.106827 -1.485596
-4.062412 -2.094656 -1.482056
-4.065209 -2.080191 -1.483651
-4.052390 -2.069699 -1.476609
-4.044599 -2.058002 -1.472343
-4.040390 -2.045406 -1.470055
-4.048077 -2.029566 -1.474339
-4.050163 -2.015184 -1.475525
-4.050876 -2.001147 -1.475947
-4.047388 -1.988299 -1.474043
-4.045234 -1.975069 -1.472873
-4.053252 -1.958756 -1.477323
-4.055587 -1.944076 -1.478627
-4.050626 -1.931633 -1.475893
-4.049159 -1.918099 -1.475085
-4.037851 -1.907754 -1.468832
-4.027190 -1.897292 -1.462932
-4.036869 -1.880069 -1.468274
-4.028627 -1.868840 -1.463703
-4.025653 -1.855837 -1.462039
-4.045876 -1.834621 -1.473195
-4.051434 -1.818412 -1.476238
-4.050363 -1.804525 -1.475609
-4.035933 -1.795573 -1.467589
-4.029857 -1.783598 -1.464182
-4.011811 -1.776238 -1.454151
-4.021292 -1.758342 -1.459332
-4.025219 -1.742483 -1.461437
-4.023333 -1.728864 -1.460320
-4.018459 -1.716435 -1.457546
-4.022098 -1.700505 -1.459470
-4.031331 -1.682142 -1.464478
-4.032402 -1.667082 -1.464967
-4.023769 -1.656134 -1.460086
-4.018709 -1.643676 -1.457172
-4.030550 -1.623746 -1.463588
-4.032536 -1.608035 -1.464550
-4.029430 -1.594556 -1.462691
-4.018812 -1.584514 -1.456674
-4.006402 -1.575377 -1.449660
-4.015464 -1.556171 -1.454495
-4.022176 -1.537914 -1.458021
-4.017797 -1.524888 -1.455415
-4.013675 -1.511721 -1.452941
-4.009840 -1.498389 -1.450616
-3.993248 -1.491464 -1.441243
-3.995198 -1.475205 -1.442091
-4.016705 -1.448735 -1.453715
-3.996667 -1.443649 -1.442414
-3.993122 -1.430002 -1.440199
-3.996670 -1.412511 -1.441885
-3.962294 -1.415473 -1.422657
-3.965622 -1.398083 -1.424201
-3.971113 -1.379357 -1.426924
-3.987181 -1.354516 -1.435460
-3.984559 -1.340006 -1.433688
-3.986273 -1.322936 -1.434294
-3.997216 -1.300368 -1.439965
-3.998260 -1.283385 -1.440175
-3.987669 -1.273223 -1.433974
-3.982306 -1.259949 -1.430640
-3.985187 -1.241616 -1.431828
-3.995290 -1.218682 -1.436972
-3.974028 -1.215070 -1.424871
-3.981168 -1.193730 -1.428366
-3.988930 -1.171785 -1.432189
-3.989383 -1.154339 -1.431988
-3.986304 -1.139085 -1.429841
-3.979022 -1.126545 -1.425382
-3.970484 -1.114845 -1.420230
-3.967841 -1.099197 -1.418306
-3.967251 -1.082095 -1.417502
-3.971412 -1.061635 -1.419297
-3.969817 -1.045038 -1.417936
-3.965351 -1.030404 -1.415003
-3.967010 -1.011407 -1.415424
-3.966217 -0.994082 -1.414505
-3.962896 -0.978550 -1.412210
-3.958209 -0.964023 -1.409176
-3.948008 -0.953621 -1.403140
-3.954667 -0.930720 -1.406327
-3.959326 -0.909223 -1.408432
-3.955551 -0.894103 -1.405950
-3.962496 -0.870786 -1.409335
-3.962747 -0.852614 -1.409091
-3.958926 -0.837693 -1.406650
-3.956538 -0.821758 -1.405019
-3.954424 -0.805722 -1.403568
-3.943430 -0.797005 -1.397311
-3.934092 -0.787215 -1.391994
-3.927597 -0.775352 -1.388262
-3.952632 -0.737521 -1.401741
-3.555058 -3.296239 -1.195862
-3.569349 -3.289069 -1.204165
-3.573180 -3.278766 -1.206709
-3.567985 -3.265915 -1.204277
-3.568130 -3.254644 -1.204775
-3.566418 -3.242909 -1.204242
-3.573187 -3.233484 -1.208374
-3.570711 -3.221623 -1.207403
-3.566165 -3.209303 -1.205280
-3.562299 -3.197242 -1.203523
-3.559730 -3.185575 -1.202471
-3.568547 -3.176673 -1.207698
-3.566837 -3.165269 -1.207104
-3.560669 -3.152910 -1.204040
-3.553112 -3.140344 -1.200197
-3.555395 -3.130008 -1.201784
-3.558042 -3.119754 -1.203566
-3.561055 -3.109573 -1.205543
-3.555568 -3.097697 -1.202811
-3.546837 -3.085280 -1.198273
-3.547632 -3.074771 -1.199000
-3.548187 -3.064234 -1.199588
-3.548735 -3.053710 -1.200165
-3.548837 -3.043126 -1.200489
-3.863660 -3.011592 -1.376874
-3.880989 -3.001668 -1.386745
-3.977875 -2.975926 -1.441280
-4.013863 -2.967077 -1.461511
-4.034380 -2.956275 -1.473149
-4.047836 -2.944582 -1.480861
-4.056546 -2.932318 -1.485934
-4.054382 -2.919032 -1.484959
-4.047145 -2.905364 -1.481158
-4.049390 -2.892494 -1.482622
-4.046735 -2.879260 -1.481358
-4.046678 -2.866226 -1.481532
-4.052705 -2.853558 -1.485087
-4.057940 -2.840784 -1.488197
-4.060376 -2.827819 -1.489746
-4.058972 -2.814658 -1.489155
-4.060203 -2.801614 -1.490026
-4.068751 -2.788798 -1.494966
-4.074827 -2.775820 -1.498527
-4.064272 -2.762397 -1.492826
-4.054828 -2.749102 -1.487739
-4.057160 -2.736045 -1.489204
-4.057481 -2.722944 -1.489547
-4.054244 -2.709830 -1.487905
-4.078880 -2.696638 -1.501787
-4.072721 -2.683459 -1.498511
-4.060149 -2.670430 -1.491658
-4.053570 -2.657410 -1.488141
-4.055994 -2.644226 -1.489638
-4.063422 -2.630856 -1.493922
-4.063161 -2.617672 -1.493917
-4.078755 -2.603831 -1.502750
-4.084343 -2.590279 -1.506003
-4.065122 -2.577938 -1.495420
-4.043174 -2.565948 -1.483313
-4.037832 -2.553147 -1.480463
-4.046296 -2.539456 -1.485310
-4.059371 -2.525327 -1.492728
-4.062007 -2.511865 -1.494322
-4.056901 -2.499011 -1.491595
-4.054026 -2.486001 -1.490110
-4.057538 -2.472405 -1.492187
-4.058704 -2.458993 -1.492954
-4.049280 -2.446670 -1.487808
-4.046201 -2.433733 -1.486201
-4.055561 -2.419373 -1.491535
-4.063456 -2.405075 -1.496051
-4.069556 -2.390905 -1.499564
-4.060375 -2.378676 -1.494544
-4.055737 -2.365906 -1.492058
-4.050502 -2.353256 -1.489236
-4.052659 -2.339551 -1.490540
-4.050946 -2.326402 -1.489681
-4.050026 -2.313129 -1.489264
-4.049718 -2.299750 -1.489186
-4.044264 -2.287235 -1.486232
-4.047574 -2.273221 -1.488172
-4.050191 -2.259281 -1.489722
-4.054820 -2.244919 -1.492396
-4.055587 -2.231231 -1.492909
-4.057230 -2.217344 -1.493910
-4.047206 -2.205790 -1.488390
-4.043585 -2.192992 -1.486446
-4.035378 -2.181198 -1.481935
-4.042559 -2.166094 -1.486023
-4.043940 -2.152198 -1.486866
-4.038729 -2.139787 -1.484024
-4.042740 -2.125235 -1.486333
-4.046221 -2.110746 -1.488343
-4.049064 -2.096354 -1.489995
-4.048144 -2.082861 -1.489540
-4.047767 -2.069216 -1.489386
-4.037301 -2.058216 -1.483588
-4.034538 -2.045233 -1.482094
-4.028992 -2.033023 -1.479040
-4.034828 -2.017653 -1.482348
-4.039773 -2.002447 -1.485153
-4.030550 -1.991300 -1.480034
-4.024816 -1.979192 -1.476861
-4.038417 -1.961252 -1.484497
-4.041399 -1.946414 -1.486191
-4.043118 -1.931911 -1.487175
-4.042289 -1.918175 -1.486730
-4.028599 -1.908615 -1.479088
-4.015765 -1.898896 -1.471920
-4.016811 -1.884604 -1.472510
-4.019104 -1.869838 -1.473793
-4.023340 -1.854334 -1.476158
-4.023071 -1.840345 -1.475999
-4.038021 -1.820832 -1.484345
-4.037139 -1.806913 -1.483832
-4.031403 -1.794773 -1.480598
-4.012913 -1.787484 -1.470228
-4.005554 -1.776096 -1.466076
-4.005340 -1.761965 -1.465915
-4.015178 -1.743815 -1.471367
-4.020894 -1.727160 -1.474508
-4.015326 -1.714991 -1.471334
-4.013302 -1.701376 -1.470134
-4.027946 -1.680741 -1.478246
-4.034582 -1.663289 -1.481873
-4.024765 -1.652806 -1.476295
-4.014492 -1.642586 -1.470456
-4.011827 -1.629061 -1.468862
-4.021744 -1.609850 -1.474291
-4.019299 -1.596096 -1.472804
-4.005891 -1.587375 -1.465183
-4.004370 -1.573192 -1.464196
-4.014465 -1.553453 -1.469691
-4.020982 -1.535242 -1.473175
-4.017642 -1.521679 -1.471145
-4.006108 -1.512127 -1.464530
-3.988215 -1.505823 -1.454357
-3.986412 -1.491534 -1.453160
-3.997226 -1.470732 -1.458995
-3.995180 -1.456380 -1.457642
-3.987567 -1.444896 -1.453172
-3.996095 -1.424850 -1.457699
-4.006847 -1.403414 -1.463455
-3.985265 -1.399350 -1.451163
-3.974220 -1.389674 -1.444742
-3.985718 -1.367486 -1.450879
-3.999734 -1.343631 -1.458407
-3.994974 -1.330211 -1.455457
-3.974257 -1.325973 -1.443606
-3.989072 -1.301155 -1.451542
-3.991082 -1.283602 -1.452332
-3.970176 -1.279622 -1.440352
-3.963652 -1.267126 -1.436372
-3.973259 -1.244749 -1.441359
-3.978660 -1.224734 -1.443993
-3.966707 -1.215395 -1.436964
-3.967580 -1.198002 -1.437059
-3.988500 -1.167660 -1.448287
-3.988336 -1.150556 -1.447784
-3.980065 -1.138651 -1.442770
-3.981015 -1.120662 -1.442870
-3.977237 -1.105717 -1.440339
-3.973175 -1.090918 -1.437645
-3.968352 -1.076604 -1.434526
-3.947571 -1.073293 -1.422556
-3.951049 -1.053262 -1.424038
-3.959360 -1.029686 -1.428196
-3.958132 -1.012715 -1.427066
-3.960912 -0.992807 -1.428159
-3.954927 -0.979182 -1.424403
-3.943661 -0.969488 -1.417732
-3.929326 -0.962209 -1.409377
-3.949282 -0.929361 -1.419999
-3.953299 -0.908292 -1.421816
-3.963481 -0.882437 -1.427054
-3.966307 -0.862138 -1.428242
-3.958039 -0.850502 -1.423321
-3.950857 -0.838182 -1.419025
-3.948826 -0.821930 -1.417601
-3.942350 -0.809366 -1.413751
-3.935741 -0.797105 -1.409860
-3.933347 -0.781605 -1.408329
-3.932364 -0.765104 -1.407610
-3.820425 -0.841302 -1.345717
-3.553948 -3.425692 -1.202177
-3.546878 -3.306844 -1.202982
-3.567797 -3.301732 -1.215051
