ply
format ascii 1.0
comment ---
element vertex 1594
property float x
property float y
property float z
element face 0
property list uchar uint vertex_indices
end_header
-3.265075 -4.131965 -1.443903
-3.278204 -4.128756 -1.451223
-3.286010 -4.121671 -1.453762
-3.289650 -4.111651 -1.452593
-3.302838 -4.108221 -1.459872
-3.307385 -4.098797 -1.459495
-3.302733 -4.083221 -1.451044
-3.300434 -4.069366 -1.444710
-3.302737 -4.058645 -1.442434
-3.314460 -4.054052 -1.448361
-3.322841 -4.047223 -1.451356
-3.322256 -4.034692 -1.446587
-3.331107 -4.028119 -1.449972
-3.340309 -4.021699 -1.453636
-3.341205 -4.010178 -1.450172
-3.334559 -3.994207 -1.440298
-3.335714 -3.983021 -1.437117
-3.339834 -3.973618 -1.436467
-3.349530 -3.967431 -1.440529
-3.353830 -3.958105 -1.440020
-3.358470 -3.948975 -1.439799
-3.363489 -3.940053 -1.439894
-3.377685 -3.936126 -1.447640
-3.384438 -3.928053 -1.449148
-3.389171 -3.918877 -1.448969
-3.392638 -3.909036 -1.447743
-3.397566 -3.899963 -1.447725
-3.395176 -3.887163 -1.441696
-3.399217 -3.877684 -1.440964
-3.408083 -3.870592 -1.444172
-3.415227 -3.862597 -1.445956
-3.413908 -3.850504 -1.440862
-3.426596 -3.845109 -1.447121
-3.431294 -3.835876 -1.446898
-3.433724 -3.825598 -1.444849
-3.438441 -3.816378 -1.444642
-3.448130 -3.809362 -1.448404
-3.452155 -3.799792 -1.447629
-3.453098 -3.788896 -1.444407
-3.456867 -3.779243 -1.443439
-3.459608 -3.769167 -1.441659
-3.470262 -3.762358 -1.446113
-3.482192 -3.755976 -1.451536
-3.490157 -3.747916 -1.453822
-3.499450 -3.740324 -1.457125
-3.504914 -3.731194 -1.457428
-3.508105 -3.721190 -1.455962
-3.503553 -3.708328 -1.448518
-3.504412 -3.697550 -1.445282
-3.513097 -3.689611 -1.448072
-3.514887 -3.679192 -1.445559
-3.512665 -3.667419 -1.439994
-3.526606 -3.661195 -1.446762
-3.530714 -3.651580 -1.446022
-3.531054 -3.640737 -1.442429
-3.538550 -3.632225 -1.444252
-3.548960 -3.624581 -1.448253
-3.545554 -3.612619 -1.441859
-3.546130 -3.601945 -1.438475
-3.552534 -3.593028 -1.439454
-3.580312 -3.590239 -1.456318
-3.579555 -3.579110 -1.451918
-3.564584 -3.564118 -1.437029
-3.571194 -3.555177 -1.438131
-3.579148 -3.546557 -1.440208
-3.597106 -3.540465 -1.449601
-3.590028 -3.527903 -1.440636
-3.591421 -3.517552 -1.437889
-3.599458 -3.508822 -1.439980
-3.604102 -3.499248 -1.439595
-3.612839 -3.490595 -1.442163
-3.623989 -3.482419 -1.446448
-3.613128 -3.469398 -1.434889
-3.604188 -3.456951 -1.424767
-3.626872 -3.451115 -1.437283
-3.651148 -3.445374 -1.450855
-3.651323 -3.382016 -1.428660
-3.522831 -3.331881 -1.328470
-3.572934 -3.299909 -1.349383
-3.577677 -3.290714 -1.349188
-3.581006 -3.281334 -1.348019
-3.578805 -3.271344 -1.343084
-3.576441 -3.261390 -1.338055
-3.572078 -3.251292 -1.331692
-3.575170 -3.241956 -1.330385
-3.576057 -3.232420 -1.327590
-3.574586 -3.222705 -1.323218
-3.570498 -3.212831 -1.317108
-3.569218 -3.203221 -1.312895
-3.567214 -3.193598 -1.308211
-3.568839 -3.184235 -1.305948
-3.571414 -3.174925 -1.304315
-3.569844 -3.165401 -1.299943
-3.567426 -3.155875 -1.295025
-3.567356 -3.146480 -1.291661
-3.569428 -3.137173 -1.289703
-3.569226 -3.127794 -1.286259
-3.566377 -3.118371 -1.281098
-3.564189 -3.109001 -1.276380
-3.562868 -3.099675 -1.272234
-3.561392 -3.090373 -1.267996
-3.562084 -3.081098 -1.265159
-3.563241 -3.071821 -1.262620
-3.565161 -3.062533 -1.260566
-3.567374 -3.053225 -1.258693
-3.591440 -3.043472 -1.270694
-3.753361 -3.019796 -1.366292
-3.789982 -3.008250 -1.385719
-3.870319 -2.994545 -1.432453
-3.911194 -2.981803 -1.454187
-3.946205 -2.968929 -1.472107
-3.974681 -2.956052 -1.485829
-3.994040 -2.943434 -1.493786
-3.993122 -2.931962 -1.489126
-3.994811 -2.920307 -1.486075
-3.996411 -2.908634 -1.482960
-4.006902 -2.896201 -1.485284
-4.009615 -2.884334 -1.482813
-4.022109 -2.871518 -1.486286
-4.015986 -2.860395 -1.478403
-4.023497 -2.847913 -1.478792
-4.040476 -2.834309 -1.484862
-4.047474 -2.821658 -1.484861
-4.066551 -2.807478 -1.492073
-4.071918 -2.794803 -1.491013
-4.075041 -2.782358 -1.488594
-4.074789 -2.770332 -1.484155
-4.077256 -2.757923 -1.481326
-4.082077 -2.745142 -1.479876
-4.086757 -2.732334 -1.478325
-4.093596 -2.719144 -1.478024
-4.104540 -2.705225 -1.480101
-4.106776 -2.692662 -1.477067
-4.114330 -2.679175 -1.477121
-4.119637 -2.666035 -1.475853
-4.133140 -2.651366 -1.479308
-4.127351 -2.640233 -1.471628
-4.134796 -2.626641 -1.471575
-4.132952 -2.614874 -1.466205
-4.122351 -2.604978 -1.455878
-4.127574 -2.591951 -1.454601
-4.143057 -2.576752 -1.459143
-4.127456 -2.568313 -1.446125
-4.153325 -2.550821 -1.456525
-4.151022 -2.539650 -1.451081
-4.131445 -2.532678 -1.436036
-4.128694 -2.522005 -1.430484
-2.901059 -4.727223 -1.430082
-2.893642 -4.699091 -1.415333
-2.925801 -4.711790 -1.440717
-2.932587 -4.703968 -1.442369
-2.939726 -4.696440 -1.444355
-2.946206 -4.687783 -1.445515
-2.956514 -4.684303 -1.450991
-2.968284 -4.682580 -1.458038
-2.965821 -4.661186 -1.448892
-2.952564 -4.625432 -1.427664
-2.963436 -4.622323 -1.433639
-2.966706 -4.609007 -1.431071
-2.978209 -4.606447 -1.437651
-2.985075 -4.597732 -1.439045
-2.992906 -4.590206 -1.441485
-3.005525 -4.588643 -1.449142
-3.004668 -4.570156 -1.442068
-3.005125 -4.553498 -1.436493
-3.012485 -4.545401 -1.438426
-3.013033 -4.529125 -1.433045
-3.022887 -4.524072 -1.437673
-3.035790 -4.522528 -1.445521
-3.036192 -4.506356 -1.440080
-3.046241 -4.501431 -1.444879
-3.056621 -4.496823 -1.450006
-3.065101 -4.490026 -1.453124
-3.054859 -4.462507 -1.436759
-3.064252 -4.456928 -1.440899
-3.072007 -4.449544 -1.443338
-3.077895 -4.440172 -1.443861
-3.073566 -4.420059 -1.433951
-3.104312 -4.436884 -1.459878
-3.105044 -4.422173 -1.455163
-3.114811 -4.416860 -1.459639
-3.106251 -4.393007 -1.445658
-3.104236 -4.376066 -1.438370
-3.108635 -4.365677 -1.437564
-3.112754 -4.355088 -1.436504
-3.121495 -4.349037 -1.440051
-3.126724 -4.339612 -1.440123
-3.140755 -4.338534 -1.448861
-3.147973 -4.330966 -1.450881
-3.157529 -4.325558 -1.455182
-3.159261 -4.312976 -1.451865
-3.158379 -4.298156 -1.446059
-3.158707 -4.284579 -1.441478
-3.157695 -4.269959 -1.435657
-3.166096 -4.263689 -1.438901
-3.184275 -4.265799 -1.451459
-3.188519 -4.255835 -1.450697
-3.188858 -4.242636 -1.446254
-3.189901 -4.230145 -1.442519
-3.202297 -4.227085 -1.449492
-3.209097 -4.219368 -1.451183
-3.212868 -4.209213 -1.450044
-3.218359 -4.200470 -1.450522
-3.219929 -4.188667 -1.447370
-3.210503 -4.168426 -1.434093
-3.223826 -4.165887 -1.441850
-3.234864 -4.161486 -1.447464
-3.244387 -4.155861 -1.451661
-3.244438 -4.143169 -1.447207
-3.246622 -4.132135 -1.444725
-3.254530 -4.125294 -1.447442
-3.263916 -4.119466 -1.451478
-3.271880 -4.112571 -1.454212
-3.275870 -4.102868 -1.453372
-3.283809 -4.095905 -1.456065
-3.298177 -4.093265 -1.464462
-3.283751 -4.071159 -1.447275
-3.288716 -4.062227 -1.447340
-3.295737 -4.054644 -1.449217
-3.306158 -4.049227 -1.454068
-3.313795 -4.041947 -1.456451
-3.317785 -4.032328 -1.455639
-3.328842 -4.027121 -1.460977
-3.329186 -4.015237 -1.456996
-3.318824 -3.996935 -1.443792
-3.323127 -3.987648 -1.443300
-3.327719 -3.978539 -1.443058
-3.330215 -3.968209 -1.441023
-3.340582 -3.962442 -1.445713
-3.344944 -3.953179 -1.445266
-3.338309 -3.937760 -1.435502
-3.345801 -3.930316 -1.437731
-3.360616 -3.926819 -1.446112
-3.369958 -3.920226 -1.449843
-3.379420 -3.913624 -1.453649
-3.389118 -3.907072 -1.457626
-3.389092 -3.895432 -1.453488
-3.382168 -3.880352 -1.443655
-3.387347 -3.871498 -1.443883
-3.390185 -3.861476 -1.442177
-3.395437 -3.852650 -1.442461
-3.404817 -3.845789 -1.446122
-3.403981 -3.834032 -1.441416
-3.403550 -3.822535 -1.437065
-3.406993 -3.812878 -1.435881
-3.428818 -3.811526 -1.449570
-3.441257 -3.805758 -1.455602
-3.438493 -3.793229 -1.449371
-3.441086 -3.783101 -1.447467
-3.442723 -3.772591 -1.444808
-3.447675 -3.763496 -1.444801
-3.455759 -3.755674 -1.447278
-3.459903 -3.746211 -1.446617
-3.462610 -3.736177 -1.444820
-3.461771 -3.724779 -1.440238
-3.469031 -3.716551 -1.442036
-3.488869 -3.713017 -1.453661
-3.486908 -3.701209 -1.448205
-3.492225 -3.692126 -1.448439
-3.501750 -3.684529 -1.451930
-3.506825 -3.675301 -1.451955
-3.511728 -3.666000 -1.451842
-3.513636 -3.655677 -1.449424
-3.513109 -3.644575 -1.445148
-3.519217 -3.635686 -1.445964
-3.522544 -3.625884 -1.444650
-3.523444 -3.615332 -1.441495
-3.533663 -3.607669 -1.445413
-3.537819 -3.598111 -1.444723
-3.544457 -3.589279 -1.445902
-3.566749 -3.584910 -1.458822
-3.570031 -3.574970 -1.457430
-3.554728 -3.559927 -1.442166
-3.557887 -3.550083 -1.440728
-3.566426 -3.541661 -1.443285
-3.566070 -3.530898 -1.439239
-3.579983 -3.523762 -1.445740
-3.583551 -3.513974 -1.444586
-3.581908 -3.502943 -1.439609
-3.590172 -3.494282 -1.441903
-3.596032 -3.485023 -1.442424
-3.594456 -3.474094 -1.437526
-3.593539 -3.463368 -1.433128
-3.603259 -3.454921 -1.436442
-3.628402 -3.449539 -1.450852
-3.637512 -3.440738 -1.453644
-3.630870 -3.428852 -1.445119
-3.622471 -3.416755 -1.435378
-3.535481 -3.312322 -1.341880
-3.564246 -3.306407 -1.358450
-3.563432 -3.296537 -1.354419
-3.573241 -3.287963 -1.357742
-3.578586 -3.278807 -1.357962
-3.580330 -3.269233 -1.355697
-3.575497 -3.258997 -1.348927
-3.577013 -3.249454 -1.346523
-3.574731 -3.239574 -1.341536
-3.575450 -3.230000 -1.338604
-3.574661 -3.220322 -1.334656
-3.572610 -3.210582 -1.329867
-3.571142 -3.200925 -1.325486
-3.570914 -3.191386 -1.321950
-3.569671 -3.181809 -1.317743
-3.571025 -3.172403 -1.315281
-3.567287 -3.162757 -1.309429
-3.564078 -3.153191 -1.303949
-3.564829 -3.143822 -1.301108
-3.566878 -3.134501 -1.299127
-3.567634 -3.125139 -1.296291
-3.565327 -3.115717 -1.291445
-3.563455 -3.106338 -1.286898
-3.563737 -3.097013 -1.283767
-3.564631 -3.087698 -1.281036
-3.563243 -3.078382 -1.276824
-3.563485 -3.069080 -1.273675
-3.562157 -3.059799 -1.269513
-3.564387 -3.050481 -1.267647
-3.610606 -3.040215 -1.293989
-3.738013 -3.027321 -1.372082
-3.775428 -3.015937 -1.392313
-3.800200 -3.004627 -1.404365
-3.867675 -2.991253 -1.443394
-3.895200 -2.979064 -1.456920
-3.935434 -2.965914 -1.478350
-3.949877 -2.953832 -1.483424
-3.961663 -2.941763 -1.486776
-3.980533 -2.929079 -1.494507
-3.960673 -2.919050 -1.478049
-3.973060 -2.906672 -1.481681
-3.979768 -2.894636 -1.481748
-3.991574 -2.882063 -1.484933
-3.995476 -2.870107 -1.483207
-3.995676 -2.858473 -1.479193
-4.025756 -2.843671 -1.493442
-4.024751 -2.831990 -1.488628
-4.029933 -2.819591 -1.487574
-4.019546 -2.809021 -1.477066
-4.042430 -2.794333 -1.486684
-4.051781 -2.781185 -1.488067
-4.044326 -2.770243 -1.479329
-4.062187 -2.755762 -1.485759
-4.068341 -2.742824 -1.485141
-4.076044 -2.729585 -1.485421
-4.079696 -2.716914 -1.483274
-4.086238 -2.703738 -1.482823
-4.090619 -2.690873 -1.481079
-4.094070 -2.678144 -1.478781
-4.105331 -2.663996 -1.481045
-4.114482 -2.650152 -1.482048
-4.130295 -2.634979 -1.486901
-4.124925 -2.623835 -1.479443
-4.119834 -2.612746 -1.472186
-4.108838 -2.602991 -1.461571
-4.114300 -2.589942 -1.460465
-4.118274 -2.577241 -1.458517
-4.140004 -2.560658 -1.466709
-4.107440 -2.556263 -1.444011
-4.113911 -2.543266 -1.443579
-4.121943 -2.529958 -1.444052
-4.138236 -2.514712 -1.449195
-2.901038 -4.715276 -1.438945
-2.907312 -4.707268 -1.440206
-2.906752 -4.689048 -1.433340
-2.906105 -4.670705 -1.426372
-2.920689 -4.674148 -1.437169
-2.941040 -4.685305 -1.454502
-2.950519 -4.680676 -1.459069
-2.959636 -4.675313 -1.463136
-2.939931 -4.630378 -1.434176
-2.948999 -4.625012 -1.438209
-2.949942 -4.608634 -1.432983
-2.962825 -4.608115 -1.441249
-2.973000 -4.603814 -1.446387
-2.979939 -4.595190 -1.447860
-2.991593 -4.592533 -1.454555
-2.992053 -4.575606 -1.448815
-2.989076 -4.554570 -1.439354
-2.995443 -4.545313 -1.440225
-2.996335 -4.529408 -1.435133
-3.002055 -4.519484 -1.435342
-3.012176 -4.514833 -1.440319
-3.012901 -4.499068 -1.435166
-3.031701 -4.504482 -1.449428
-3.033746 -4.490365 -1.445729
-3.039708 -4.480847 -1.446241
-3.037725 -4.462468 -1.438379
-3.045398 -4.455054 -1.440764
-3.054104 -4.448780 -1.444234
-3.060047 -4.439494 -1.444816
-3.063196 -4.427269 -1.442516
-3.084484 -4.434369 -1.459011
-3.090065 -4.424709 -1.459222
-3.088498 -4.407712 -1.452126
-3.086939 -4.390950 -1.445120
-3.093230 -4.382349 -1.446175
-3.095488 -4.369752 -1.443158
-3.093778 -4.353360 -1.436185
-3.096429 -4.341441 -1.433668
-3.102839 -4.333265 -1.434953
-3.114547 -4.330173 -1.441527
-3.125886 -4.326640 -1.447701
-3.141174 -4.326709 -1.457751
-3.140708 -4.312073 -1.452221
-3.137089 -4.294724 -1.443653
-3.141689 -4.285013 -1.443203
-3.142926 -4.272355 -1.439495
-3.150612 -4.265500 -1.442089
-3.158200 -4.258543 -1.444582
-3.164516 -4.250475 -1.445844
-3.166102 -4.238389 -1.442569
-3.167619 -4.226343 -1.439263
-3.178916 -4.222533 -1.445312
-3.191008 -4.219285 -1.452082
-3.198992 -4.212589 -1.454927
-3.201769 -4.201678 -1.452854
-3.204551 -4.190837 -1.450808
-3.202629 -4.176367 -1.444382
-3.208241 -4.167889 -1.445036
-3.213493 -4.159143 -1.445358
-3.224749 -4.154958 -1.451246
-3.238714 -4.152703 -1.459599
-3.244501 -4.144254 -1.460378
-3.246752 -4.133221 -1.457916
-3.242476 -4.117533 -1.449512
-3.246265 -4.107771 -1.448512
-3.254677 -4.101300 -1.451719
-3.263999 -4.095412 -1.455730
-3.269776 -4.087018 -1.456522
-3.272655 -4.076647 -1.454708
-3.276164 -4.066739 -1.453472
-3.275641 -4.054188 -1.448649
-3.282880 -4.046812 -1.450763
-3.280683 -4.033300 -1.444499
-3.301517 -4.034610 -1.458629
-3.310134 -4.027963 -1.461908
-3.301914 -4.010778 -1.450383
-3.296861 -3.995749 -1.441704
-3.301196 -3.986570 -1.441270
-3.308255 -3.979030 -1.443208
-3.316177 -3.971962 -1.445881
-3.319737 -3.962302 -1.444766
-3.328890 -3.955876 -1.448475
-3.334441 -3.947336 -1.449067
-3.333462 -3.935125 -1.444065
-3.335498 -3.924663 -1.441666
-3.346049 -3.918879 -1.446520
-3.345033 -3.906787 -1.441537
-3.355414 -3.900818 -1.446214
-3.369770 -3.896837 -1.454207
-3.363621 -3.882145 -1.444930
-3.367497 -3.872699 -1.444100
-3.376606 -3.865880 -1.447639
-3.379118 -3.855737 -1.445665
-3.386582 -3.848027 -1.447807
-3.386174 -3.836501 -1.443425
-3.387147 -3.825693 -1.440204
-3.390477 -3.816027 -1.438937
-3.391285 -3.805219 -1.435608
-3.394531 -3.795557 -1.434287
-3.420512 -3.795999 -1.451482
-3.407479 -3.779091 -1.436899
-3.418349 -3.772701 -1.441746
-3.428176 -3.765776 -1.445718
-3.435322 -3.757656 -1.447505
-3.440566 -3.748717 -1.447752
-3.446290 -3.739955 -1.448377
-3.444932 -3.728367 -1.443349
-3.442822 -3.716559 -1.437749
-3.444890 -3.706432 -1.435489
-3.457598 -3.700333 -1.441644
-3.468154 -3.693324 -1.446064
-3.472065 -3.683817 -1.445234
-3.480472 -3.675914 -1.447925
-3.490366 -3.668474 -1.451757
-3.498848 -3.660473 -1.454461
-3.502390 -3.650750 -1.453312
-3.502830 -3.640007 -1.449764
-3.505385 -3.629996 -1.447864
-3.507109 -3.619738 -1.445332
-3.508276 -3.609335 -1.442382
-3.514538 -3.600521 -1.443341
-3.523557 -3.592503 -1.446392
-3.528830 -3.583323 -1.446571
-3.526529 -3.571957 -1.441003
-3.533726 -3.563329 -1.442641
-3.545225 -3.555840 -1.447507
-3.553296 -3.547338 -1.449763
-3.543342 -3.534062 -1.438495
-3.548457 -3.524810 -1.438544
-3.566209 -3.518698 -1.448002
-3.574557 -3.510125 -1.450414
-3.575028 -3.499623 -1.446972
-3.573596 -3.488719 -1.442138
-3.573468 -3.478170 -1.438287
-3.582190 -3.469613 -1.440950
-3.589860 -3.460770 -1.442821
-3.600383 -3.452474 -1.446758
-3.607599 -3.443427 -1.448258
-3.613627 -3.434103 -1.448881
-3.610182 -3.422944 -1.442636
-3.602992 -3.411172 -1.433717
-3.604288 -3.401043 -1.430949
-3.600988 -3.390140 -1.424891
-3.583410 -3.376918 -1.408641
-3.582143 -3.346425 -1.396919
-3.558216 -3.293698 -1.362395
-3.567413 -3.285045 -1.365335
-3.577543 -3.276423 -1.368898
-3.574902 -3.266363 -1.363572
-3.574080 -3.256542 -1.359526
-3.574339 -3.246861 -1.356237
-3.575534 -3.237286 -1.353601
-3.571303 -3.227266 -1.347247
-3.570929 -3.217620 -1.343557
-3.571426 -3.208066 -1.340469
-3.571470 -3.198497 -1.337081
-3.571222 -3.188931 -1.333501
-3.571233 -3.179402 -1.330104
-3.569242 -3.169789 -1.325365
-3.565457 -3.160132 -1.319434
-3.563265 -3.150599 -1.314591
-3.562532 -3.141158 -1.310738
-3.563313 -3.131785 -1.307903
-3.564000 -3.122416 -1.305007
-3.562646 -3.113012 -1.300760
-3.563918 -3.103672 -1.298258
-3.564549 -3.094324 -1.295333
-3.563171 -3.084972 -1.291089
-3.562321 -3.075643 -1.287199
-3.562523 -3.066323 -1.284003
-3.564450 -3.056986 -1.281932
-3.567551 -3.047615 -1.280618
-3.867810 -2.998725 -1.460045
-3.852744 -2.988478 -1.446505
-3.887927 -2.975919 -1.465090
-3.909104 -2.963749 -1.474630
-3.925391 -2.951644 -1.480987
-3.935306 -2.939778 -1.483250
-3.936071 -2.928444 -1.479704
-3.946371 -2.916377 -1.482149
-3.954097 -2.904401 -1.482938
-3.964362 -2.892118 -1.485282
-3.961713 -2.880899 -1.479538
-3.972738 -2.868377 -1.482295
-3.987103 -2.855386 -1.487076
-3.971282 -2.845478 -1.473163
-4.006523 -2.829971 -1.490732
-4.003101 -2.818646 -1.484444
-4.006258 -2.806537 -1.482190
-4.007321 -2.794656 -1.478643
-4.021467 -2.781004 -1.483043
-4.033484 -2.767492 -1.486097
-4.031191 -2.755921 -1.480460
-4.046016 -2.741805 -1.485140
-4.058399 -2.727912 -1.488297
-4.060445 -2.715554 -1.485225
-4.059029 -2.703759 -1.480083
-4.064230 -2.690859 -1.478885
-4.076915 -2.676600 -1.482109
-4.089664 -2.662218 -1.485331
-4.099165 -2.648341 -1.486604
-4.102349 -2.635620 -1.484147
-4.106205 -2.622777 -1.482086
-4.113967 -2.609155 -1.482309
-4.108901 -2.598188 -1.475067
-4.111269 -2.585758 -1.472178
-4.116120 -2.572844 -1.470743
-4.109119 -2.562624 -1.462499
-4.099056 -2.553279 -1.452559
-4.088903 -2.544169 -1.442644
-4.102868 -2.529526 -1.446565
-4.130447 -2.511562 -1.458228
-4.153393 -2.494627 -1.467220
-4.092925 -2.498751 -1.429038
-2.896109 -4.730399 -1.454314
-2.899665 -4.718474 -1.452374
-2.891397 -4.688871 -1.436225
-2.882722 -4.658902 -1.419673
-2.880550 -4.638615 -1.410917
-2.912216 -4.666896 -1.442087
-2.903644 -4.637171 -1.425686
-2.945353 -4.678228 -1.468112
-2.947656 -4.663429 -1.464294
-2.938879 -4.633461 -1.447664
-2.931044 -4.605142 -1.432253
-2.945120 -4.606520 -1.442063
-2.954056 -4.600791 -1.445904
-2.962583 -4.594397 -1.449234
-2.975466 -4.593533 -1.457442
-2.983768 -4.586594 -1.460425
-2.961737 -4.541265 -1.429475
-2.976119 -4.542237 -1.439336
-2.983660 -4.534535 -1.441539
-2.988603 -4.523644 -1.440871
-2.993035 -4.512196 -1.439664
-2.998186 -4.501682 -1.439269
-3.016282 -4.506479 -1.452969
-3.018597 -4.492615 -1.449489
-3.024591 -4.483131 -1.450024
-3.027291 -4.469949 -1.447045
-3.038811 -4.466821 -1.453532
-3.040938 -4.453162 -1.450003
-3.046659 -4.443602 -1.450331
-3.049222 -4.430670 -1.447353
-3.053989 -4.420241 -1.446737
-3.069563 -4.421359 -1.457441
-3.071718 -4.408217 -1.454118
-3.075677 -4.397087 -1.452716
-3.077101 -4.383454 -1.448733
-3.083855 -4.375375 -1.450282
-3.088672 -4.365379 -1.449858
-3.085597 -4.347638 -1.441417
-3.087087 -4.334608 -1.437697
-3.092982 -4.325979 -1.438480
-3.098307 -4.316840 -1.438704
-3.101430 -4.305664 -1.436735
-3.107364 -4.297208 -1.437609
-3.108488 -4.284334 -1.433705
-3.117794 -4.279064 -1.437961
-3.120252 -4.267564 -1.435437
-3.130847 -4.263422 -1.440954
-3.137242 -4.255499 -1.442327
-3.146593 -4.250164 -1.446590
-3.150860 -4.240393 -1.445889
-3.150550 -4.226767 -1.440768
-3.153688 -4.216184 -1.439028
-3.161926 -4.209916 -1.442220
-3.177334 -4.209517 -1.452275
-3.187106 -4.204359 -1.456883
-3.186887 -4.191097 -1.451955
-3.186846 -4.178098 -1.447241
-3.187511 -4.165770 -1.443236
-3.196211 -4.159781 -1.446836
-3.209120 -4.156972 -1.454371
-3.216724 -4.150013 -1.456897
-3.217941 -4.138236 -1.453457
-3.231818 -4.135916 -1.461810
-3.228414 -4.120806 -1.454109
-3.226406 -4.106866 -1.447756
-3.229867 -4.096963 -1.446478
-3.236251 -4.089158 -1.447894
-3.254265 -4.089443 -1.459925
-3.262873 -4.083036 -1.463318
-3.260831 -4.069330 -1.457027
-3.264353 -4.059485 -1.455812
-3.270410 -4.051350 -1.456893
-3.262957 -4.034349 -1.445832
-3.265396 -4.023953 -1.443703
-3.276190 -4.018937 -1.449045
-3.292552 -4.017337 -1.459305
-3.283113 -3.999488 -1.446625
-3.281574 -3.986724 -1.441008
-3.287708 -3.978716 -1.442188
-3.297776 -3.973042 -1.446813
-3.303569 -3.964757 -1.447666
-3.309895 -3.956766 -1.448978
-3.316599 -3.948967 -1.450611
-3.321518 -3.940121 -1.450684
-3.326889 -3.931524 -1.451146
-3.328039 -3.920582 -1.447967
-3.328928 -3.909549 -1.444584
-3.331794 -3.899632 -1.442911
-3.336411 -3.890666 -1.442743
-3.346281 -3.884443 -1.447040
-3.350927 -3.875446 -1.446878
-3.351912 -3.864586 -1.443621
-3.362494 -3.858579 -1.448468
-3.369934 -3.850930 -1.450644
-3.374818 -3.841994 -1.450662
-3.374851 -3.830726 -1.446627
-3.381018 -3.822411 -1.447719
-3.388019 -3.814456 -1.449494
-3.399118 -3.808337 -1.454644
-3.395875 -3.795659 -1.447932
-3.396364 -3.784741 -1.444325
-3.405146 -3.777494 -1.447534
-3.405859 -3.766716 -1.444127
-3.414095 -3.759165 -1.446865
-3.422100 -3.751461 -1.449395
-3.428234 -3.742939 -1.450391
-3.434276 -3.734352 -1.451303
-3.434031 -3.723251 -1.447145
-3.431730 -3.711409 -1.441358
-3.430572 -3.700089 -1.436516
-3.442127 -3.693611 -1.441840
-3.450938 -3.686021 -1.444945
-3.456992 -3.677369 -1.445841
-3.465791 -3.669666 -1.448898
-3.473045 -3.661361 -1.450714
-3.472342 -3.650286 -1.446262
-3.477689 -3.641306 -1.446572
-3.488470 -3.634101 -1.451121
-3.498077 -3.626428 -1.454724
-3.498673 -3.615826 -1.451303
-3.501143 -3.605849 -1.449349
-3.501882 -3.595363 -1.446064
-3.504666 -3.585527 -1.444368
-3.508192 -3.575921 -1.443247
-3.518301 -3.568199 -1.447165
-3.523743 -3.559095 -1.447493
-3.530426 -3.550312 -1.448760
-3.528752 -3.539259 -1.443673
-3.531709 -3.529484 -1.442115
-3.533813 -3.519500 -1.439915
-3.536483 -3.509677 -1.438149
-3.568210 -3.506924 -1.458177
-3.571469 -3.497091 -1.456798
-3.565737 -3.485188 -1.448717
-3.569666 -3.475570 -1.447859
-3.575307 -3.466323 -1.448269
-3.584731 -3.457858 -1.451466
-3.588878 -3.448232 -1.450750
-3.583048 -3.436590 -1.442699
-3.581467 -3.425888 -1.437801
-3.583421 -3.415915 -1.435507
-3.583548 -3.405624 -1.431889
-3.595809 -3.397531 -1.437100
-3.593184 -3.386770 -1.431490
-3.589299 -3.375866 -1.424994
-3.596991 -3.366908 -1.426867
-3.587127 -3.345060 -1.412473
-3.588991 -3.335250 -1.410180
-3.539404 -3.289204 -1.360768
-3.565523 -3.282580 -1.375691
-3.569993 -3.273307 -1.375318
-3.569415 -3.263483 -1.371404
-3.571007 -3.253908 -1.369016
-3.570971 -3.244191 -1.365499
-3.570400 -3.234453 -1.361620
-3.571998 -3.224925 -1.359255
-3.569080 -3.215055 -1.353774
-3.569363 -3.205470 -1.350517
-3.569204 -3.195875 -1.346963
-3.570617 -3.186399 -1.344495
-3.568249 -3.176718 -1.339447
-3.566883 -3.167131 -1.335098
-3.563177 -3.157473 -1.329173
-3.561707 -3.147960 -1.324782
-3.560357 -3.138483 -1.320484
-3.560940 -3.129092 -1.317497
-3.560278 -3.119679 -1.313679
-3.560219 -3.110297 -1.310271
-3.561081 -3.100940 -1.307483
-3.563173 -3.091594 -1.305514
-3.561088 -3.082226 -1.300770
-3.559741 -3.072887 -1.296527
-3.562827 -3.063533 -1.295214
-3.566073 -3.054151 -1.293998
-3.572223 -3.044684 -1.294676
-3.652230 -3.033357 -1.343623
-3.702810 -3.022059 -1.373083
-3.836765 -3.007312 -1.456547
-3.857536 -2.995704 -1.466147
-3.881183 -2.983745 -1.477527
-3.885111 -2.972538 -1.476111
-3.892057 -2.961119 -1.476620
-3.905622 -2.949215 -1.481341
-3.915893 -2.937385 -1.483905
-3.916419 -2.926142 -1.480225
-3.925116 -2.914256 -1.481728
-3.947772 -2.901116 -1.492031
-3.950605 -2.889473 -1.489737
-3.948235 -2.878277 -1.484157
-3.949086 -2.866780 -1.480603
-3.962922 -2.853915 -1.485162
-3.978316 -2.840724 -1.490638
-3.971470 -2.829908 -1.482229
-3.984968 -2.816717 -1.486449
-3.989707 -2.804470 -1.485205
-3.996065 -2.791954 -1.484936
-4.003631 -2.779199 -1.485384
-4.008760 -2.766703 -1.484309
-4.012798 -2.754309 -1.482548
-4.021498 -2.741163 -1.483606
-4.035231 -2.727133 -1.487683
-4.036527 -2.714987 -1.484194
-4.035713 -2.703190 -1.479434
-4.042190 -2.690152 -1.479058
-4.056747 -2.675618 -1.483500
-4.065393 -2.662043 -1.484368
-4.075386 -2.648152 -1.486016
-4.079830 -2.635273 -1.484349
-4.081030 -2.623042 -1.480764
-4.085597 -2.610162 -1.479176
-4.106770 -2.593802 -1.487344
-4.106633 -2.581890 -1.482985
-4.100022 -2.571491 -1.474877
-4.095282 -2.560830 -1.467913
-4.094254 -2.549463 -1.463156
-4.108308 -2.523230 -1.463055
-4.127617 -2.507187 -1.470091
-4.132494 -2.494720 -1.468844
-2.880929 -4.712771 -1.451042
-2.885169 -4.702021 -1.449966
-2.880573 -4.677955 -1.438125
-2.864443 -4.637051 -1.412430
-2.875067 -4.635537 -1.418979
-2.886298 -4.634562 -1.426128
-2.900178 -4.637019 -1.436297
-2.916824 -4.642966 -1.449583
-2.930461 -4.644267 -1.459162
-2.927608 -4.622563 -1.449328
-2.927223 -4.604400 -1.442433
-2.934124 -4.596148 -1.444021
-2.944469 -4.592383 -1.449544
-2.947891 -4.579361 -1.447064
-2.954698 -4.570782 -1.448465
-2.963516 -4.564738 -1.452134
-2.961007 -4.544261 -1.442969
-2.961169 -4.527386 -1.436903
-2.971867 -4.523732 -1.442698
-2.974348 -4.509915 -1.439296
-2.977898 -4.497519 -1.437127
-2.990967 -4.496596 -1.445501
-3.001288 -4.492270 -1.450799
-3.009765 -4.485715 -1.454052
-3.010864 -4.470630 -1.449265
-3.019070 -4.463824 -1.452246
-3.022829 -4.451999 -1.450426
-3.023341 -4.436667 -1.445159
-3.034859 -4.433642 -1.451733
-3.031651 -4.414502 -1.442594
-3.044386 -4.412792 -1.450462
-3.047812 -4.401064 -1.448459
-3.060775 -4.399472 -1.456523
-3.066916 -4.390671 -1.457403
-3.071499 -4.380312 -1.456674
-3.072981 -4.366882 -1.452755
-3.075108 -4.354248 -1.449557
-3.081249 -4.345725 -1.450542
-3.082453 -4.332397 -1.446477
-3.087178 -4.322623 -1.446061
-3.088445 -4.309599 -1.442151
-3.089212 -4.296236 -1.437783
-3.093616 -4.286420 -1.437140
-3.100334 -4.278810 -1.438848
-3.102408 -4.266957 -1.435907
-3.107142 -4.257616 -1.435660
-3.113211 -4.249514 -1.436757
-3.127524 -4.248718 -1.446026
-3.132611 -4.239706 -1.446137
-3.138851 -4.231725 -1.447395
-3.140126 -4.219512 -1.443793
-3.143631 -4.209285 -1.442407
-3.150251 -4.201717 -1.444072
-3.162224 -4.198558 -1.450920
-3.166634 -4.189128 -1.450431
-3.164463 -4.174431 -1.443626
-3.163497 -4.160852 -1.438034
-3.173392 -4.155949 -1.442862
-3.183130 -4.150852 -1.447514
-3.198991 -4.150389 -1.457947
-3.209202 -4.145455 -1.462977
-3.203309 -4.128360 -1.452814
-3.194648 -4.109422 -1.440132
-3.204050 -4.103969 -1.444433
-3.210075 -4.096003 -1.445563
-3.218384 -4.089661 -1.448811
-3.228535 -4.084570 -1.453746
-3.232920 -4.075376 -1.453335
-3.242095 -4.069497 -1.457331
-3.240260 -4.056060 -1.451218
-3.247440 -4.048801 -1.453380
-3.253942 -4.041059 -1.454914
-3.255051 -4.029757 -1.451547
-3.256072 -4.018464 -1.448125
-3.262553 -4.010725 -1.449647
-3.262807 -3.999033 -1.445567
-3.263597 -3.987748 -1.441994
-3.271181 -3.980706 -1.444509
-3.280401 -3.974612 -1.448462
-3.288615 -3.967845 -1.451498
-3.296593 -3.960882 -1.454306
-3.298527 -3.950342 -1.451771
-3.305261 -3.942607 -1.453467
-3.308444 -3.932822 -1.452042
-3.315210 -3.925066 -1.453752
-3.316701 -3.914361 -1.450862
-3.321543 -3.905527 -1.450893
-3.320683 -3.893623 -1.445995
-3.327136 -3.885674 -1.447426
-3.331344 -3.876521 -1.446919
-3.339487 -3.869397 -1.449781
-3.343436 -3.860087 -1.449044
-3.348806 -3.851494 -1.449517
-3.356982 -3.844268 -1.452365
-3.360767 -3.834852 -1.451479
-3.368011 -3.827099 -1.453513
-3.372035 -3.817785 -1.452824
-3.384603 -3.812440 -1.459294
-3.393037 -3.805087 -1.462269
-3.393952 -3.794288 -1.458962
-3.391838 -3.782193 -1.453158
-3.392217 -3.771274 -1.449450
-3.398864 -3.763096 -1.450930
-3.403288 -3.753945 -1.450570
-3.411285 -3.746274 -1.453138
-3.415541 -3.737020 -1.452628
-3.417019 -3.726648 -1.449853
-3.419522 -3.716716 -1.447924
-3.419519 -3.705831 -1.443973
-3.420173 -3.695250 -1.440572
-3.429740 -3.688057 -1.444364
-3.437432 -3.680098 -1.446624
-3.445812 -3.672340 -1.449418
-3.448593 -3.662535 -1.447722
-3.454123 -3.653704 -1.448219
-3.457078 -3.643971 -1.446666
-3.460532 -3.634419 -1.445512
-3.468113 -3.626232 -1.447615
-3.479539 -3.619238 -1.452725
-3.487092 -3.610923 -1.454764
-3.486804 -3.600131 -1.450656
-3.491754 -3.590983 -1.450652
-3.492527 -3.580579 -1.447395
-3.499061 -3.571891 -1.448616
-3.508361 -3.563957 -1.451963
-3.515168 -3.555261 -1.453365
-3.512806 -3.544030 -1.447711
-3.512990 -3.533552 -1.444034
-3.517664 -3.524287 -1.443803
-3.521380 -3.514767 -1.442837
-3.522840 -3.504688 -1.440161
-3.524838 -3.494766 -1.437899
-3.537241 -3.487319 -1.443500
-3.562178 -3.482648 -1.458497
-3.556077 -3.470773 -1.450109
-3.563822 -3.462031 -1.452124
-3.570334 -3.452979 -1.453200
-3.572239 -3.442943 -1.450838
-3.555468 -3.429185 -1.434626
-3.555078 -3.418850 -1.430619
-3.569638 -3.411378 -1.437657
-3.572812 -3.401696 -1.436272
-3.567006 -3.390426 -1.428303
-3.585470 -3.383417 -1.438122
-3.597764 -3.375213 -1.443378
-3.587492 -3.363300 -1.432187
-3.590706 -3.353618 -1.430832
-3.598415 -3.344602 -1.432726
-3.589998 -3.333233 -1.422974
-3.570701 -3.320502 -1.405448
-3.559355 -3.289401 -1.386593
-3.559330 -3.279610 -1.383032
-3.557026 -3.269601 -1.377867
-3.565356 -3.260747 -1.380239
-3.567854 -3.251257 -1.378478
-3.567660 -3.241517 -1.374824
-3.567063 -3.231771 -1.370899
-3.569839 -3.222331 -1.369342
-3.570281 -3.212708 -1.366158
-3.566536 -3.202807 -1.360072
-3.566483 -3.193210 -1.356567
-3.567343 -3.183690 -1.353701
-3.567392 -3.174136 -1.350282
-3.565229 -3.164494 -1.345349
-3.562160 -3.154853 -1.339812
-3.559232 -3.145268 -1.334390
-3.559189 -3.135826 -1.330951
-3.559022 -3.126395 -1.327434
-3.559031 -3.116985 -1.324043
-3.556975 -3.107553 -1.319263
-3.558511 -3.098196 -1.316914
-3.560213 -3.088835 -1.314676
-3.560601 -3.079464 -1.311555
-3.559273 -3.070106 -1.307292
-3.560850 -3.060741 -1.304971
-3.565630 -3.051317 -1.304773
-3.616107 -3.040902 -1.334812
-3.671209 -3.029835 -1.367712
-3.697108 -3.019099 -1.381183
-3.810487 -3.004888 -1.451966
-3.847976 -2.992656 -1.472658
-3.864825 -2.981001 -1.479742
-3.872967 -2.969625 -1.481098
-3.887298 -2.957803 -1.486438
-3.894861 -2.946252 -1.487345
-3.909836 -2.934109 -1.493003
-3.908055 -2.923040 -1.487830
-3.902438 -2.912287 -1.480205
-3.916138 -2.899955 -1.484943
-3.938797 -2.886665 -1.495336
-3.933104 -2.875823 -1.487630
-3.939152 -2.863853 -1.487379
-3.951253 -2.851170 -1.490924
-3.965996 -2.838055 -1.496084
-3.966408 -2.826442 -1.492191
-3.943231 -2.817691 -1.473537
-3.966698 -2.803246 -1.484061
-3.978574 -2.790079 -1.487286
-3.982614 -2.777859 -1.485606
-3.995411 -2.764337 -1.489321
-3.997266 -2.752300 -1.486246
-4.001508 -2.739876 -1.484629
-4.015833 -2.725801 -1.489169
-4.019184 -2.713386 -1.486960
-4.017409 -2.701818 -1.481623
-4.026563 -2.688364 -1.482925
-4.029368 -2.675978 -1.480361
-4.046545 -2.660913 -1.486454
-4.050097 -2.648304 -1.484308
-4.069785 -2.632520 -1.491822
-4.065301 -2.621459 -1.484851
-4.055668 -2.611566 -1.474851
-4.065988 -2.597596 -1.476742
-4.087111 -2.581238 -1.485006
-4.078361 -2.571403 -1.475612
-4.075727 -2.560356 -1.469876
-4.084777 -2.546715 -1.471027
-4.104182 -2.530631 -1.478229
-4.116335 -2.516241 -1.481182
-4.122160 -2.503437 -1.480467
-4.111578 -2.494872 -1.470286
-2.903947 -4.753209 -1.494710
-2.862049 -4.672502 -1.436704
-2.857279 -4.648416 -1.424616
-2.852721 -4.624763 -1.412825
-2.859857 -4.618292 -1.415254
-2.873055 -4.620341 -1.424910
-2.898861 -4.639969 -1.449548
-2.905561 -4.631876 -1.451072
-2.913537 -4.625411 -1.454054
-2.915833 -4.610948 -1.450253
-2.917427 -4.595555 -1.445633
-2.908453 -4.565997 -1.428660
-2.927798 -4.574542 -1.444835
-2.932159 -4.562918 -1.443465
-2.929518 -4.542210 -1.434021
-2.936163 -4.533682 -1.435331
-2.946938 -4.530375 -1.441350
-2.957566 -4.526743 -1.447149
-2.960593 -4.513560 -1.444300
-2.962739 -4.499403 -1.440498
-2.969755 -4.491285 -1.442206
-2.977720 -4.484308 -1.444975
-2.988746 -4.480935 -1.451137
-2.988599 -4.464395 -1.444911
-3.001512 -4.463164 -1.453135
-3.008304 -4.454801 -1.454604
-3.010261 -4.441003 -1.450811
-3.009360 -4.424170 -1.443972
-3.009720 -4.408957 -1.438582
-3.037072 -4.423373 -1.462313
-3.030957 -4.401221 -1.450002
-3.037636 -4.393053 -1.451472
-3.046323 -4.387029 -1.455088
-3.058475 -4.384594 -1.462363
-3.062652 -4.373848 -1.461199
-3.051564 -4.347663 -1.444057
-3.054728 -4.336249 -1.441967
-3.061188 -4.328217 -1.443347
-3.075514 -4.327939 -1.452890
-3.080791 -4.318717 -1.453036
-3.082959 -4.306561 -1.450007
-3.084155 -4.293596 -1.446025
-3.090374 -4.285480 -1.447219
-3.095051 -4.275953 -1.446853
-3.093932 -4.261167 -1.440644
-3.095784 -4.249245 -1.437495
-3.102327 -4.241632 -1.439097
-3.115077 -4.239522 -1.446911
-3.122423 -4.232559 -1.449296
-3.126290 -4.222573 -1.448223
-3.129230 -4.211851 -1.446255
-3.134395 -4.203081 -1.446507
-3.138867 -4.193758 -1.446089
-3.144977 -4.185824 -1.447289
-3.148061 -4.175425 -1.445542
-3.146377 -4.161240 -1.439185
-3.149198 -4.150793 -1.437244
-3.157876 -4.145020 -1.440975
-3.170273 -4.142092 -1.448263
-3.180032 -4.137014 -1.452981
-3.186034 -4.129009 -1.454089
-3.186891 -4.117136 -1.450303
-3.183063 -4.101872 -1.442110
-3.186045 -4.091771 -1.440412
-3.195035 -4.086066 -1.444384
-3.207836 -4.083026 -1.451910
-3.215769 -4.076417 -1.454839
-3.223087 -4.069333 -1.457178
-3.222990 -4.057102 -1.452623
-3.228762 -4.048959 -1.453532
-3.231466 -4.038742 -1.451609
-3.238837 -4.031667 -1.453991
-3.240635 -4.020897 -1.451254
-3.246047 -4.012522 -1.451837
-3.250110 -4.003277 -1.451190
-3.251343 -3.992259 -1.447983
-3.252630 -3.981333 -1.444847
-3.258320 -3.973172 -1.445699
-3.269093 -3.968082 -1.451111
-3.275372 -3.960204 -1.452465
-3.282378 -3.952729 -1.454460
-3.287660 -3.944212 -1.454907
-3.292323 -3.935328 -1.454803
-3.296394 -3.926106 -1.454175
-3.297882 -3.915445 -1.451275
-3.303892 -3.907328 -1.452363
-3.308255 -3.898291 -1.452002
-3.311227 -3.888506 -1.450426
-3.311473 -3.877299 -1.446489
-3.320473 -3.870727 -1.450165
-3.326728 -3.862671 -1.451443
-3.333087 -3.854640 -1.452800
-3.331554 -3.842630 -1.447368
-3.338701 -3.834983 -1.449399
-3.352191 -3.830376 -1.456831
-3.351858 -3.819020 -1.452449
-3.360518 -3.811967 -1.455721
-3.368362 -3.804472 -1.458280
-3.376919 -3.797251 -1.461422
-3.384432 -3.789498 -1.463664
-3.378440 -3.775717 -1.454571
-3.377707 -3.764370 -1.449924
-3.384036 -3.756119 -1.451184
-3.391112 -3.748153 -1.453052
-3.390511 -3.736958 -1.448551
-3.396452 -3.728498 -1.449472
-3.400832 -3.719385 -1.449100
-3.402288 -3.709114 -1.446327
-3.406626 -3.699995 -1.445925
-3.415605 -3.692640 -1.449304
-3.425486 -3.685556 -1.453393
-3.431172 -3.676850 -1.454053
-3.433596 -3.666944 -1.452069
-3.431490 -3.655452 -1.446443
-3.438044 -3.647053 -1.447803
-3.446927 -3.639416 -1.451015
-3.450848 -3.630052 -1.450242
-3.452790 -3.620037 -1.447894
-3.457252 -3.610860 -1.447555
-3.465335 -3.602817 -1.450079
-3.472472 -3.594429 -1.451838
-3.473709 -3.584212 -1.448939
-3.488758 -3.578125 -1.456889
-3.495552 -3.569500 -1.458329
-3.494097 -3.558495 -1.453323
-3.493100 -3.547683 -1.448698
-3.491135 -3.536668 -1.443344
-3.495504 -3.527405 -1.442913
-3.502106 -3.518713 -1.444201
-3.508136 -3.509841 -1.445035
-3.515484 -3.501266 -1.446871
-3.518336 -3.491564 -1.445254
-3.522899 -3.482273 -1.444945
-3.530519 -3.473671 -1.446956
-3.540804 -3.465615 -1.450967
-3.540627 -3.455209 -1.447047
-3.552465 -3.447384 -1.452193
-3.552191 -3.436975 -1.448207
-3.542254 -3.424687 -1.437002
-3.551030 -3.416174 -1.439828
-3.556069 -3.406898 -1.439849
-3.556813 -3.396821 -1.436674
-3.561416 -3.387454 -1.436368
-3.561193 -3.377251 -1.432494
-3.590201 -3.371891 -1.450154
-3.585760 -3.360931 -1.443152
-3.591848 -3.351668 -1.443890
-3.595607 -3.342028 -1.442917
-3.595785 -3.331873 -1.439334
-3.598558 -3.322104 -1.437647
-3.596717 -3.311737 -1.432623
-3.596441 -3.301618 -1.428747
-3.586829 -3.280457 -1.414536
-3.557125 -3.257578 -1.386112
-3.562342 -3.248368 -1.386287
-3.561116 -3.238540 -1.381879
-3.561320 -3.228873 -1.378499
-3.565690 -3.219564 -1.378066
-3.565818 -3.209915 -1.374642
-3.566146 -3.200301 -1.371367
-3.562143 -3.190430 -1.365069
-3.564370 -3.180987 -1.363141
-3.563445 -3.171374 -1.359022
-3.564313 -3.161875 -1.356156
-3.564854 -3.152371 -1.353070
-3.560831 -3.142712 -1.346839
-3.560245 -3.133220 -1.342996
-3.560361 -3.123767 -1.339643
-3.556887 -3.114254 -1.333841
-3.555930 -3.104830 -1.329774
-3.556679 -3.095444 -1.326877
-3.559364 -3.086070 -1.325293
-3.560218 -3.076679 -1.322467
-3.557348 -3.067311 -1.317131
-3.556680 -3.057956 -1.313290
-3.560358 -3.048541 -1.312368
-3.727587 -3.025187 -1.417026
-3.744295 -3.014386 -1.424419
-3.786070 -3.002450 -1.448357
-3.814964 -2.990632 -1.463628
-3.835255 -2.978928 -1.473122
-3.860806 -2.966722 -1.485994
-3.861120 -2.955746 -1.482241
-3.884492 -2.943266 -1.493543
-3.896696 -2.931318 -1.497485
-3.900178 -2.919895 -1.495718
-3.890707 -2.909477 -1.485556
-3.909884 -2.896681 -1.493911
-3.909943 -2.885424 -1.489894
-3.917114 -2.873470 -1.490436
-3.923309 -2.861530 -1.490325
-3.940328 -2.848349 -1.497088
-3.950687 -2.835730 -1.499551
-3.940788 -2.825389 -1.489135
-3.927858 -2.815521 -1.476841
-3.928223 -2.804066 -1.472967
-3.946490 -2.790193 -1.480331
-3.960074 -2.776772 -1.484691
-3.980890 -2.762150 -1.493510
-3.992223 -2.748729 -1.496349
-3.981510 -2.738626 -1.485475
-3.995089 -2.724720 -1.489659
-4.008459 -2.710708 -1.493665
-4.002233 -2.699936 -1.485584
-3.996774 -2.689108 -1.478002
-4.019570 -2.673190 -1.487696
-4.013864 -2.662419 -1.479966
-4.023519 -2.648766 -1.481586
-4.043858 -2.632923 -1.489643
-4.048431 -2.620129 -1.488133
-4.035967 -2.610910 -1.476386
-4.025458 -2.601464 -1.465878
-4.038836 -2.586948 -1.469697
-4.054519 -2.571856 -1.474864
-4.050385 -2.561256 -1.468244
-4.061264 -2.547268 -1.470553
-4.087293 -2.529644 -1.481796
-4.113276 -2.511895 -1.492958
-4.101583 -2.503454 -1.481987
-4.077371 -2.498467 -1.463789
-4.071989 -2.488976 -1.456699
-2.834378 -4.652525 -1.423448
-2.848778 -4.657706 -1.435202
-2.840430 -4.628356 -1.418591
-2.843120 -4.615567 -1.415663
-2.845003 -4.601495 -1.411700
-2.884663 -4.642019 -1.453803
-2.878974 -4.616414 -1.440376
-2.900404 -4.629394 -1.459791
-2.901323 -4.613069 -1.454312
-2.905359 -4.601103 -1.452577
-2.896397 -4.571350 -1.435359
-2.904814 -4.565467 -1.438868
-2.896649 -4.537313 -1.422785
-2.900715 -4.525693 -1.421189
-2.913679 -4.525702 -1.429983
-2.926250 -4.524972 -1.438230
-2.941785 -4.527811 -1.449825
-2.949314 -4.520288 -1.452106
-2.953406 -4.508459 -1.450444
-2.956184 -4.495091 -1.447313
-2.961645 -4.485102 -1.447268
-2.966969 -4.474995 -1.447086
-2.969623 -4.461775 -1.443927
-2.978493 -4.455978 -1.447765
-2.991592 -4.455046 -1.456293
-2.995869 -4.443861 -1.455000
-3.000099 -4.432717 -1.453691
-3.000328 -4.417191 -1.448027
-3.003139 -4.404719 -1.445260
-3.014222 -4.401419 -1.451541
-3.024806 -4.397498 -1.457251
-3.026111 -4.383599 -1.452932
-3.030018 -4.372611 -1.451470
-3.036634 -4.364544 -1.452940
-3.034464 -4.347447 -1.445071
-3.034839 -4.333179 -1.439989
-3.035353 -4.319223 -1.435120
-3.045920 -4.315443 -1.440882
-3.059772 -4.314827 -1.450059
-3.072348 -4.312824 -1.457853
-3.074915 -4.301078 -1.455210
-3.079183 -4.291055 -1.454368
-3.081788 -4.279537 -1.451839
-3.082003 -4.265899 -1.446898
-3.083376 -4.253472 -1.443195
-3.086429 -4.242690 -1.441251
-3.092307 -4.234523 -1.442204
-3.101820 -4.229600 -1.446840
-3.110364 -4.223771 -1.450480
-3.115038 -4.214550 -1.450225
-3.117391 -4.203380 -1.447667
-3.122700 -4.194797 -1.448086
-3.130906 -4.188659 -1.451387
-3.134574 -4.178732 -1.450191
-3.139329 -4.169744 -1.450086
-3.139209 -4.156847 -1.445210
-3.140371 -4.145092 -1.441633
-3.146627 -4.137446 -1.443053
-3.159536 -4.134979 -1.450928
-3.169469 -4.130089 -1.455879
-3.172701 -4.120023 -1.454344
-3.172756 -4.107616 -1.449777
-3.173451 -4.095787 -1.445861
-3.176425 -4.085716 -1.444152
-3.181540 -4.077243 -1.444496
-3.194028 -4.074056 -1.451827
-3.203760 -4.068795 -1.456510
-3.211695 -4.062201 -1.459476
-3.212496 -4.050639 -1.455738
-3.216999 -4.041677 -1.455488
-3.221431 -4.032676 -1.455177
-3.221108 -4.020527 -1.450458
-3.222036 -4.009289 -1.446931
-3.229898 -4.002612 -1.449821
-3.238193 -3.996163 -1.453092
-3.238163 -3.984400 -1.448720
-3.239958 -3.973854 -1.446043
-3.248984 -3.967807 -1.449964
-3.260287 -3.963073 -1.455925
-3.265368 -3.954504 -1.456224
-3.268233 -3.944618 -1.454523
-3.272994 -3.935866 -1.454537
-3.280474 -3.928677 -1.456984
-3.281193 -3.917602 -1.453383
-3.285195 -3.908425 -1.452723
-3.289623 -3.899490 -1.452444
-3.295511 -3.891352 -1.453457
-3.299468 -3.882154 -1.452761
-3.302215 -3.872321 -1.451004
-3.309530 -3.864897 -1.453256
-3.317493 -3.857763 -1.456058
-3.313492 -3.844503 -1.448431
-3.315737 -3.834488 -1.446267
-3.326857 -3.828877 -1.451787
-3.336031 -3.822219 -1.455593
-3.342536 -3.814213 -1.457079
-3.346379 -3.804919 -1.456273
-3.350639 -3.795824 -1.455826
-3.360577 -3.789320 -1.460211
-3.365078 -3.780290 -1.459953
-3.365913 -3.769632 -1.456592
-3.367124 -3.759184 -1.453564
-3.373811 -3.751123 -1.455157
-3.378250 -3.742077 -1.454852
-3.380293 -3.732033 -1.452543
-3.384179 -3.722768 -1.451780
-3.388082 -3.713511 -1.451031
-3.388637 -3.702936 -1.447512
-3.394968 -3.694645 -1.448777
-3.405258 -3.687829 -1.453291
-3.416077 -3.681126 -1.458208
-3.417986 -3.671060 -1.455801
-3.420804 -3.661349 -1.454146
-3.419400 -3.650159 -1.449062
-3.428900 -3.642826 -1.452847
-3.437241 -3.635025 -1.455668
-3.440031 -3.625311 -1.453994
-3.443385 -3.615796 -1.452779
-3.444926 -3.605705 -1.450113
-3.452353 -3.597498 -1.452161
-3.450636 -3.586425 -1.446909
-3.460124 -3.578807 -1.450582
-3.475387 -3.572826 -1.458802
-3.485448 -3.565195 -1.462863
-3.478277 -3.552605 -1.453328
-3.467179 -3.539065 -1.440761
-3.479870 -3.532151 -1.446883
-3.483511 -3.522731 -1.445901
-3.486626 -3.513176 -1.444510
-3.495719 -3.505137 -1.447761
-3.509316 -3.498140 -1.454472
-3.515480 -3.489238 -1.455405
-3.511693 -3.477977 -1.448674
-3.515673 -3.468577 -1.447933
-3.518494 -3.458914 -1.446304
-3.518528 -3.448659 -1.442554
-3.521693 -3.439103 -1.441200
-3.537060 -3.432041 -1.449100
-3.546236 -3.423611 -1.452266
-3.540380 -3.412224 -1.444079
-3.543783 -3.402672 -1.442891
-3.547125 -3.393108 -1.441658
-3.554339 -3.384220 -1.443319
-3.566593 -3.376139 -1.448720
-3.561060 -3.365052 -1.440866
-3.573402 -3.356878 -1.446295
-3.582339 -3.348083 -1.449169
-3.584457 -3.338226 -1.446996
-3.571022 -3.326200 -1.433401
-3.580050 -3.317382 -1.436332
-3.605204 -3.310574 -1.451018
-3.603323 -3.300183 -1.445920
-3.608706 -3.290700 -1.446119
-3.611627 -3.280912 -1.444525
-3.597402 -3.269297 -1.430546
-3.586338 -3.258189 -1.418914
-3.541160 -3.234357 -1.379312
-3.556267 -3.226031 -1.386584
-3.561850 -3.216814 -1.387024
-3.560405 -3.207045 -1.382460
-3.556067 -3.197119 -1.375863
-3.558831 -3.187705 -1.374307
-3.560742 -3.178234 -1.372148
-3.558621 -3.168556 -1.367160
-3.558064 -3.158992 -1.363284
-3.560508 -3.149574 -1.361512
-3.560467 -3.140060 -1.358009
-3.557907 -3.130487 -1.352764
-3.557019 -3.120998 -1.348694
-3.557588 -3.111561 -1.345640
-3.555283 -3.102091 -1.340611
-3.556804 -3.092690 -1.338223
-3.557933 -3.083282 -1.335566
-3.558879 -3.073873 -1.332785
-3.554930 -3.064501 -1.326673
-3.552447 -3.055160 -1.321576
-3.559167 -3.045681 -1.322720
-3.717703 -3.022266 -1.422543
-3.761133 -3.010537 -1.447960
-3.791201 -2.998881 -1.464273
-3.787171 -2.988452 -1.457733
-3.812537 -2.976576 -1.470758
-3.818694 -2.965505 -1.470950
-3.846681 -2.953027 -1.485549
-3.863025 -2.941023 -1.492368
-3.879770 -2.928811 -1.499387
-3.871579 -2.918346 -1.490001
-3.889816 -2.905776 -1.497913
-3.889188 -2.894665 -1.493465
-3.891572 -2.883272 -1.490975
-3.895091 -2.871734 -1.489210
-3.912422 -2.858710 -1.496346
-3.924952 -2.846017 -1.500323
-3.928407 -2.834224 -1.498427
-3.913752 -2.824563 -1.484929
-3.909569 -2.813735 -1.478166
-3.924970 -2.800377 -1.483871
-3.936368 -2.787393 -1.486977
-3.936033 -2.775944 -1.482623
-3.949109 -2.762519 -1.486718
-3.978151 -2.746513 -1.500791
-3.970430 -2.736003 -1.491732
-3.981701 -2.722476 -1.494561
-3.990360 -2.709273 -1.495721
-3.982737 -2.698824 -1.486752
-3.991044 -2.685610 -1.487669
-4.006409 -2.671020 -1.492910
-4.012702 -2.658017 -1.492525
-4.013140 -2.646124 -1.488540
-4.028870 -2.631191 -1.493904
-4.032816 -2.618567 -1.492049
-4.018714 -2.609776 -1.479242
-4.012580 -2.599467 -1.471331
-4.041196 -2.581579 -1.484422
-4.043811 -2.569384 -1.481800
-4.040986 -2.558519 -1.475938
-4.044537 -2.546272 -1.473928
-4.057147 -2.531905 -1.477338
-4.066643 -2.518307 -1.478892
-4.073108 -2.505516 -1.478661
-4.061262 -2.497520 -1.467644
-2.898465 -4.756035 -1.519367
-2.827326 -4.630439 -1.423185
-2.834791 -4.625013 -1.426286
-2.839487 -4.615201 -1.425824
-2.858774 -4.626635 -1.443386
-2.881627 -4.642621 -1.465108
-2.860120 -4.594231 -1.432084
-2.873921 -4.596679 -1.442472
-2.892246 -4.605090 -1.458210
-2.891283 -4.586248 -1.450421
-2.896363 -4.575819 -1.449950
-2.891384 -4.551715 -1.437412
-2.889196 -4.531636 -1.428305
-2.892434 -4.518946 -1.425707
-2.905802 -4.519556 -1.435077
-2.918989 -4.519684 -1.444139
-2.934853 -4.523004 -1.456241
-2.942536 -4.515703 -1.458720
-2.946199 -4.503350 -1.456534
-2.948290 -4.489148 -1.452571
-2.952355 -4.477490 -1.450923
-2.952471 -4.461164 -1.444804
-2.955790 -4.448852 -1.442399
-2.968902 -4.448166 -1.451098
-2.973961 -4.437969 -1.450686
-2.982592 -4.431942 -1.454298
-2.990701 -4.425297 -1.457320
-2.997402 -4.417066 -1.458780
-2.995215 -4.399011 -1.450439
-3.003234 -4.392396 -1.453415
-3.015274 -4.390132 -1.460792
-3.019470 -4.379366 -1.459584
-3.016487 -4.361098 -1.450624
-3.015158 -4.344825 -1.443554
-3.018443 -4.333540 -1.441531
-3.019886 -4.320477 -1.437577
-3.023645 -4.309899 -1.436150
-3.033206 -4.305198 -1.440922
-3.043517 -4.301188 -1.446470
-3.052423 -4.295742 -1.450515
-3.063270 -4.292131 -1.456585
-3.070909 -4.285387 -1.459275
-3.070462 -4.271020 -1.453548
-3.064457 -4.251647 -1.442122
-3.068637 -4.241927 -1.441324
-3.076382 -4.235507 -1.444217
-3.081431 -4.226644 -1.444343
-3.087121 -4.218387 -1.445138
-3.096764 -4.213624 -1.449964
-3.104683 -4.207302 -1.453021
-3.108210 -4.197185 -1.451637
-3.110152 -4.185784 -1.448684
-3.118779 -4.180074 -1.452463
-3.125528 -4.172762 -1.454352
-3.129305 -4.163010 -1.453284
-3.131508 -4.152030 -1.450675
-3.134303 -4.141599 -1.448680
-3.137030 -4.131174 -1.446643
-3.150381 -4.129098 -1.455044
-3.160649 -4.124506 -1.460382
-3.158676 -4.110507 -1.453778
-3.159711 -4.098912 -1.450144
-3.164999 -4.090564 -1.450655
-3.169600 -4.081715 -1.450506
-3.170742 -4.070373 -1.447045
-3.177753 -4.063313 -1.449228
-3.188491 -4.058863 -1.454952
-3.197543 -4.053139 -1.459042
-3.197820 -4.041288 -1.454802
-3.204792 -4.034089 -1.456910
-3.208449 -4.024626 -1.455891
-3.204406 -4.010064 -1.447665
-3.207936 -4.000628 -1.446571
-3.216980 -3.994793 -1.450620
-3.220712 -3.985487 -1.449716
-3.221648 -3.974433 -1.446234
-3.224568 -3.964680 -1.444606
-3.233747 -3.958809 -1.448738
-3.250281 -3.957335 -1.459580
-3.252727 -3.947224 -1.457494
-3.254874 -3.936971 -1.455150
-3.261443 -3.929338 -1.456831
-3.268126 -3.921739 -1.458604
-3.272166 -3.912606 -1.457983
-3.274382 -3.902457 -1.455729
-3.279143 -3.893749 -1.455766
-3.281832 -3.883907 -1.453953
-3.286888 -3.875363 -1.454255
-3.293440 -3.867600 -1.455881
-3.301881 -3.860791 -1.459165
-3.299557 -3.848378 -1.452941
-3.303239 -3.839111 -1.452029
-3.307288 -3.830036 -1.451443
-3.311096 -3.820844 -1.450648
-3.319449 -3.813864 -1.453810
-3.336381 -3.810923 -1.464391
-3.333857 -3.798638 -1.458080
-3.338797 -3.789910 -1.458239
-3.345392 -3.781925 -1.459817
-3.351977 -3.773901 -1.461374
-3.351372 -3.762662 -1.456777
-3.356141 -3.753829 -1.456781
-3.359201 -3.744253 -1.455331
-3.364377 -3.735583 -1.455677
-3.368445 -3.726438 -1.455082
-3.376073 -3.718741 -1.457482
-3.379215 -3.709199 -1.456103
-3.380255 -3.698841 -1.452970
-3.383749 -3.689473 -1.451898
-3.395526 -3.683258 -1.457712
-3.401674 -3.674837 -1.458823
-3.400635 -3.663753 -1.453988
-3.403047 -3.653976 -1.452019
-3.412984 -3.646878 -1.456237
-3.418754 -3.638256 -1.457014
-3.426409 -3.630250 -1.459321
-3.429836 -3.620785 -1.458169
-3.430510 -3.610425 -1.454786
-3.440026 -3.602942 -1.458571
-3.440302 -3.592483 -1.454878
-3.439169 -3.581636 -1.450069
-3.445765 -3.573182 -1.451481
-3.453825 -3.565124 -1.454050
-3.457573 -3.555768 -1.453163
-3.451540 -3.543650 -1.444503
-3.465909 -3.537288 -1.452055
-3.472461 -3.528683 -1.453382
-3.472671 -3.518372 -1.449700
-3.473980 -3.508387 -1.446899
-3.480851 -3.499830 -1.448465
-3.500760 -3.494428 -1.460198
-3.507783 -3.485748 -1.461824
-3.503428 -3.474377 -1.454602
-3.499304 -3.463154 -1.447595
-3.502926 -3.453736 -1.446603
-3.501023 -3.443129 -1.441358
-3.511246 -3.435120 -1.445444
-3.524132 -3.427572 -1.451538
-3.529304 -3.418391 -1.451706
