ply
format ascii 1.0
comment ---
element vertex 1625
property float x
property float y
property float z
element face 0
property list uchar uint vertex_indices
end_header
-2.594533 -0.213408 -1.430902
-2.597803 -0.202331 -1.433543
-2.588965 -0.190717 -1.427591
-2.580023 -0.179202 -1.421574
-2.593945 -0.168482 -1.431816
-2.612802 -0.157728 -1.445582
-2.579464 -0.145767 -1.422243
-2.565610 -0.134443 -1.412761
-2.583448 -0.123519 -1.425835
-2.569957 -0.112326 -1.416625
-2.563754 -0.101256 -1.412609
-2.577187 -0.090072 -1.422583
-2.579148 -0.078902 -1.424398
-2.552584 -0.068289 -1.405894
-2.575828 -0.056669 -1.422893
-2.552509 -0.046260 -1.406706
-2.574934 -0.034395 -1.423147
-2.576116 -0.023185 -1.424448
-2.572206 -0.012201 -1.422122
-2.577748 -0.000738 -1.426551
-2.573101 0.010184 -1.423712
-2.566180 0.020913 -1.419254
-2.583792 0.033328 -1.432334
-2.566326 0.043246 -1.420348
-2.566652 0.054452 -1.421087
-2.566803 0.065657 -1.421707
-2.571692 0.077323 -1.425726
-2.574480 0.088847 -1.428250
-2.599328 0.102749 -1.446583
-2.571832 0.111114 -1.427427
-2.572193 0.122443 -1.428232
-2.547828 0.130750 -1.411311
-2.554371 0.142770 -1.416557
-2.558491 0.154554 -1.420075
-2.560882 0.166159 -1.422360
-2.567698 0.178453 -1.427831
-2.558804 0.188458 -1.422022
-2.551228 0.198584 -1.417162
-2.582497 0.214986 -1.440242
-2.571630 0.224640 -1.433030
-2.568066 0.235463 -1.431073
-2.567085 0.246730 -1.430981
-2.570819 0.258885 -1.434292
-2.558747 0.268060 -1.426219
-2.549893 0.277751 -1.420465
-2.557695 0.290760 -1.426728
-2.566839 0.304163 -1.433971
-2.556598 0.313508 -1.427230
-2.554727 0.324610 -1.426535
-2.552904 0.335723 -1.425880
-2.545249 0.345473 -1.421014
-2.575885 0.364332 -1.443852
-2.569003 0.374364 -1.439563
-2.549426 0.381143 -1.426083
-2.539989 0.390324 -1.419943
-2.534981 0.400585 -1.417014
-2.533614 0.411792 -1.416731
-2.545669 0.426706 -1.426194
-2.543131 0.437683 -1.425079
-2.535242 0.447117 -1.420084
-2.524527 0.455653 -1.413038
-2.533642 0.470031 -1.420412
-2.551325 0.487168 -1.434036
-2.547362 0.497799 -1.431926
-2.529364 0.503949 -1.419599
-2.533835 0.517192 -1.423643
-2.511446 0.521651 -1.408114
-2.496538 0.528383 -1.398035
-2.490433 0.537980 -1.394381
-2.516276 0.558679 -1.414068
-2.524745 0.573565 -1.421090
-2.520082 0.583848 -1.418528
-2.519834 0.595733 -1.419204
-2.531610 0.612146 -1.428696
-2.537720 0.626593 -1.434060
-2.534450 0.637533 -1.432565
-2.526296 0.646555 -1.427498
-2.520607 0.656499 -1.424246
-2.514305 0.666165 -1.420552
-2.516802 0.679419 -1.423334
-2.515648 0.691224 -1.423448
-2.513084 0.702463 -1.422538
-2.510128 0.713547 -1.421351
-2.509851 0.725815 -1.422153
-2.494789 0.731562 -1.412063
-2.512878 0.752110 -1.426448
-2.512299 0.764410 -1.427078
-2.502832 0.772634 -1.421153
-2.487136 0.777858 -1.410626
-2.496080 0.794693 -1.418347
-2.495780 0.807233 -1.419245
-2.486894 0.815617 -1.413795
-2.469661 0.819790 -1.402156
-2.470714 0.833018 -1.404103
-2.484392 0.852780 -1.415459
-2.491482 0.869384 -1.421951
-2.488135 0.880679 -1.420699
-2.492164 0.895924 -1.424965
-2.511460 0.919527 -1.440651
-2.515364 0.935076 -1.444890
-2.509446 0.945327 -1.441816
-2.501813 0.954616 -1.437474
-2.486952 0.959778 -1.427731
-2.482597 0.970848 -1.425868
-2.481987 0.984120 -1.426835
-2.470921 0.991312 -1.419970
-2.453320 0.994535 -1.408198
-2.457885 1.010975 -1.413114
-2.466117 1.029817 -1.420827
-2.471114 1.046877 -1.426139
-2.462355 1.055493 -1.421093
-2.454688 1.064767 -1.416884
-2.446957 1.073984 -1.412640
-2.473525 1.105454 -1.434409
-2.465539 1.114733 -1.430025
-2.451836 1.120190 -1.421309
-2.450109 1.133593 -1.421703
-2.450124 1.148259 -1.423445
-2.445348 1.159729 -1.421556
-2.441384 1.171793 -1.420301
-2.431670 1.179841 -1.414662
-2.415416 1.183169 -1.404017
-2.431056 1.209333 -1.417806
-2.438742 1.230051 -1.425538
-2.430981 1.239590 -1.421426
-2.421088 1.247499 -1.415669
-2.427811 1.267867 -1.422706
-2.425714 1.281698 -1.422957
-2.415566 1.289356 -1.416986
-2.415275 1.304598 -1.418620
-2.418387 1.322579 -1.422885
-2.419119 1.338767 -1.425301
-2.406137 1.343955 -1.417053
-2.405078 1.358663 -1.418036
-2.412468 1.380330 -1.425574
-2.416985 1.399741 -1.430858
-2.418074 1.463266 -1.438397
-2.405741 1.468009 -1.430275
-2.552636 -1.013343 -1.414638
-2.567899 -1.009614 -1.426097
-2.592514 -0.998510 -1.444607
-2.579858 -0.981483 -1.435853
-2.581709 -0.970789 -1.437453
-2.590002 -0.962714 -1.443624
-2.586384 -0.949362 -1.441185
-2.559500 -0.926205 -1.421981
-2.548228 -0.909709 -1.413941
-2.562339 -0.903573 -1.424091
-2.557320 -0.889529 -1.420456
-2.566318 -0.880998 -1.426853
-2.574134 -0.871838 -1.432365
-2.566860 -0.856773 -1.427006
-2.562127 -0.842711 -1.423445
-2.567798 -0.832516 -1.427331
-2.587150 -0.827188 -1.441017
-2.592470 -0.816601 -1.444609
-2.584569 -0.801311 -1.438696
-2.587068 -0.789695 -1.440236
-2.576096 -0.773507 -1.432102
-2.581698 -0.762958 -1.435855
-2.584854 -0.751560 -1.437848
-2.587803 -0.740077 -1.439690
-2.579964 -0.725212 -1.433798
-2.560415 -0.706889 -1.419519
-2.562194 -0.695237 -1.420534
-2.574829 -0.686784 -1.429333
-2.567189 -0.672381 -1.423612
-2.582325 -0.664517 -1.434215
-2.594566 -0.655708 -1.442752
-2.584579 -0.640808 -1.435381
-2.576053 -0.626456 -1.429072
-2.593145 -0.618826 -1.441114
-2.578608 -0.603099 -1.430528
-2.576416 -0.590609 -1.428795
-2.590541 -0.582079 -1.438751
-2.584336 -0.568690 -1.434175
-2.592514 -0.558674 -1.439904
-2.599891 -0.548421 -1.445076
-2.577553 -0.531740 -1.429006
-2.564881 -0.517378 -1.419867
-2.574208 -0.507664 -1.426482
-2.582468 -0.497663 -1.432347
-2.578520 -0.485267 -1.429497
-2.570603 -0.472214 -1.423824
-2.565240 -0.459743 -1.419993
-2.570508 -0.449208 -1.423781
-2.590683 -0.441139 -1.438248
-2.597269 -0.430663 -1.443010
-2.590248 -0.418015 -1.438055
-2.585253 -0.405776 -1.434564
-2.585224 -0.394337 -1.434640
-2.592484 -0.383931 -1.439946
-2.581923 -0.371094 -1.432516
-2.565232 -0.357617 -1.420712
-2.598939 -0.350473 -1.444989
-2.600044 -0.339187 -1.445949
-2.573256 -0.324834 -1.426956
-2.578204 -0.314114 -1.430692
-2.591254 -0.304150 -1.440245
-2.599300 -0.293585 -1.446229
-2.574296 -0.280057 -1.428554
-2.570622 -0.268563 -1.426167
-2.544398 -0.255409 -1.407633
-2.560470 -0.245531 -1.419417
-2.567256 -0.234878 -1.424560
-2.574029 -0.224154 -1.429708
-2.573829 -0.212988 -1.429867
-2.570521 -0.201681 -1.427809
-2.580543 -0.190973 -1.435323
-2.570072 -0.179412 -1.428146
-2.568271 -0.168237 -1.427199
-2.588007 -0.157619 -1.441724
-2.559289 -0.145845 -1.421468
-2.577960 -0.135041 -1.435254
-2.566842 -0.123786 -1.427650
-2.550714 -0.112644 -1.416451
-2.550826 -0.101627 -1.416931
-2.556933 -0.090551 -1.421731
-2.540713 -0.079730 -1.410480
-2.540460 -0.068763 -1.410721
-2.540818 -0.057777 -1.411410
-2.550764 -0.046477 -1.419011
-2.551551 -0.035400 -1.420027
-2.557316 -0.024092 -1.424639
-2.554933 -0.013108 -1.423388
-2.550954 -0.002229 -1.420993
-2.543840 0.008425 -1.416342
-2.546639 0.019659 -1.418848
-2.550781 0.031032 -1.422332
-2.532727 0.040748 -1.409799
-2.533097 0.051798 -1.410570
-2.539248 0.063375 -1.415527
-2.541797 0.074695 -1.417889
-2.551589 0.086782 -1.425498
-2.544544 0.097211 -1.420938
-2.538092 0.107639 -1.416811
-2.540509 0.119047 -1.419107
-2.534411 0.129449 -1.415245
-2.532234 0.140301 -1.414227
-2.537174 0.152100 -1.418372
-2.539045 0.163542 -1.420300
-2.535559 0.174237 -1.418351
-2.547631 0.187273 -1.427696
-2.563503 0.201066 -1.439814
-2.524359 0.206056 -1.411990
-2.544748 0.220699 -1.427406
-2.550716 0.233068 -1.432357
-2.548695 0.244078 -1.431509
-2.538243 0.253506 -1.424533
-2.522944 0.261896 -1.414028
-2.523125 0.273203 -1.414793
-2.533995 0.286719 -1.423352
-2.536582 0.298639 -1.425888
-2.542771 0.311391 -1.431059
-2.540460 0.322346 -1.430040
-2.525642 0.330441 -1.419898
-2.541292 0.345519 -1.432002
-2.553071 0.359875 -1.441296
-2.544478 0.369381 -1.435715
-2.516380 0.373889 -1.415870
-2.514996 0.384981 -1.415560
-2.520534 0.397910 -1.420324
-2.516677 0.408392 -1.418219
-2.517454 0.420132 -1.419515
-2.515818 0.431228 -1.419051
-2.506926 0.440239 -1.413271
-2.503317 0.450724 -1.411371
-2.503991 0.462480 -1.412623
-2.520960 0.479268 -1.425858
-2.542831 0.497826 -1.442722
-2.540819 0.509068 -1.442043
-2.523056 0.515199 -1.429779
-2.519947 0.525996 -1.428303
-2.495410 0.529559 -1.411045
-2.493656 0.540677 -1.410575
-2.503689 0.555929 -1.418811
-2.505033 0.568249 -1.420653
-2.503981 0.579753 -1.420738
-2.504111 0.591717 -1.421708
-2.511422 0.606411 -1.428002
-2.525303 0.623740 -1.439178
-2.517387 0.632841 -1.434238
-2.501852 0.638884 -1.423658
-2.494600 0.648084 -1.419219
-2.502391 0.663351 -1.425950
-2.498930 0.674116 -1.424348
-2.497705 0.685821 -1.424419
-2.493299 0.696201 -1.422138
-2.479889 0.702680 -1.413170
-2.469854 0.710515 -1.406715
-2.474358 0.724746 -1.411101
-2.490370 0.744290 -1.424092
-2.494944 0.758853 -1.428583
-2.470488 0.760026 -1.411412
-2.461973 0.768453 -1.406147
-2.471872 0.785638 -1.414667
-2.489598 0.806816 -1.429080
-2.477696 0.813714 -1.421332
-2.470517 0.822870 -1.417130
-2.467670 0.834185 -1.416193
-2.476244 0.851383 -1.423854
-2.475016 0.863676 -1.424177
-2.472288 0.875233 -1.423392
-2.475248 0.889859 -1.426910
-2.482486 0.906915 -1.433682
-2.477719 0.917576 -1.431427
-2.483429 0.934060 -1.437105
-2.476320 0.943504 -1.433121
-2.463014 0.949403 -1.424460
-2.463898 0.963372 -1.426557
-2.457994 0.973479 -1.423532
-2.444412 0.979051 -1.414693
-2.445247 0.993139 -1.416817
-2.455620 1.013108 -1.426226
-2.455004 1.026588 -1.427309
-2.458934 1.042975 -1.431882
-2.445649 1.048703 -1.423347
-2.440528 1.059519 -1.421054
-2.432048 1.068194 -1.416209
-2.436488 1.085254 -1.421272
-2.439970 1.101854 -1.425635
-2.432567 1.111349 -1.421670
-2.422987 1.119361 -1.416041
-2.419873 1.131740 -1.415396
-2.421425 1.147395 -1.418365
-2.417420 1.159291 -1.417069
-2.422601 1.177721 -1.422886
-2.410121 1.183698 -1.415063
-2.409538 1.198177 -1.416453
-2.412494 1.215331 -1.420602
-2.407861 1.227008 -1.418875
-2.412052 1.245300 -1.424013
-2.409181 1.258400 -1.423667
-2.407859 1.272713 -1.424527
-2.408134 1.288311 -1.426633
-2.400039 1.297427 -1.422192
-2.399992 1.312828 -1.424030
-2.403466 1.331093 -1.428620
-2.391358 1.336854 -1.420963
-2.404799 1.363315 -1.433355
-2.408959 1.382358 -1.438441
-2.584343 -1.062100 -1.449238
-2.548450 -1.024321 -1.424698
-2.548236 -0.992198 -1.426179
-2.556645 -0.984977 -1.432691
-2.565434 -0.977678 -1.439421
-2.559632 -0.963750 -1.435510
-2.572698 -0.957902 -1.445226
-2.561868 -0.941600 -1.437551
-2.526351 -0.914948 -1.411911
-2.529026 -0.904424 -1.413928
-2.538912 -0.896713 -1.421130
-2.530783 -0.881565 -1.415218
-2.529536 -0.869165 -1.414259
-2.549667 -0.852896 -1.428647
-2.535200 -0.835263 -1.417998
-2.545997 -0.827133 -1.425649
-2.558553 -0.819481 -1.434550
-2.570645 -0.811487 -1.443093
-2.578462 -0.801827 -1.448518
-2.551958 -0.780222 -1.429053
-2.559839 -0.770603 -1.434502
-2.554591 -0.756528 -1.430429
-2.572956 -0.750235 -1.443457
-2.571802 -0.737486 -1.442343
-2.551413 -0.718742 -1.427300
-2.549021 -0.705812 -1.425296
-2.554277 -0.695243 -1.428830
-2.554851 -0.683260 -1.428981
-2.551359 -0.670130 -1.426198
-2.553233 -0.658596 -1.427305
-2.558617 -0.648044 -1.430961
-2.550015 -0.633687 -1.424512
-2.547542 -0.621092 -1.422508
-2.535693 -0.606150 -1.413739
-2.555503 -0.599361 -1.427871
-2.569185 -0.590866 -1.437583
-2.576087 -0.580619 -1.442408
-2.566120 -0.566389 -1.435058
-2.564629 -0.554245 -1.433848
-2.564357 -0.542428 -1.433534
-2.555798 -0.528865 -1.427251
-2.552342 -0.516510 -1.424670
-2.551039 -0.504669 -1.423659
-2.560048 -0.494918 -1.430114
-2.560881 -0.483525 -1.430679
-2.562103 -0.472226 -1.431541
-2.561446 -0.460605 -1.431061
-2.562258 -0.449278 -1.431659
-2.581298 -0.441039 -1.445439
-2.589495 -0.430843 -1.451403
-2.583739 -0.418391 -1.447303
-2.567966 -0.404518 -1.435983
-2.554086 -0.391128 -1.426044
-2.584126 -0.384040 -1.447851
-2.547416 -0.367711 -1.421446
-2.548058 -0.356598 -1.422042
-2.568195 -0.347877 -1.436740
-2.570036 -0.336813 -1.438233
-2.556775 -0.324075 -1.428823
-2.576513 -0.314963 -1.443281
-2.582702 -0.304297 -1.447960
-2.565219 -0.291361 -1.435534
-2.570112 -0.280600 -1.439302
-2.553370 -0.268019 -1.427432
-2.528528 -0.255020 -1.409710
-2.523116 -0.243685 -1.406055
-2.542283 -0.234015 -1.420201
-2.546582 -0.223253 -1.423600
-2.538629 -0.211791 -1.418139
-2.536278 -0.200693 -1.416745
-2.556182 -0.190564 -1.431484
-2.564295 -0.179782 -1.437695
-2.554702 -0.168363 -1.431088
-2.557153 -0.157357 -1.433219
-2.553092 -0.146197 -1.430639
-2.554524 -0.135159 -1.432051
-2.560593 -0.124141 -1.436839
-2.544511 -0.112997 -1.425562
-2.528018 -0.102035 -1.413990
-2.527878 -0.091111 -1.414294
-2.539320 -0.080016 -1.423021
-2.537700 -0.069051 -1.422271
-2.539113 -0.058021 -1.423733
-2.536381 -0.047099 -1.422191
-2.542538 -0.035871 -1.427120
-2.535310 -0.025141 -1.422323
-2.517897 -0.014981 -1.410117
-2.528185 -0.003505 -1.418078
-2.520442 0.007014 -1.412921
-2.536448 0.019017 -1.425068
-2.535183 0.029977 -1.424645
-2.522815 0.040075 -1.416134
-2.510189 0.050021 -1.407435
-2.508868 0.060836 -1.406986
-2.532156 0.073974 -1.424502
-2.533172 0.085158 -1.425778
-2.531403 0.096072 -1.425027
-2.525598 0.106528 -1.421333
-2.528720 0.117980 -1.424167
-2.518729 0.127865 -1.417422
-2.512669 0.138156 -1.413553
-2.503758 0.148007 -1.407600
-2.507592 0.159563 -1.410980
-2.522982 0.172872 -1.422833
-2.507503 0.181674 -1.412083
-2.503189 0.192079 -1.409515
-2.501273 0.202842 -1.408709
-2.516024 0.216432 -1.420137
-2.524877 0.229175 -1.427253
-2.525661 0.240575 -1.428455
-2.515666 0.249983 -1.421745
-2.511239 0.260369 -1.419129
-2.503068 0.269976 -1.413762
-2.504469 0.281469 -1.415440
-2.521902 0.296382 -1.428926
-2.520491 0.307435 -1.428555
-2.505501 0.315466 -1.418185
-2.508233 0.327395 -1.420876
-2.493344 0.335242 -1.410581
-2.519533 0.352822 -1.430592
-2.505897 0.360913 -1.421229
-2.492189 0.368846 -1.411812
-2.490906 0.379854 -1.411575
-2.495893 0.392530 -1.415980
-2.496224 0.404030 -1.416953
-2.499285 0.416316 -1.419956
-2.494648 0.426487 -1.417268
-2.494236 0.437850 -1.417717
-2.486762 0.447152 -1.412940
-2.488751 0.459241 -1.415184
-2.482539 0.468862 -1.411354
-2.522422 0.492884 -1.441757
-2.510814 0.500971 -1.433946
-2.507236 0.511563 -1.432106
-2.509539 0.524095 -1.434648
-2.507430 0.535196 -1.433918
-2.494574 0.542604 -1.425195
-2.488943 0.552419 -1.421856
-2.482018 0.561738 -1.417559
-2.483523 0.574066 -1.419557
-2.489772 0.588203 -1.425111
-2.495102 0.602111 -1.429997
-2.481199 0.608779 -1.420524
-2.479367 0.619998 -1.420081
-2.470465 0.628444 -1.414356
-2.435560 0.626387 -1.389161
-2.484298 0.658018 -1.426639
-2.481624 0.669033 -1.425619
-2.479625 0.680344 -1.425120
-2.463687 0.685724 -1.414162
-2.464505 0.698209 -1.415800
-2.455630 0.706489 -1.410164
-2.467033 0.723761 -1.419801
-2.488015 0.745578 -1.436684
-2.466713 0.748280 -1.421729
-2.455266 0.755352 -1.414203
-2.453964 0.767130 -1.414344
-2.450567 0.777944 -1.412919
-2.462670 0.796317 -1.423235
-2.481970 0.818468 -1.439036
-2.471322 0.825960 -1.432188
-2.468233 0.837208 -1.431082
-2.463566 0.847670 -1.428796
-2.458419 0.857886 -1.426160
-2.438405 0.860251 -1.412234
-2.456163 0.882620 -1.427055
-2.449042 0.891825 -1.422969
-2.453318 0.907266 -1.427588
-2.457879 0.923006 -1.432456
-2.453653 0.933940 -1.430641
-2.446461 0.943203 -1.426577
-2.434849 0.949890 -1.419142
-2.417570 0.953177 -1.407370
-2.426706 0.971956 -1.415866
-2.436572 0.991397 -1.424964
-2.442374 1.008607 -1.430979
-2.443875 1.023353 -1.433720
-2.436866 1.032916 -1.429931
-2.420834 1.036783 -1.419194
-2.410510 1.044144 -1.412865
-2.410243 1.057937 -1.414321
-2.414512 1.074792 -1.419317
-2.409932 1.085961 -1.417484
-2.406466 1.097903 -1.416533
-2.403521 1.110246 -1.416005
-2.401126 1.123019 -1.415922
-2.393990 1.132567 -1.412162
-2.398337 1.150155 -1.417370
-2.400527 1.166381 -1.420922
-2.402154 1.182336 -1.424055
-2.396449 1.193090 -1.421465
-2.389359 1.202823 -1.417791
-2.396424 1.223041 -1.425233
-2.386166 1.230448 -1.419073
-2.383969 1.243885 -1.419247
-2.388977 1.262895 -1.425103
-2.386830 1.276500 -1.425320
-2.384508 1.289990 -1.425388
-2.386064 1.306571 -1.428514
-2.378631 1.316007 -1.424504
-2.371925 1.325936 -1.421038
-2.361849 1.333008 -1.414856
-2.373699 1.358088 -1.426083
-2.363431 1.364848 -1.419670
-2.345959 1.365320 -1.407451
-2.319122 1.357456 -1.387671
-2.329386 1.381123 -1.397475
-2.360610 1.423189 -1.424030
-2.371363 1.447695 -1.434170
-2.350906 1.488511 -1.423124
-2.541323 -1.023318 -1.433179
-2.512938 -0.999630 -1.413071
-2.520560 -0.992703 -1.419218
-2.529283 -0.986032 -1.426111
-2.539916 -0.979965 -1.434341
-2.551409 -0.974010 -1.443142
-2.549040 -0.961692 -1.441732
-2.543295 -0.947804 -1.437788
-2.554331 -0.941026 -1.446079
-2.530473 -0.919302 -1.428749
-2.534237 -0.909225 -1.431604
-2.533728 -0.897258 -1.431278
-2.519695 -0.879762 -1.420997
-2.516495 -0.866661 -1.418612
-2.542320 -0.864868 -1.437456
-2.526190 -0.846573 -1.425522
-2.514665 -0.830175 -1.416934
-2.531209 -0.824317 -1.428879
-2.541184 -0.815821 -1.435985
-2.545754 -0.805237 -1.439110
-2.533089 -0.788502 -1.429599
-2.529102 -0.774926 -1.426428
-2.525880 -0.761662 -1.423807
-2.528675 -0.750453 -1.425581
-2.528766 -0.738335 -1.425371
-2.556805 -0.735208 -1.445600
-2.539209 -0.717378 -1.432446
-2.544016 -0.706709 -1.435680
-2.553391 -0.697387 -1.442254
-2.541734 -0.681751 -1.433459
-2.536614 -0.668189 -1.429451
-2.532862 -0.655112 -1.426452
-2.532815 -0.643146 -1.426169
-2.534595 -0.631713 -1.427231
-2.514773 -0.614570 -1.412530
-2.523413 -0.605078 -1.418627
-2.535094 -0.596289 -1.426955
-2.565135 -0.591925 -1.448694
-2.560211 -0.578820 -1.444925
-2.551707 -0.564974 -1.438559
-2.542202 -0.551041 -1.431480
-2.536828 -0.538179 -1.427432
-2.531715 -0.525475 -1.423590
-2.526162 -0.512776 -1.419444
-2.531633 -0.502433 -1.423356
-2.532470 -0.491138 -1.423903
-2.530683 -0.479360 -1.422552
-2.544549 -0.470560 -1.432635
-2.541251 -0.458521 -1.430215
-2.543186 -0.447467 -1.431627
-2.522381 -0.432573 -1.416470
-2.558200 -0.427195 -1.442629
-2.575283 -0.418475 -1.455139
-2.538995 -0.401489 -1.428734
-2.533336 -0.389415 -1.424686
-2.530129 -0.377771 -1.422441
-2.521626 -0.365476 -1.416347
-2.519322 -0.354095 -1.414790
-2.536946 -0.345203 -1.427789
-2.542528 -0.334718 -1.432017
-2.550736 -0.324477 -1.438176
-2.558140 -0.314072 -1.443764
-2.553970 -0.302443 -1.440918
-2.531889 -0.289192 -1.425004
-2.546798 -0.279469 -1.436114
-2.551791 -0.268769 -1.439998
-2.519028 -0.255123 -1.416312
-2.509223 -0.243491 -1.409404
-2.511907 -0.232795 -1.411635
-2.525803 -0.222743 -1.422074
-2.529179 -0.211972 -1.424837
-2.524912 -0.200798 -1.422023
-2.539758 -0.190490 -1.433200
-2.546579 -0.179720 -1.438522
-2.540646 -0.168477 -1.434523
-2.532985 -0.157260 -1.429268
-2.533454 -0.146291 -1.429973
-2.530789 -0.135272 -1.428393
-2.521236 -0.124225 -1.421777
-2.511397 -0.113285 -1.414956
-2.511483 -0.102424 -1.415416
-2.520223 -0.091483 -1.422231
-2.532115 -0.080394 -1.431371
-2.546255 -0.069119 -1.442173
-2.520129 -0.058717 -1.423442
-2.531153 -0.047437 -1.431979
-2.527289 -0.036579 -1.429597
-2.509612 -0.026351 -1.417074
-2.501641 -0.015845 -1.411683
-2.505290 -0.004791 -1.414839
-2.523180 0.007171 -1.428477
-2.523142 0.018166 -1.428943
-2.518689 0.028854 -1.426168
-2.507600 0.038988 -1.418514
-2.510335 0.050154 -1.421042
-2.512620 0.061322 -1.423247
-2.473214 0.068585 -1.394736
-2.514907 0.083545 -1.425999
-2.502383 0.093244 -1.417307
-2.497459 0.103662 -1.414222
-2.499935 0.114908 -1.416604
-2.506413 0.126691 -1.421949
-2.487722 0.135308 -1.408713
-2.489966 0.146552 -1.410943
-2.494787 0.158200 -1.415087
-2.495734 0.169351 -1.416375
-2.497069 0.180588 -1.417958
-2.487395 0.190113 -1.411399
-2.492888 0.202034 -1.416074
-2.491053 0.212789 -1.415329
-2.493878 0.224360 -1.418045
-2.498777 0.236360 -1.422306
-2.505268 0.248735 -1.427760
-2.499314 0.258795 -1.423988
-2.496158 0.269363 -1.422297
-2.484806 0.278228 -1.414522
-2.481318 0.288642 -1.412591
-2.465594 0.296376 -1.401567
-2.509247 0.317204 -1.434714
-2.483299 0.322614 -1.416093
-2.478565 0.332728 -1.413260
-2.484018 0.345266 -1.418021
-2.481214 0.355849 -1.416637
-2.469733 0.364226 -1.408789
-2.471384 0.375893 -1.410740
-2.474077 0.387881 -1.413479
-2.456603 0.394453 -1.401163
-2.476353 0.411167 -1.416664
-2.483705 0.424632 -1.422919
-2.476398 0.433967 -1.418219
-2.481710 0.446973 -1.422972
-2.470493 0.455083 -1.415356
-2.484976 0.471000 -1.427004
-2.471479 0.478334 -1.417690
-2.478302 0.492041 -1.423623
-2.479532 0.504038 -1.425373
-2.488034 0.518501 -1.432599
-2.491882 0.531526 -1.436345
-2.488684 0.542200 -1.434807
-2.471455 0.547938 -1.422717
-2.463360 0.556762 -1.417502
-2.458364 0.566649 -1.414628
-2.472858 0.583728 -1.426458
-2.474083 0.596031 -1.428303
-2.466878 0.605160 -1.423798
-2.438770 0.606097 -1.403506
-2.429820 0.614298 -1.397685
-2.472447 0.643174 -1.430892
-2.477388 0.657239 -1.435625
-2.473153 0.667605 -1.433427
-2.452148 0.670890 -1.418525
-2.449793 0.681935 -1.417767
-2.435020 0.687599 -1.407594
-2.459756 0.710555 -1.427444
-2.468516 0.726732 -1.435192
-2.466805 0.738319 -1.434998
-2.441005 0.738828 -1.416471
-2.439772 0.750543 -1.416661
-2.446378 0.766019 -1.422849
-2.443082 0.776876 -1.421503
-2.438865 0.787300 -1.419471
-2.449476 0.805069 -1.428795
-2.458197 0.822098 -1.436707
-2.450345 0.830882 -1.431955
-2.446157 0.841514 -1.430023
-2.436543 0.849323 -1.423945
-2.440775 0.864402 -1.428514
-2.423305 0.867966 -1.416421
-2.425103 0.881835 -1.419161
-2.440596 0.903351 -1.432480
-2.443266 0.918012 -1.435957
-2.433733 0.925893 -1.430041
-2.416754 0.929456 -1.418381
-2.398222 0.931955 -1.405517
-2.395104 0.943319 -1.404588
-2.417455 0.969869 -1.423430
-2.422213 0.986247 -1.428679
-2.422782 1.000235 -1.430707
-2.418676 1.011440 -1.429127
-2.416581 1.023933 -1.429132
-2.397229 1.025577 -1.415703
-2.381343 1.029239 -1.404970
-2.390845 1.049200 -1.414081
-2.397579 1.067595 -1.421071
-2.386683 1.074494 -1.414282
-2.381005 1.084824 -1.411590
-2.389469 1.104775 -1.420024
-2.379334 1.112172 -1.413865
-2.380359 1.127269 -1.416499
-2.380061 1.141549 -1.418113
-2.381324 1.157033 -1.420978
-2.384045 1.173684 -1.425018
-2.383487 1.188083 -1.426481
-2.378955 1.199633 -1.424806
-2.375009 1.211630 -1.423597
-2.365243 1.219255 -1.417760
-2.351741 1.223941 -1.408932
-2.361026 1.246036 -1.418246
-2.376781 1.273396 -1.432745
-2.371171 1.284245 -1.430190
-2.360191 1.290766 -1.423313
-2.354512 1.301405 -1.420648
-2.347610 1.310979 -1.416969
-2.344518 1.323584 -1.416315
-2.337925 1.348297 -1.414563
-2.322219 1.350010 -1.403607
-2.319989 1.362976 -1.403462
-2.329512 1.444884 -1.418611
-2.322371 1.452851 -1.414089
-2.513113 -1.032245 -1.424499
-2.506671 -1.009244 -1.421301
-2.523914 -1.007116 -1.434707
-2.526711 -0.997946 -1.437388
-2.536807 -0.991917 -1.445396
-2.527217 -0.976723 -1.438792
-2.533129 -0.945982 -1.444228
-2.525581 -0.931341 -1.438875
-2.534845 -0.923775 -1.445904
-2.531963 -0.910929 -1.443892
-2.531661 -0.899076 -1.443736
-2.517082 -0.881364 -1.432967
-2.518711 -0.870206 -1.434149
-2.515507 -0.857063 -1.431712
-2.521904 -0.847602 -1.436343
-2.512232 -0.831915 -1.429050
-2.518490 -0.822251 -1.433514
-2.529836 -0.814342 -1.441713
-2.522825 -0.799648 -1.436311
-2.512297 -0.783780 -1.428290
-2.511890 -0.771557 -1.427739
-2.514580 -0.760394 -1.429464
-2.513998 -0.748103 -1.428761
-2.516044 -0.736693 -1.429992
-2.520766 -0.726134 -1.433195
-2.527993 -0.716327 -1.438246
-2.532065 -0.705472 -1.440964
-2.536768 -0.694783 -1.444149
-2.533987 -0.681839 -1.441813
-2.523903 -0.666835 -1.434094
-2.515574 -0.652491 -1.427681
-2.512598 -0.639776 -1.425228
-2.516795 -0.629088 -1.428076
-2.515178 -0.616837 -1.426647
-2.510729 -0.603907 -1.423142
-2.535802 -0.598566 -1.441416
-2.540417 -0.587886 -1.444618
-2.541916 -0.576435 -1.445536
-2.490772 -0.552602 -1.407675
-2.510465 -0.545686 -1.422034
-2.512277 -0.534573 -1.423231
-2.511088 -0.522822 -1.422233
-2.513168 -0.511811 -1.423660
-2.509749 -0.499681 -1.421051
-2.506047 -0.487568 -1.418250
-2.507162 -0.476465 -1.419014
-2.515637 -0.466761 -1.425215
-2.524028 -0.456972 -1.431371
-2.474910 -0.437003 -1.395186
-2.511485 -0.432201 -1.422131
-2.518274 -0.422111 -1.427155
-2.529087 -0.412603 -1.435160
-2.504789 -0.397645 -1.417318
-2.508250 -0.387061 -1.419938
-2.512600 -0.376584 -1.423229
-2.507167 -0.364758 -1.419328
-2.503004 -0.353180 -1.416377
-2.506613 -0.342626 -1.419168
-2.523021 -0.333551 -1.431405
-2.524397 -0.322625 -1.432581
-2.522366 -0.311337 -1.431260
-2.532376 -0.301293 -1.438828
-2.521976 -0.289219 -1.431365
-2.515109 -0.277591 -1.426518
-2.531809 -0.268008 -1.439065
-2.509949 -0.255266 -1.423184
-2.508158 -0.244217 -1.422117
-2.509395 -0.233397 -1.423297
-2.513075 -0.222715 -1.426292
-2.518801 -0.212109 -1.430811
-2.519069 -0.201177 -1.431314
-2.503786 -0.189580 -1.420342
-2.521556 -0.179388 -1.433794
-2.526729 -0.168600 -1.437956
-2.509583 -0.157181 -1.425635
-2.502757 -0.146164 -1.420947
-2.502079 -0.135314 -1.420814
-2.496666 -0.124429 -1.417188
-2.491773 -0.113607 -1.413955
-2.504122 -0.102789 -1.423489
-2.519095 -0.091805 -1.434982
-2.522118 -0.080817 -1.437642
-2.503535 -0.070221 -1.424308
-2.517091 -0.059007 -1.434788
-2.503007 -0.048501 -1.424798
-2.501685 -0.037675 -1.424270
-2.482934 -0.027606 -1.410825
-2.487116 -0.016629 -1.414394
-2.494891 -0.005401 -1.420640
-2.496999 0.005585 -1.422691
-2.493454 0.016231 -1.420552
-2.494435 0.027170 -1.421783
-2.498410 0.038363 -1.425246
-2.501039 0.049499 -1.427720
-2.491895 0.059631 -1.421445
-2.482184 0.069615 -1.414752
-2.479750 0.080229 -1.413476
-2.490918 0.092273 -1.422336
-2.475282 0.101456 -1.411242
-2.471611 0.111881 -1.409064
-2.461241 0.121449 -1.401895
-2.478150 0.134442 -1.415074
-2.475099 0.144946 -1.413376
-2.472904 0.155551 -1.412324
-2.475474 0.166845 -1.414835
-2.474149 0.177590 -1.414445
-2.473629 0.188464 -1.414663
-2.479721 0.200436 -1.419832
-2.478263 0.211210 -1.419365
-2.474585 0.221593 -1.417241
-2.475722 0.232829 -1.418728
-2.483057 0.245262 -1.424867
-2.495093 0.258713 -1.434541
-2.477101 0.266321 -1.421715
-2.474909 0.276988 -1.420736
-2.448004 0.282414 -1.401216
-2.496452 0.303954 -1.438267
-2.491666 0.314180 -1.435368
-2.484197 0.323754 -1.430457
-2.473820 0.332574 -1.423361
-2.470515 0.343003 -1.421587
-2.466698 0.353288 -1.419433
-2.451670 0.360705 -1.408839
-2.451366 0.371791 -1.409340
-2.456481 0.384338 -1.413934
-2.439555 0.390978 -1.401914
-2.453468 0.406013 -1.413166
-2.451834 0.416826 -1.412697
-2.465644 0.432129 -1.423907
-2.457934 0.441250 -1.418868
-2.484737 0.460747 -1.439940
-2.475066 0.469343 -1.433439
-2.460985 0.476460 -1.423600
-2.455039 0.486046 -1.419924
-2.459725 0.499069 -1.424315
-2.464830 0.512323 -1.429040
-2.471908 0.526343 -1.435279
-2.461811 0.534543 -1.428490
-2.468935 0.548718 -1.434793
-2.448356 0.553083 -1.420045
-2.440535 0.561881 -1.415000
-2.446622 0.575782 -1.420552
-2.455296 0.590774 -1.428096
-2.443596 0.598092 -1.420125
-2.430380 0.604709 -1.410999
-2.435296 0.618394 -1.415720
-2.449445 0.635908 -1.427518
-2.468525 0.655670 -1.443118
-2.447350 0.658967 -1.427948
-2.439576 0.667701 -1.423032
-2.420583 0.671564 -1.409527
-2.424106 0.685041 -1.413287
-2.443683 0.705720 -1.429391
-2.450221 0.720852 -1.435521
-2.411909 0.715681 -1.407194
-2.418101 0.730636 -1.413083
-2.426895 0.746951 -1.421003
-2.435896 0.763540 -1.429114
-2.423453 0.769958 -1.420714
-2.424348 0.782797 -1.422617
-2.426678 0.796424 -1.425651
-2.432483 0.811896 -1.431398
-2.426063 0.821276 -1.427711
-2.420738 0.831201 -1.424886
-2.419251 0.843133 -1.425054
-2.410938 0.851489 -1.419944
-2.403645 0.860350 -1.415638
-2.405759 0.874313 -1.418662
-2.429835 0.900519 -1.438815
-2.432186 0.914988 -1.442098
-2.412770 0.917229 -1.428428
-2.391725 0.918335 -1.413480
-2.378856 0.923971 -1.404915
-2.385888 0.941227 -1.411933
-2.398449 0.961974 -1.423322
-2.412066 0.983634 -1.435588
-2.386533 0.981647 -1.417158
-2.391193 0.998061 -1.422450
-2.393331 1.013058 -1.425791
-2.381743 1.019475 -1.418346
-2.378705 1.031300 -1.417652
-2.378194 1.044818 -1.418976
-2.381736 1.061092 -1.423531
-2.384449 1.076969 -1.427461
-2.407173 1.106472 -1.447294
-2.374372 1.098580 -1.423102
-2.364493 1.106073 -1.417094
-2.364448 1.120368 -1.418917
-2.371628 1.139861 -1.426520
-2.375562 1.157249 -1.431566
-2.376025 1.172287 -1.433863
-2.374875 1.186244 -1.434885
-2.361994 1.191593 -1.426511
-2.350335 1.197723 -1.419101
-2.342515 1.206638 -1.414758
-2.328665 1.210879 -1.405547
-2.306226 1.208304 -1.389382
-2.377676 1.278847 -1.448953
-2.358545 1.279035 -1.435454
-2.336355 1.276490 -1.419426
-2.331545 1.287642 -1.417419
-2.338050 1.307978 -1.424563
-2.320566 1.323573 -1.413994
-2.315617 1.364016 -1.415091
-2.324548 1.386553 -1.424003
-2.285679 1.367227 -1.393744
-2.522864 -1.048893 -1.444284
-2.492585 -1.014749 -1.423526
-2.500898 -1.008784 -1.430500
-2.512940 -1.004308 -1.440192
-2.542348 -1.007592 -1.462775
-2.533863 -0.993009 -1.457038
-2.493952 -0.953385 -1.428218
-2.503966 -0.946926 -1.436077
-2.510990 -0.938911 -1.441643
-2.493730 -0.920245 -1.429008
-2.486906 -0.906087 -1.424108
-2.508415 -0.903739 -1.440323
-2.509592 -0.892656 -1.441293
-2.502527 -0.878122 -1.436053
-2.497018 -0.864214 -1.431930
-2.496070 -0.852095 -1.431172
-2.504281 -0.843470 -1.437219
-2.502102 -0.830733 -1.435467
-2.498984 -0.817625 -1.432980
-2.509123 -0.809403 -1.440370
-2.505065 -0.795888 -1.437129
-2.499091 -0.781722 -1.432436
-2.497872 -0.769281 -1.431278
-2.504621 -0.759581 -1.436054
-2.502163 -0.746698 -1.433944
-2.497771 -0.733214 -1.430384
-2.499518 -0.721785 -1.431400
-2.506318 -0.711954 -1.436180
-2.511326 -0.701500 -1.439622
-2.513770 -0.690225 -1.441152
-2.494914 -0.672586 -1.426806
-2.520819 -0.668297 -1.445832
-2.514354 -0.654456 -1.440735
-2.497720 -0.637884 -1.428074
-2.500722 -0.626926 -1.430053
-2.513112 -0.618477 -1.439034
-2.511088 -0.606146 -1.437290
-2.517402 -0.596004 -1.441767
-2.518337 -0.584483 -1.442252
-2.522543 -0.573782 -1.445186
-2.502118 -0.557239 -1.429804
-2.485841 -0.541938 -1.417527
-2.491241 -0.531738 -1.421396
-2.500553 -0.522363 -1.428191
-2.503329 -0.511522 -1.430139
-2.496840 -0.498770 -1.425211
-2.491599 -0.486380 -1.421228
-2.492482 -0.475276 -1.421816
-2.499451 -0.465339 -1.426948
-2.500936 -0.454350 -1.428017
-2.500580 -0.443047 -1.427734
-2.493066 -0.430554 -1.422144
-2.501615 -0.420825 -1.428516
-2.482888 -0.406687 -1.414619
-2.490657 -0.396848 -1.420443
-2.496829 -0.386707 -1.425096
-2.505731 -0.376902 -1.431796
-2.497086 -0.364637 -1.425459
-2.487056 -0.352313 -1.418107
-2.484456 -0.341045 -1.416296
-2.482905 -0.329949 -1.415280
-2.479726 -0.318705 -1.413067
-2.496953 -0.309685 -1.426055
-2.498564 -0.298908 -1.427437
-2.501479 -0.288250 -1.429804
-2.512646 -0.278306 -1.438329
-2.477544 -0.264386 -1.412415
-2.496050 -0.255042 -1.426433
-2.503757 -0.244719 -1.432425
-2.493854 -0.233150 -1.425310
-2.496711 -0.222473 -1.427715
-2.503279 -0.211971 -1.432899
-2.493711 -0.200611 -1.426066
-2.473989 -0.188926 -1.411672
-2.471951 -0.178133 -1.410471
-2.486318 -0.167887 -1.421520
-2.481411 -0.156976 -1.418203
-2.485911 -0.146314 -1.421916
-2.485341 -0.135526 -1.421857
-2.483039 -0.124729 -1.420515
-2.481121 -0.113959 -1.419469
-2.495172 -0.103166 -1.430364
-2.505543 -0.092240 -1.438525
-2.510020 -0.081275 -1.442294
-2.465935 -0.071218 -1.409755
-2.472292 -0.060372 -1.414942
-2.475891 -0.049534 -1.418078
-2.477231 -0.038732 -1.419532
-2.471223 -0.028222 -1.415495
-2.467304 -0.017674 -1.413028
-2.464127 -0.007122 -1.411123
-2.465986 0.003704 -1.413001
-2.457578 0.013884 -1.407188
-2.462883 0.024959 -1.411666
-2.478547 0.036907 -1.423929
-2.476085 0.047538 -1.422601
-2.464603 0.057349 -1.414506
-2.474261 0.069043 -1.422294
-2.480243 0.080490 -1.427333
-2.479865 0.091342 -1.427602
-2.473290 0.101508 -1.423216
-2.456189 0.110368 -1.410914
-2.460089 0.121643 -1.414418
-2.458063 0.132210 -1.413469
-2.460237 0.143337 -1.415690
-2.451645 0.152981 -1.409806
-2.446526 0.163052 -1.406542
-2.450222 0.174429 -1.409933
-2.460251 0.186871 -1.418112
-2.459159 0.197615 -1.417908
-2.470498 0.210486 -1.427102
-2.450674 0.218002 -1.412760
-2.448121 0.228455 -1.411470
-2.476005 0.244635 -1.433209
-2.463423 0.253295 -1.424352
-2.466311 0.264926 -1.427207
-2.448647 0.272369 -1.414503
-2.441192 0.281790 -1.409532
-2.448726 0.294414 -1.415927
-2.470850 0.310422 -1.433405
-2.474962 0.322569 -1.437236
-2.473486 0.333467 -1.436836
-2.469311 0.343716 -1.434392
-2.458369 0.352257 -1.426811
-2.452950 0.362095 -1.423430
-2.447667 0.371926 -1.420156
-2.438418 0.380662 -1.413868
-2.442452 0.392931 -1.417701
-2.433775 0.401732 -1.411857
-2.440000 0.414698 -1.417381
-2.440029 0.425965 -1.418192
-2.443319 0.438229 -1.421503
-2.423626 0.443590 -1.407269
-2.425261 0.455338 -1.409331
-2.448867 0.474073 -1.428210
-2.440193 0.482739 -1.422418
-2.439607 0.493983 -1.422822
-2.448812 0.508526 -1.430739
-2.441567 0.517613 -1.426066
-2.451033 0.532441 -1.434218
-2.450291 0.543817 -1.434555
-2.441188 0.552214 -1.428482
-2.432530 0.560694 -1.422755
-2.436921 0.573960 -1.427070
-2.441950 0.587562 -1.431894
-2.432959 0.595869 -1.425941
-2.406600 0.597302 -1.406604
-2.409914 0.610245 -1.410142
-2.425803 0.628359 -1.423405
-2.426408 0.640443 -1.424896
-2.430167 0.653896 -1.428841
-2.410144 0.657361 -1.414410
-2.405766 0.667347 -1.412085
-2.412120 0.682016 -1.418087
-2.411742 0.693832 -1.418895
-2.399491 0.700345 -1.410506
-2.394541 0.710086 -1.407792
-2.403098 0.726080 -1.415589
-2.419379 0.745879 -1.429425
-2.415458 0.756313 -1.427575
-2.404164 0.763182 -1.419994
-2.405495 0.776158 -1.422266
-2.418005 0.794781 -1.433289
-2.419556 0.808108 -1.435788
-2.403035 0.812274 -1.424179
-2.395731 0.821060 -1.419784
-2.390510 0.830907 -1.417034
-2.387517 0.841939 -1.416047
-2.387145 0.854416 -1.417138
-2.405760 0.877351 -1.433175
-2.407804 0.891445 -1.436231
-2.397604 0.898771 -1.429673
-2.394053 0.909812 -1.428366
-2.381012 0.915416 -1.419592
-2.382116 0.929166 -1.421996
-2.386902 0.945194 -1.427341
-2.386992 0.958570 -1.429003
-2.371463 0.962572 -1.418312
-2.362172 0.970257 -1.412570
-2.372837 0.990290 -1.422695
-2.375617 1.005619 -1.426594
-2.367606 1.014218 -1.421932
-2.359753 1.022889 -1.417406
-2.360151 1.036915 -1.419480
-2.367646 1.055729 -1.427254
-2.381269 1.078854 -1.439975
-2.371988 1.086811 -1.434390
-2.366147 1.097070 -1.431570
-2.356134 1.104444 -1.425408
-2.339845 1.107355 -1.414195
-2.348979 1.128110 -1.423454
-2.360699 1.150964 -1.434839
-2.366707 1.169961 -1.441650
-2.355484 1.176505 -1.434544
-2.339257 1.179231 -1.423369
-2.322532 1.181389 -1.411762
-2.316718 1.191621 -1.408990
-2.315199 1.205119 -1.409701
-2.320958 1.224303 -1.416339
-2.334924 1.250085 -1.429680
-2.350888 1.277742 -1.444677
-2.331882 1.277659 -1.431079
-2.325608 1.287602 -1.427853
-2.329942 1.306150 -1.433292
-2.317494 1.310879 -1.424924
-2.282307 1.296351 -1.397789
-2.269112 1.299797 -1.388654
-2.315697 1.354070 -1.428747
-2.306440 1.360906 -1.422775
-2.277240 1.378802 -1.403215
-2.277363 1.393109 -1.404699
-2.416339 -0.998685 -1.377834
-2.462992 -1.012250 -1.413804
-2.490823 -1.016104 -1.435606
-2.489541 -0.975049 -1.437526
-2.474563 -0.957725 -1.426789
-2.470329 -0.945237 -1.424076
-2.484970 -0.941012 -1.435528
-2.483434 -0.929408 -1.434720
-2.475041 -0.914733 -1.428675
-2.468477 -0.900814 -1.423948
-2.476699 -0.893060 -1.430320
-2.484809 -0.885056 -1.436554
-2.486045 -0.874059 -1.437549
-2.485885 -0.862403 -1.437442
-2.481487 -0.848999 -1.434091
-2.480899 -0.837064 -1.433575
-2.486274 -0.827358 -1.437521
-2.467795 -0.808570 -1.423434
-2.474946 -0.799448 -1.428654
-2.493025 -0.794175 -1.442091
-2.485198 -0.779403 -1.435963
-2.487599 -0.768301 -1.437529
-2.481997 -0.754405 -1.433044
-2.469316 -0.738187 -1.423213
-2.483991 -0.731202 -1.433992
-2.484122 -0.719310 -1.433800
-2.467990 -0.702245 -1.421353
-2.490578 -0.697502 -1.438071
-2.466958 -0.678348 -1.419988
-2.490210 -0.673571 -1.437201
-2.506678 -0.666537 -1.449306
-2.487790 -0.649170 -1.434805
-2.483351 -0.636131 -1.431189
-2.505075 -0.630371 -1.447264
-2.485282 -0.613225 -1.432119
-2.495725 -0.604293 -1.439726
-2.491145 -0.591420 -1.436049
-2.506200 -0.583549 -1.447145
-2.460950 -0.560825 -1.412927
-2.477670 -0.553424 -1.425304
-2.485804 -0.543865 -1.431240
-2.473762 -0.529694 -1.422032
-2.479155 -0.519530 -1.425940
-2.488531 -0.510186 -1.432855
-2.477357 -0.496502 -1.424349
-2.482324 -0.486235 -1.427984
-2.480934 -0.474700 -1.426862
-2.482971 -0.463862 -1.428330
-2.482252 -0.452524 -1.427745
-2.477390 -0.440489 -1.424065
-2.476435 -0.429211 -1.423336
-2.473040 -0.417567 -1.420791
-2.470688 -0.406155 -1.419045
-2.471656 -0.395307 -1.419810
-2.503227 -0.388997 -1.443573
-2.492956 -0.376396 -1.435930
-2.483657 -0.364070 -1.429031
-2.469811 -0.351279 -1.418732
-2.468166 -0.340189 -1.417613
-2.462168 -0.328619 -1.413238
-2.466790 -0.318334 -1.416855
-2.473880 -0.308276 -1.422343
-2.484939 -0.298551 -1.430830
-2.484106 -0.287576 -1.430395
-2.467029 -0.275167 -1.417763
-2.486442 -0.266028 -1.432575
-2.485967 -0.255121 -1.432451
-2.457205 -0.242184 -1.411064
-2.463054 -0.231890 -1.415720
-2.466762 -0.221406 -1.418779
-2.482431 -0.211544 -1.430853
-2.481761 -0.200702 -1.430645
-2.457656 -0.188851 -1.412806
-2.452908 -0.178014 -1.409547
-2.455408 -0.167465 -1.411758
-2.477535 -0.157406 -1.428768
-2.484030 -0.146773 -1.434017
-2.476093 -0.135852 -1.428402
-2.462973 -0.124975 -1.418886
-2.480389 -0.114349 -1.432406
-2.473034 -0.103581 -1.427255
-2.428166 -0.093203 -1.393803
-2.426219 -0.082739 -1.392741
-2.431411 -0.072152 -1.397078
-2.459640 -0.060915 -1.418828
-2.459994 -0.050217 -1.419538
-2.460263 -0.039513 -1.420194
-2.459346 -0.028850 -1.419963
-2.450396 -0.018581 -1.413665
-2.445800 -0.008171 -1.410665
-2.440743 0.002167 -1.407323
-2.429981 0.012078 -1.399667
-2.440759 0.023418 -1.408328
-2.454589 0.035129 -1.419316
-2.451601 0.045611 -1.417572
-2.445559 0.055796 -1.413519
-2.459413 0.067810 -1.424563
-2.466805 0.079346 -1.430719
-2.466855 0.090199 -1.431314
-2.454272 0.099646 -1.422324
-2.443201 0.109137 -1.414482
-2.436445 0.119048 -1.409922
-2.443748 0.130720 -1.416054
-2.436187 0.140474 -1.410891
-2.440370 0.151818 -1.414669
-2.441237 0.162737 -1.415933
-2.435916 0.172732 -1.412491
-2.446773 0.185258 -1.421381
-2.450018 0.196671 -1.424484
-2.437353 0.205418 -1.415462
-2.428432 0.214694 -1.409297
-2.416134 0.223265 -1.400554
-2.422048 0.235148 -1.405720
-2.450213 0.251456 -1.427900
-2.449112 0.262242 -1.427735
-2.433121 0.269955 -1.416189
-2.425563 0.279291 -1.411093
-2.430183 0.291221 -1.415322
-2.439883 0.304370 -1.423455
-2.455709 0.319071 -1.436298
-2.457278 0.330609 -1.438231
-2.454361 0.341098 -1.436732
-2.454175 0.352256 -1.437336
-2.443734 0.360820 -1.430073
-2.437041 0.370260 -1.425691
-2.436296 0.381233 -1.425886
-2.409273 0.385041 -1.405876
-2.410512 0.396440 -1.407605
-2.426421 0.412070 -1.420641
-2.413060 0.419384 -1.411148
-2.398103 0.426086 -1.400424
-2.412821 0.441654 -1.412589
-2.432067 0.458838 -1.428273
-2.425201 0.468028 -1.423818
-2.426126 0.479677 -1.425389
-2.421821 0.489648 -1.422929
-2.421103 0.500801 -1.423252
-2.422921 0.512843 -1.425550
-2.425658 0.525262 -1.428575
-2.431736 0.538934 -1.434205
-2.423398 0.547522 -1.428672
-2.425001 0.559687 -1.430861
-2.423649 0.570808 -1.430769
-2.428434 0.584280 -1.435462
-2.410923 0.589246 -1.422830
-2.398035 0.595841 -1.413793
-2.392155 0.605108 -1.410217
-2.399956 0.619888 -1.417314
-2.399014 0.631212 -1.417616
-2.395211 0.641371 -1.415701
-2.388872 0.650448 -1.411815
-2.392626 0.663847 -1.415832
-2.393941 0.676275 -1.417963
-2.392591 0.687585 -1.418026
-2.380738 0.694184 -1.409874
-2.383385 0.707324 -1.413101
-2.393084 0.723835 -1.421888
-2.409207 0.743565 -1.435755
-2.399895 0.751395 -1.429662
-2.391470 0.759589 -1.424275
-2.401861 0.776994 -1.433722
-2.409805 0.793384 -1.441278
-2.399979 0.800951 -1.434840
-2.385356 0.805985 -1.424622
-2.373530 0.812338 -1.416618
-2.381512 0.829041 -1.424299
-2.381624 0.841721 -1.425781
-2.395367 0.861859 -1.438101
-2.405206 0.880127 -1.447368
-2.391613 0.885585 -1.438053
-2.369971 0.886390 -1.422337
-2.360882 0.894123 -1.416610
-2.377525 0.916679 -1.431412
-2.377733 0.929942 -1.433151
-2.377502 0.943036 -1.434567
-2.368315 0.950835 -1.428844
-2.354462 0.955748 -1.419394
-2.348214 0.965223 -1.416045
-2.351358 0.980546 -1.420253
-2.357152 0.997683 -1.426625
-2.337634 0.998836 -1.412660
-2.334147 1.010143 -1.411604
-2.342467 1.029219 -1.420095
-2.357459 1.052940 -1.434020
-2.359800 1.068518 -1.437767
-2.347871 1.074549 -1.429982
-2.327948 1.074995 -1.415710
-2.322797 1.085476 -1.413417
-2.321350 1.098568 -1.414146
-2.328990 1.118193 -1.422293
-2.334519 1.136515 -1.428752
-2.328453 1.146579 -1.425767
-2.333891 1.165096 -1.432191
-2.314214 1.165084 -1.418067
-2.297972 1.167401 -1.406721
-2.294513 1.179250 -1.405842
-2.299759 1.197812 -1.412116
-2.312763 1.222566 -1.424790
-2.322897 1.245336 -1.435118
-2.313455 1.252736 -1.429287
-2.324881 1.276807 -1.440680
-2.320907 1.288571 -1.439320
-2.323470 1.305656 -1.443347
-2.311262 1.310511 -1.435079
-2.281320 1.300249 -1.412000
-2.273611 1.322819 -1.409017
-2.283860 1.346155 -1.419209
-2.264345 1.400009 -1.410086
-2.463408 -0.995383 -1.429099
-2.458204 -0.983082 -1.425935
-2.442150 -0.965608 -1.414452
-2.444439 -0.946376 -1.417415
-2.462262 -0.944015 -1.431489
-2.464065 -0.934189 -1.433309
-2.468027 -0.925148 -1.436709
-2.464372 -0.912635 -1.434243
-2.463709 -0.901316 -1.433994
-2.463687 -0.890160 -1.434175
-2.467201 -0.880362 -1.436992
-2.465667 -0.868363 -1.435909
-2.469179 -0.858324 -1.438621
-2.460959 -0.843515 -1.432345
-2.462480 -0.832536 -1.433450
-2.454325 -0.817767 -1.427142
-2.454624 -0.806239 -1.427239
-2.460278 -0.796651 -1.431384
-2.471008 -0.788808 -1.439366
-2.474712 -0.778286 -1.441970
-2.456473 -0.759976 -1.427843
-2.456359 -0.748149 -1.427500
-2.467175 -0.740027 -1.435465
-2.467014 -0.728114 -1.435060
-2.462835 -0.714897 -1.431589
-2.460200 -0.702239 -1.429289
-2.434252 -0.682314 -1.409254
-2.456725 -0.677625 -1.426048
-2.471011 -0.670209 -1.436611
-2.457592 -0.654471 -1.426116
-2.456805 -0.642574 -1.425228
-2.464848 -0.633209 -1.431057
-2.463713 -0.621242 -1.429920
-2.495600 -0.618230 -1.453872
-2.481506 -0.602739 -1.442912
-2.473672 -0.589070 -1.436719
-2.460378 -0.574162 -1.426398
-2.461375 -0.562955 -1.426939
-2.450413 -0.548917 -1.418419
-2.458040 -0.539372 -1.424021
-2.461633 -0.528856 -1.426576
-2.460213 -0.517227 -1.425345
-2.462100 -0.506358 -1.426637
-2.460041 -0.494678 -1.424953
-2.457009 -0.482859 -1.422548
-2.470078 -0.474268 -1.432369
-2.456335 -0.460451 -1.421875
-2.440788 -0.446497 -1.410031
-2.450396 -0.437243 -1.417278
-2.455289 -0.427089 -1.420966
-2.463335 -0.417429 -1.427062
-2.468935 -0.407306 -1.431320
-2.448043 -0.393049 -1.415506
-2.464620 -0.384631 -1.428121
-2.471167 -0.374609 -1.433146
-2.461070 -0.362253 -1.425567
-2.461041 -0.351355 -1.425637
-2.461615 -0.340553 -1.426181
-2.460238 -0.329529 -1.425261
-2.458355 -0.318480 -1.423971
-2.467061 -0.308609 -1.430731
-2.472275 -0.298295 -1.434857
-2.468471 -0.287070 -1.432155
-2.505700 -0.279601 -1.460611
-2.437805 -0.262842 -1.409288
-2.463092 -0.254203 -1.428710
-2.454494 -0.242814 -1.422421
-2.441436 -0.231235 -1.412756
-2.450387 -0.221161 -1.419820
-2.456687 -0.210844 -1.424885
-2.469149 -0.200765 -1.434646
-2.457649 -0.189496 -1.426211
-2.430802 -0.177778 -1.406116
-2.439502 -0.167523 -1.413056
-2.469724 -0.157742 -1.436381
-2.478230 -0.147161 -1.443206
-2.462497 -0.136119 -1.431600
-2.451278 -0.125300 -1.423435
-2.439317 -0.114607 -1.414711
-2.466010 -0.103962 -1.435435
-2.454836 -0.093312 -1.427330
-2.441876 -0.082812 -1.417869
-2.443447 -0.072173 -1.419490
-2.445754 -0.061493 -1.421683
-2.448672 -0.050762 -1.424353
-2.417314 -0.041258 -1.400880
-2.439755 -0.029812 -1.418465
-2.435972 -0.019372 -1.416048
-2.436251 -0.008747 -1.416741
-2.446410 0.002482 -1.424992
-2.420659 0.011472 -1.405808
-2.427385 0.022500 -1.411453
-2.434515 0.033648 -1.417419
-2.438002 0.044584 -1.420610
-2.441744 0.055595 -1.424007
-2.441710 0.066302 -1.424523
-2.441885 0.077041 -1.425208
-2.443988 0.088000 -1.427377
-2.430435 0.097235 -1.417554
-2.424757 0.107257 -1.413770
-2.414896 0.116705 -1.406781
-2.409763 0.126667 -1.403422
-2.423673 0.139172 -1.414694
-2.434680 0.151443 -1.423751
-2.430924 0.161678 -1.421477
-2.423159 0.171269 -1.416126
-2.423729 0.182114 -1.417189
-2.433996 0.194587 -1.425724
-2.422716 0.203505 -1.417682
-2.410976 0.212225 -1.409287
-2.406914 0.222230 -1.406808
-2.410130 0.233583 -1.409947
-2.415434 0.245401 -1.414707
-2.425040 0.258166 -1.422800
-2.407346 0.265410 -1.409827
-2.406635 0.276082 -1.409969
-2.411702 0.288033 -1.414586
-2.409793 0.298494 -1.413821
-2.422291 0.312286 -1.424211
-2.433735 0.326002 -1.433803
-2.425288 0.335037 -1.428006
-2.422106 0.345306 -1.426292
-2.378111 0.345129 -1.392937
-2.412504 0.364953 -1.420372
-2.394066 0.371073 -1.406834
-2.387971 0.380373 -1.402877
-2.390588 0.392065 -1.405695
-2.392992 0.403754 -1.408361
-2.378154 0.410458 -1.397623
-2.384722 0.423398 -1.403547
-2.408827 0.441793 -1.423150
-2.402133 0.450937 -1.418780
-2.405629 0.463261 -1.422362
-2.407110 0.475007 -1.424387
-2.406135 0.485994 -1.424508
-2.406252 0.497367 -1.425493
-2.407766 0.509254 -1.427583
-2.406958 0.520384 -1.427872
-2.397678 0.528531 -1.421539
-2.407100 0.543356 -1.429863
-2.405872 0.554420 -1.429861
-2.403133 0.564941 -1.428687
-2.403268 0.576559 -1.429781
-2.402329 0.587804 -1.430047
-2.385930 0.592992 -1.418172
-2.385740 0.604494 -1.419047
-2.386305 0.616344 -1.420533
-2.384784 0.627384 -1.420393
-2.373756 0.634459 -1.412770
-2.376175 0.647168 -1.415764
-2.387590 0.663851 -1.425884
-2.385718 0.674894 -1.425534
-2.368286 0.679019 -1.412891
-2.367917 0.690691 -1.413754
-2.380276 0.708263 -1.424722
-2.391860 0.725697 -1.435112
-2.389101 0.736555 -1.434154
-2.383268 0.745957 -1.430771
-2.383642 0.758363 -1.432338
-2.390446 0.774012 -1.439045
-2.388514 0.785442 -1.438824
-2.369699 0.788336 -1.425163
-2.357257 0.794313 -1.416582
-2.377933 0.817471 -1.434466
-2.382591 0.832516 -1.439597
-2.392057 0.850277 -1.448610
-2.406144 0.870759 -1.461366
-2.397739 0.879137 -1.456130
-2.376630 0.880385 -1.440703
-2.353557 0.880294 -1.423689
-2.344302 0.887857 -1.417782
-2.346015 0.901724 -1.420722
-2.355252 0.920120 -1.429762
-2.352822 0.931799 -1.429424
-2.348398 0.942327 -1.427498
-2.337651 0.949019 -1.420473
-2.334925 0.960593 -1.419955
-2.335649 0.974372 -1.422260
-2.330529 0.984554 -1.419845
-2.322686 0.993005 -1.415231
-2.314860 1.001437 -1.410643
-2.324794 1.021502 -1.420548
-2.347252 1.050146 -1.440728
-2.346399 1.063562 -1.441919
-2.328374 1.065372 -1.429073
-2.312273 1.068310 -1.417788
-2.300633 1.074188 -1.410151
-2.296021 1.084923 -1.408286
-2.303623 1.104389 -1.416484
-2.306755 1.120842 -1.421030
-2.309221 1.136947 -1.425048
-2.304787 1.148077 -1.423378
-2.298387 1.157741 -1.420079
-2.287003 1.163603 -1.412638
-2.287240 1.178222 -1.414822
-2.287902 1.193236 -1.417358
-2.294634 1.213060 -1.424944
-2.300439 1.232316 -1.431764
-2.298588 1.260368 -1.434139
-2.300996 1.277127 -1.438082
-2.305416 1.295599 -1.443687
-2.279202 1.303215 -1.425349
-2.280537 1.318944 -1.428226
-2.252836 1.323957 -1.408208
-2.459502 -1.023987 -1.436518
-2.443755 -0.988151 -1.427370
-2.444355 -0.978738 -1.428660
-2.415318 -0.955289 -1.407138
-2.421063 -0.948075 -1.412227
-2.436895 -0.945250 -1.425000
-2.447188 -0.939597 -1.433458
-2.447113 -0.929060 -1.433883
-2.443937 -0.917020 -1.431858
-2.451281 -0.909449 -1.437857
-2.461536 -0.902910 -1.446033
-2.461107 -0.891622 -1.445931
-2.456730 -0.878588 -1.442733
-2.453183 -0.865846 -1.440116
-2.441849 -0.849912 -1.431454
-2.427673 -0.832906 -1.420555
-2.424200 -0.820193 -1.417849
-2.437547 -0.813937 -1.428043
-2.444334 -0.804973 -1.433150
-2.451237 -0.795922 -1.438312
-2.457535 -0.786525 -1.442976
-2.444394 -0.770025 -1.432661
-2.426777 -0.752088 -1.418884
-2.443028 -0.746114 -1.431131
-2.455488 -0.738633 -1.440443
-2.449742 -0.724905 -1.435746
-2.445907 -0.711882 -1.432509
-2.433936 -0.696299 -1.423016
-2.426877 -0.682431 -1.417295
-2.438046 -0.674297 -1.425572
-2.443741 -0.664387 -1.429642
-2.440854 -0.651887 -1.427126
-2.436575 -0.639047 -1.423547
-2.439380 -0.628297 -1.425411
-2.455014 -0.621098 -1.437122
-2.460645 -0.611025 -1.441166
