ply
format ascii 1.0
comment ---
element vertex 1649
property float x
property float y
property float z
element face 0
property list uchar uint vertex_indices
end_header
-3.789738 1.499932 -0.687704
-3.751644 1.485143 -0.679872
-3.818634 1.571676 -0.707865
-3.792094 1.634152 -0.720044
-3.765197 1.628211 -0.715731
-3.758743 1.639911 -0.717901
-3.751490 1.650967 -0.719834
-3.727410 1.647034 -0.716325
-3.647428 1.592411 -0.694510
-3.609596 1.574948 -0.686237
-3.598522 1.581588 -0.686684
-3.593205 1.593533 -0.689031
-3.594196 1.611452 -0.693500
-3.595416 1.629760 -0.698079
-3.594377 1.646084 -0.701925
-3.591941 1.661196 -0.705317
-3.585150 1.672172 -0.707225
-3.580935 1.685713 -0.710019
-3.579745 1.702338 -0.713874
-3.584347 1.724914 -0.719779
-3.580856 1.739540 -0.722871
-3.574101 1.750923 -0.724811
-3.570818 1.765926 -0.727985
-3.565406 1.778813 -0.730400
-3.561293 1.793129 -0.733283
-3.564229 1.815032 -0.738745
-3.568025 1.838098 -0.744561
-3.568134 1.857426 -0.749056
-3.564610 1.872966 -0.752224
-3.561214 1.888762 -0.755449
-3.563125 1.910600 -0.760684
-3.563141 1.930542 -0.765237
-3.563797 1.951412 -0.770062
-3.560668 1.968159 -0.773464
-3.557568 1.985079 -0.776890
-3.553196 2.000656 -0.779836
-3.552681 2.020913 -0.784303
-3.551338 2.040394 -0.788473
-3.548558 2.058343 -0.792098
-3.542497 2.072469 -0.794432
-3.537516 2.088017 -0.797203
-3.537619 2.109999 -0.802044
-3.533256 2.126638 -0.805102
-3.526450 2.140336 -0.807173
-3.525211 2.161239 -0.811547
-3.529361 2.189329 -0.818196
-3.521978 2.202773 -0.820083
-3.514076 2.215624 -0.821754
-3.512633 2.237139 -0.826166
-3.510835 2.258429 -0.830465
-3.512074 2.284086 -0.836106
-3.508709 2.303779 -0.839811
-3.503243 2.320790 -0.842633
-3.499601 2.340516 -0.846275
-3.495838 2.360295 -0.849896
-3.496456 2.386543 -0.855497
-3.495275 2.410560 -0.860353
-3.476196 2.408875 -0.857198
-3.460618 2.412124 -0.855573
-3.369834 2.303688 -0.819563
-3.376420 2.364502 -0.833135
-3.259773 2.236686 -0.789174
-3.221348 2.251373 -0.786303
-3.212086 2.261887 -0.787016
-3.196201 2.261683 -0.784510
-3.183909 2.267239 -0.783723
-3.174435 2.277454 -0.784310
-3.166060 2.289589 -0.785448
-3.151469 2.291267 -0.783484
-3.131083 2.282867 -0.778561
-3.110716 2.328111 -0.784386
-3.099708 2.335987 -0.784187
-3.086034 2.339049 -0.782587
-3.085463 2.366102 -0.787885
-3.092430 2.407626 -0.797280
-3.145288 2.663162 -0.856565
-3.146464 2.698716 -0.863764
-3.135475 2.710438 -0.864229
-3.113118 2.699093 -0.858246
-3.094662 2.695358 -0.854401
-3.079587 2.698426 -0.852450
-3.065076 2.702598 -0.850800
-3.053629 2.713264 -0.850928
-3.037169 2.713168 -0.848091
-3.019233 2.709663 -0.844326
-3.002118 2.707729 -0.840998
-2.983762 2.702789 -0.836860
-2.965757 2.698357 -0.832872
-2.946523 2.690810 -0.828055
-2.926039 2.679980 -0.822375
-2.913422 2.687339 -0.821572
-2.894081 2.678592 -0.816472
-2.883530 2.690832 -0.816950
-2.867831 2.690550 -0.814098
-2.851219 2.687817 -0.810603
-2.837600 2.692430 -0.809037
-2.815997 2.676502 -0.802098
-2.803667 2.684123 -0.801315
-2.787661 2.682089 -0.798013
-2.774803 2.688276 -0.796836
-2.759735 2.688477 -0.794105
-2.743102 2.684207 -0.790226
-2.725019 2.675594 -0.785244
-2.704625 2.660002 -0.778501
-2.692338 2.667170 -0.777550
-2.675188 2.660157 -0.773003
-2.667171 2.679942 -0.775199
-2.644092 2.654692 -0.766081
-2.626953 2.646717 -0.761314
-2.611157 2.642526 -0.757497
-2.594054 2.633908 -0.752587
-2.579493 2.633049 -0.749600
-2.567037 2.638911 -0.748256
-2.553206 2.640252 -0.745789
-2.536830 2.632865 -0.741189
-2.525655 2.643019 -0.740846
-2.509343 2.635363 -0.736177
-2.493887 2.630349 -0.732149
-2.479772 2.629894 -0.729214
-2.467003 2.634279 -0.727423
-2.451181 2.627167 -0.722886
-2.433449 2.612295 -0.716521
-2.419874 2.613030 -0.713846
-2.406563 2.614720 -0.711382
-2.392977 2.615234 -0.708629
-2.377974 2.609743 -0.704471
-2.364033 2.608412 -0.701272
-2.349539 2.604510 -0.697473
-2.335796 2.603653 -0.694367
-2.321994 2.602378 -0.691154
-2.308672 2.603164 -0.688398
-2.295022 2.602315 -0.685259
-2.281044 2.599727 -0.681717
-2.267386 2.598495 -0.678470
-2.254675 2.601941 -0.676253
-2.239786 2.594055 -0.671506
-2.223655 2.578986 -0.665180
-2.208995 2.571128 -0.660455
-2.196869 2.577102 -0.658749
-2.182859 2.572341 -0.654688
-2.169678 2.572175 -0.651616
-2.156234 2.570284 -0.648161
-2.143693 2.573927 -0.645880
-2.131180 2.577885 -0.643647
-2.117395 2.573379 -0.639605
-2.101735 2.555323 -0.632716
-2.088691 2.554868 -0.629538
-2.075965 2.556650 -0.626818
-2.062330 2.551351 -0.622623
-2.050092 2.556811 -0.620647
-2.037694 2.561211 -0.618439
-2.024365 2.557644 -0.614599
-2.011011 2.553332 -0.610617
-1.997115 2.543225 -0.605483
-1.984044 2.540176 -0.601787
-1.971782 2.545035 -0.599678
-1.959190 2.546412 -0.596880
-1.946133 2.542121 -0.592979
-1.933245 2.538955 -0.589326
-1.920483 2.536518 -0.585841
-1.907676 2.532494 -0.582081
-1.895240 2.532732 -0.579176
-1.882902 2.533694 -0.576442
-1.870734 2.536724 -0.574135
-1.858350 2.535003 -0.570967
-1.846012 2.532451 -0.567693
-1.834527 2.546987 -0.567666
-1.830451 2.749826 -0.602634
-1.818826 2.786790 -0.606624
-1.780118 2.782894 -0.597738
-1.767638 2.790836 -0.596618
-1.730745 2.844313 -0.599026
-1.718430 2.851841 -0.598138
-1.706231 2.851274 -0.595908
-1.694144 2.857872 -0.595051
-1.682086 2.871804 -0.595582
-1.670513 2.857160 -0.591196
-1.659160 2.845842 -0.587519
-1.648097 2.832984 -0.583695
-1.636783 2.839818 -0.583413
-1.625826 2.838831 -0.581878
-1.614608 2.850949 -0.582715
-1.602835 2.880324 -0.586625
-3.827373 1.234258 -0.653636
-3.851023 1.260604 -0.661693
-3.893697 1.300111 -0.675230
-3.895389 1.312804 -0.677413
-3.882776 1.316092 -0.675677
-3.883959 1.328915 -0.677944
-3.882594 1.340262 -0.679608
-3.872119 1.345537 -0.678793
-3.859875 1.349716 -0.677572
-3.852247 1.357272 -0.677771
-3.859422 1.375536 -0.682344
-3.864135 1.392386 -0.686342
-3.861977 1.404582 -0.688474
-3.855280 1.413693 -0.689393
-3.851237 1.424934 -0.691191
-3.849763 1.438289 -0.693852
-3.843736 1.448455 -0.695270
-3.848658 1.467089 -0.700045
-3.850102 1.483376 -0.703899
-3.847761 1.496997 -0.706720
-3.843090 1.509002 -0.708926
-3.822324 1.508492 -0.706305
-3.805390 1.510939 -0.704876
-3.813255 1.533251 -0.711120
-3.784688 1.542619 -0.710106
-3.791028 1.614961 -0.728563
-3.791061 1.632245 -0.732845
-3.779126 1.639327 -0.733297
-3.766662 1.645920 -0.733577
-3.756963 1.654919 -0.734758
-3.718637 1.638351 -0.726473
-3.652744 1.596420 -0.708886
-3.612568 1.576912 -0.699666
-3.597995 1.580390 -0.698938
-3.600899 1.599989 -0.704111
-3.603039 1.619077 -0.709067
-3.596687 1.630318 -0.711141
-3.589819 1.641101 -0.713034
-3.585931 1.654788 -0.715962
-3.585786 1.672205 -0.720211
-3.577590 1.681852 -0.721641
-3.581101 1.703134 -0.727220
-3.586585 1.726623 -0.733545
-3.580089 1.738242 -0.735605
-3.573711 1.750020 -0.737702
-3.572237 1.766902 -0.741581
-3.569842 1.782965 -0.745140
-3.565139 1.796722 -0.747858
-3.563788 1.814121 -0.751825
-3.560447 1.829534 -0.755065
-3.557853 1.845870 -0.758596
-3.564417 1.872356 -0.765615
-3.566547 1.894272 -0.770999
-3.563823 1.911012 -0.774556
-3.560679 1.927418 -0.777963
-3.563318 1.950534 -0.783636
-3.562981 1.970499 -0.788186
-3.557252 1.984416 -0.790637
-3.551365 1.998234 -0.793027
-3.548632 2.015869 -0.796680
-3.551181 2.039968 -0.802477
-3.552709 2.063126 -0.807908
-3.547043 2.077803 -0.810451
-3.544901 2.096916 -0.814446
-3.534701 2.106227 -0.815140
-3.527736 2.119596 -0.817163
-3.523567 2.136586 -0.820357
-3.523169 2.158553 -0.825158
-3.522716 2.180706 -0.829976
-3.517915 2.197457 -0.832981
-3.512561 2.213637 -0.835766
-3.507759 2.230698 -0.838806
-3.508780 2.255737 -0.844400
-3.516369 2.290006 -0.852928
-3.511397 2.307590 -0.856011
-3.504798 2.323107 -0.858395
-3.495134 2.334479 -0.859424
-3.488396 2.350036 -0.861767
-3.492811 2.381625 -0.869179
-3.485344 2.396585 -0.871258
-3.473428 2.405205 -0.871307
-3.446615 2.391951 -0.864455
-3.363625 2.320078 -0.836659
-3.232490 2.269838 -0.805849
-3.211092 2.261015 -0.800652
-3.189904 2.252195 -0.795477
-3.161148 2.256202 -0.791741
-3.118299 2.261893 -0.786039
-3.106831 2.268470 -0.785535
-3.113302 2.306583 -0.794395
-3.122662 2.350531 -0.804910
-3.090981 2.349336 -0.799475
-3.096421 2.387609 -0.808161
-3.091892 2.408070 -0.811569
-3.090417 2.464375 -0.822738
-3.137969 2.650660 -0.868332
-3.139861 2.687566 -0.876081
-3.133470 2.708481 -0.879200
-3.114930 2.704942 -0.875334
-3.093827 2.695852 -0.869907
-3.078568 2.698595 -0.867839
-3.066657 2.708319 -0.867732
-3.050520 2.709064 -0.865094
-3.031524 2.703462 -0.860685
-3.015380 2.703815 -0.857946
-3.000727 2.707327 -0.856085
-2.984986 2.708313 -0.853521
-2.966963 2.703955 -0.849487
-2.948986 2.699422 -0.845416
-2.923651 2.677382 -0.836573
-2.910010 2.682335 -0.835122
-2.894501 2.682767 -0.832436
-2.878532 2.681927 -0.829407
-2.864174 2.684879 -0.827400
-2.849409 2.686733 -0.825094
-2.838747 2.698888 -0.825536
-2.818354 2.686184 -0.819336
-2.799639 2.677342 -0.814185
-2.783604 2.675178 -0.810815
-2.765552 2.667378 -0.805964
-2.755253 2.680304 -0.806563
-2.737180 2.671976 -0.801581
-2.715649 2.653544 -0.793982
-2.702450 2.658119 -0.792385
-2.691743 2.669876 -0.792630
-2.679997 2.678793 -0.792118
-2.654426 2.646640 -0.781056
-2.645307 2.663116 -0.782471
-2.624246 2.643244 -0.774604
-2.609990 2.643845 -0.771959
-2.595880 2.644777 -0.769391
-2.580978 2.643037 -0.766143
-2.566817 2.643522 -0.763450
-2.548254 2.629184 -0.757053
-2.538164 2.642982 -0.757666
-2.526112 2.650341 -0.756650
-2.511882 2.650161 -0.753755
-2.492068 2.629837 -0.745912
-2.477212 2.626710 -0.742302
-2.463209 2.626499 -0.739399
-2.448264 2.622578 -0.735588
-2.434426 2.622647 -0.732737
-2.418305 2.613605 -0.727689
-2.404635 2.613912 -0.724884
-2.391667 2.616976 -0.722723
-2.377829 2.616409 -0.719685
-2.362292 2.608447 -0.714891
-2.347751 2.604366 -0.711014
-2.334490 2.605684 -0.708396
-2.321553 2.608425 -0.706093
-2.307942 2.608040 -0.703047
-2.292136 2.597067 -0.697548
-2.277497 2.591160 -0.693222
-2.264367 2.592397 -0.690526
-2.251013 2.592445 -0.687544
-2.237206 2.590019 -0.683989
-2.222492 2.582470 -0.679272
-2.205580 2.562257 -0.671722
-2.194023 2.571290 -0.670721
-2.181007 2.572213 -0.667889
-2.166884 2.566425 -0.663560
-2.154350 2.570056 -0.661299
-2.140996 2.568570 -0.657900
-2.127784 2.567834 -0.654655
-2.113585 2.560231 -0.649917
-2.100144 2.557343 -0.646199
-2.086943 2.555900 -0.642787
-2.073051 2.549021 -0.638213
-2.060385 2.551105 -0.635544
-2.048019 2.555668 -0.633386
-2.035496 2.559122 -0.630980
-2.022324 2.556976 -0.627399
-2.007923 2.543137 -0.621401
-1.994428 2.536543 -0.616928
-1.982061 2.540479 -0.614628
-1.969708 2.544673 -0.612378
-1.956471 2.539123 -0.608155
-1.943542 2.536212 -0.604489
-1.931358 2.541826 -0.602549
-1.918858 2.543422 -0.599816
-1.905957 2.538956 -0.595903
-1.893072 2.533402 -0.591813
-1.880332 2.528519 -0.587896
-1.868038 2.529685 -0.585202
-1.855835 2.531608 -0.582690
-1.844001 2.540209 -0.581503
-1.833014 2.568523 -0.584117
-1.777081 2.779288 -0.610150
-1.740329 2.886831 -0.622300
-1.727539 2.870014 -0.616781
-1.715036 2.861708 -0.612940
-1.702756 2.853378 -0.609211
-1.690574 2.860453 -0.608384
-1.678542 2.863965 -0.607013
-1.667019 2.844562 -0.601634
-1.655329 2.849380 -0.600720
-1.643958 2.846520 -0.598541
-1.633126 2.831172 -0.594254
-1.621827 2.839909 -0.594363
-1.610873 2.841917 -0.593381
-1.597280 2.916553 -0.605321
-3.883292 1.267799 -0.679845
-3.868038 1.268802 -0.677074
-3.878513 1.286999 -0.681740
-3.890023 1.306257 -0.686834
-3.890018 1.318120 -0.688756
-3.886271 1.327696 -0.689720
-3.886396 1.340156 -0.691917
-3.874929 1.344855 -0.690872
-3.861759 1.348497 -0.689429
-3.858694 1.359366 -0.691034
-3.862175 1.375116 -0.694679
-3.864058 1.390029 -0.697982
-3.864777 1.404389 -0.701066
-3.860646 1.415479 -0.702828
-3.858561 1.428281 -0.705308
-3.858017 1.442458 -0.708362
-3.851878 1.452680 -0.709834
-3.847337 1.464273 -0.711882
-3.850268 1.481760 -0.716305
-3.848408 1.495828 -0.719367
-3.839028 1.504240 -0.720197
-3.821821 1.506582 -0.718654
-3.784473 1.508782 -0.714719
-3.778396 1.519964 -0.716752
-3.792633 1.632567 -0.746514
-3.777360 1.636813 -0.745874
-3.773593 1.651046 -0.749048
-3.759240 1.656027 -0.748703
-3.742027 1.658374 -0.747374
-3.651468 1.594468 -0.721113
-3.606929 1.571018 -0.710208
-3.602688 1.583974 -0.712997
-3.594314 1.593167 -0.714366
-3.602385 1.617774 -0.721458
-3.597762 1.630667 -0.724163
-3.588419 1.639117 -0.725209
-3.582466 1.650816 -0.727442
-3.589651 1.675360 -0.734372
-3.585258 1.688805 -0.737193
-3.584441 1.705875 -0.741315
-3.583668 1.723133 -0.745473
-3.578253 1.735836 -0.747947
-3.577104 1.752960 -0.751996
-3.577468 1.771789 -0.756627
-3.570091 1.782726 -0.758387
-3.571999 1.803459 -0.763634
-3.566740 1.816789 -0.766197
-3.558523 1.827015 -0.767630
-3.557833 1.845410 -0.771942
-3.556722 1.863513 -0.776113
-3.562130 1.888983 -0.782845
-3.562241 1.908854 -0.787556
-3.559733 1.925976 -0.791263
-3.556647 1.942589 -0.794758
-3.562669 1.969798 -0.801907
-3.556019 1.982661 -0.804023
-3.549554 1.995811 -0.806212
-3.547294 2.014002 -0.810113
-3.552956 2.041820 -0.817285
-3.549468 2.058976 -0.820747
-3.546578 2.077014 -0.824475
-3.541578 2.092633 -0.827344
-3.539278 2.111729 -0.831361
-3.522764 2.113215 -0.829386
-3.520947 2.133146 -0.833626
-3.523177 2.158463 -0.839635
-3.519696 2.176737 -0.843235
-3.518259 2.197860 -0.847749
-3.513924 2.215414 -0.851032
-3.509902 2.233558 -0.854478
-3.511777 2.259804 -0.860565
-3.513602 2.286332 -0.866691
-3.511819 2.308280 -0.871261
-3.502743 2.320410 -0.872574
-3.496273 2.336250 -0.875075
-3.492412 2.355919 -0.878791
-3.489357 2.376962 -0.882914
-3.487309 2.399709 -0.887546
-3.468120 2.397824 -0.884207
-3.434942 2.375176 -0.874216
-3.274692 2.260865 -0.824715
-3.273207 2.283834 -0.829382
-3.259796 2.314102 -0.833693
-3.210759 2.261200 -0.814633
-3.185864 2.246372 -0.807498
-3.170835 2.247329 -0.805279
-3.155658 2.247913 -0.802948
-3.137446 2.243250 -0.799008
-3.121107 2.241524 -0.795982
-3.109326 2.247454 -0.795299
-3.097503 2.253295 -0.794581
-3.098102 2.280967 -0.800467
-3.110688 2.330428 -0.812877
-3.113801 2.392136 -0.826249
-3.095493 2.387277 -0.822178
-3.088958 2.463193 -0.836805
-3.065709 2.448800 -0.829890
-3.140038 2.656648 -0.885398
-3.142465 2.694764 -0.893652
-3.123502 2.690459 -0.889509
-3.112289 2.701710 -0.889882
-3.094410 2.699287 -0.886292
-3.086946 2.718426 -0.888909
-3.069894 2.717565 -0.885762
-3.046181 2.702230 -0.878488
-3.025388 2.692683 -0.872895
-3.010638 2.696014 -0.870975
-2.997388 2.702601 -0.869971
-2.984548 2.710116 -0.869218
-2.969557 2.712747 -0.867082
-2.933323 2.666142 -0.851185
-2.926868 2.687934 -0.854428
-2.910662 2.686988 -0.851321
-2.894254 2.685365 -0.848031
-2.877895 2.683655 -0.844721
-2.861590 2.681870 -0.841395
-2.848355 2.687565 -0.840119
-2.833080 2.688073 -0.837419
-2.813284 2.676789 -0.831517
-2.796167 2.672022 -0.827399
-2.796578 2.713398 -0.835725
-2.760456 2.657619 -0.817885
-2.748210 2.665159 -0.817091
-2.735961 2.672754 -0.816295
-2.716393 2.659865 -0.810044
-2.698258 2.650513 -0.804753
-2.686989 2.660592 -0.804596
-2.670295 2.654883 -0.800274
-2.654245 2.650766 -0.796375
-2.642421 2.659178 -0.795744
-2.628121 2.660075 -0.793143
-2.610305 2.649849 -0.787661
-2.594295 2.644877 -0.783547
-2.580555 2.646937 -0.781241
-2.564544 2.641447 -0.776997
-2.549473 2.638768 -0.773473
-2.536650 2.643499 -0.771826
-2.525627 2.654485 -0.771740
-2.510195 2.650186 -0.767783
-2.494243 2.643718 -0.763285
-2.475188 2.625532 -0.755871
-2.460387 2.622366 -0.752214
-2.446277 2.621562 -0.749138
-2.432608 2.622305 -0.746436
-2.418499 2.621209 -0.743271
-2.403408 2.615988 -0.739092
-2.390968 2.621307 -0.737475
-2.375722 2.614969 -0.733015
-2.359564 2.604334 -0.727523
-2.346392 2.606174 -0.725032
-2.333256 2.608136 -0.722555
-2.319648 2.607913 -0.719542
-2.305571 2.605378 -0.715970
-2.289463 2.592903 -0.710050
-2.276146 2.593386 -0.707181
-2.262706 2.593166 -0.704134
-2.249469 2.593878 -0.701290
-2.235455 2.590426 -0.697469
-2.221421 2.586591 -0.693554
-2.207072 2.580695 -0.689162
-2.192928 2.575551 -0.684940
-2.179460 2.573987 -0.681529
-2.166086 2.572814 -0.678195
-2.153497 2.576361 -0.675910
-2.139786 2.572840 -0.672027
-2.125041 2.562142 -0.666545
-2.111207 2.556879 -0.662277
-2.097780 2.554042 -0.658543
-2.084101 2.549060 -0.654336
-2.071915 2.554940 -0.652494
-2.058624 2.552438 -0.648817
-2.045455 2.550624 -0.645287
-2.032906 2.553800 -0.642824
-2.019506 2.549536 -0.638766
-2.005605 2.540070 -0.633614
-1.992419 2.536483 -0.629722
-1.980255 2.542716 -0.627896
-1.967809 2.546295 -0.625508
-1.954115 2.535911 -0.620228
-1.941464 2.536406 -0.617222
-1.929461 2.544718 -0.615829
-1.916909 2.546223 -0.613047
-1.904011 2.542410 -0.609206
-1.891031 2.536096 -0.604894
-1.878188 2.530270 -0.600722
-1.865695 2.528751 -0.597453
-1.853719 2.535860 -0.595933
-1.841508 2.537941 -0.593449
-1.750616 2.940987 -0.648536
-1.737024 2.881342 -0.634648
-1.724193 2.861105 -0.628342
-1.711655 2.858957 -0.625542
-1.699261 2.861707 -0.623758
-1.686992 2.865620 -0.622290
-1.674673 2.882921 -0.623391
-1.663084 2.860055 -0.617199
-1.651510 2.852918 -0.614025
-1.640117 2.847585 -0.611299
-1.628665 2.851698 -0.610408
-1.617811 2.841974 -0.607112
-1.606146 2.861370 -0.609204
-1.596189 2.838934 -0.603833
-3.860181 1.249604 -0.683820
-3.876328 1.271237 -0.690154
-3.888155 1.290427 -0.695372
-3.888568 1.302367 -0.697399
-3.889602 1.314993 -0.699729
-3.889441 1.327084 -0.701831
-3.890106 1.340006 -0.704298
-3.882046 1.347174 -0.704313
-3.882277 1.360296 -0.706893
-3.875683 1.368889 -0.707565
-3.867029 1.376209 -0.707729
-3.858301 1.383631 -0.707970
-3.855347 1.395379 -0.710052
-3.858093 1.411504 -0.713974
-3.862306 1.429004 -0.718469
-3.860274 1.442178 -0.721178
-3.856066 1.453945 -0.723323
-3.847784 1.462815 -0.724301
-3.846282 1.476987 -0.727466
-3.843888 1.490686 -0.730448
-3.837553 1.501511 -0.732277
-3.824980 1.507561 -0.732199
-3.757216 1.567212 -0.739155
-3.782136 1.605263 -0.751764
-3.786773 1.626502 -0.757739
-3.770378 1.629769 -0.756694
-3.768714 1.645818 -0.760623
-3.770493 1.665049 -0.765764
-3.736150 1.652248 -0.758539
-3.626719 1.571350 -0.725219
-3.606354 1.569720 -0.722457
-3.594569 1.575762 -0.722642
-3.601705 1.599298 -0.729480
-3.597503 1.612491 -0.732353
-3.594910 1.627280 -0.735811
-3.592693 1.642531 -0.739419
-3.588397 1.655889 -0.742290
-3.590409 1.675463 -0.747466
-3.586487 1.689395 -0.750501
-3.585221 1.706046 -0.754522
-3.588020 1.726910 -0.760074
-3.580588 1.737629 -0.761835
-3.577661 1.752973 -0.765282
-3.576482 1.770229 -0.769402
-3.577215 1.789625 -0.774271
-3.571678 1.802609 -0.776762
-3.567484 1.817084 -0.779769
-3.562439 1.830737 -0.782451
-3.557722 1.844824 -0.785263
-3.560844 1.867571 -0.791168
-3.560423 1.886662 -0.795712
-3.563439 1.909770 -0.801655
-3.561425 1.927478 -0.805622
-3.559247 1.945159 -0.809543
-3.556377 1.962207 -0.813204
-3.560233 1.987196 -0.819636
-3.550210 1.996248 -0.820401
-3.549129 2.015860 -0.824858
-3.552280 2.040722 -0.831112
-3.546658 2.055320 -0.833733
-3.538510 2.066951 -0.835292
-3.538908 2.089129 -0.840486
-3.535944 2.107392 -0.844281
-3.539830 2.134417 -0.851057
-3.532083 2.147082 -0.852845
-3.524186 2.159627 -0.854570
-3.523884 2.182042 -0.859636
-3.521122 2.201520 -0.863658
-3.518920 2.221947 -0.867963
-3.528913 2.258810 -0.877777
-3.498129 2.241511 -0.869282
-3.509884 2.281350 -0.880000
-3.505147 2.299236 -0.883294
-3.505002 2.323659 -0.888732
-3.498378 2.339352 -0.891220
-3.491756 2.355193 -0.893728
-3.493963 2.383764 -0.900407
-3.484985 2.396643 -0.901867
-3.467911 2.397838 -0.899473
-3.359411 2.289415 -0.858608
-3.262314 2.267390 -0.838342
-3.283169 2.325851 -0.854397
-3.192362 2.257719 -0.824904
-3.176919 2.258156 -0.822470
-3.159490 2.255141 -0.818956
-3.142825 2.253199 -0.815790
-3.130473 2.258408 -0.814861
-3.099336 2.257526 -0.809489
-3.094026 2.274899 -0.812308
-3.098900 2.338250 -0.826615
-3.119351 2.403554 -0.843946
-3.096540 2.390578 -0.837323
-3.091250 2.499656 -0.859471
-3.149874 2.677966 -0.907127
-3.144497 2.700836 -0.910997
-3.128999 2.703647 -0.908888
-3.107803 2.694710 -0.903312
-3.100567 2.714264 -0.906134
-3.084014 2.714621 -0.903297
-3.065879 2.711463 -0.899439
-3.049519 2.711866 -0.896626
-3.026393 2.697413 -0.889511
-3.007962 2.692755 -0.885258
-2.996322 2.702944 -0.885291
-2.981236 2.705450 -0.883104
-2.960230 2.694324 -0.877019
-2.939001 2.682223 -0.870682
-2.923078 2.682087 -0.867767
-2.910491 2.689712 -0.867049
-2.896069 2.692957 -0.865084
-2.877285 2.685475 -0.860103
-2.860210 2.681855 -0.856219
-2.845115 2.682940 -0.853655
-2.829710 2.683101 -0.850833
-2.812505 2.678461 -0.846683
-2.791737 2.664208 -0.839894
-2.774140 2.657802 -0.835288
-2.765382 2.674835 -0.837109
-2.749470 2.672671 -0.833661
-2.734656 2.673328 -0.830982
-2.717987 2.668626 -0.826851
-2.704464 2.672606 -0.825069
-2.680431 2.646087 -0.815085
-2.664977 2.643839 -0.811647
-2.653395 2.652945 -0.811236
-2.642391 2.663938 -0.811305
-2.627011 2.661628 -0.807829
-2.609366 2.651984 -0.802422
-2.592345 2.643862 -0.797429
-2.576499 2.639127 -0.793333
-2.560056 2.632113 -0.788650
-2.545749 2.631874 -0.785731
-2.533439 2.638287 -0.784526
-2.522101 2.648154 -0.784190
-2.507125 2.645380 -0.780587
-2.489426 2.632570 -0.774421
-2.474058 2.627682 -0.770288
-2.459906 2.627012 -0.767224
-2.445253 2.624273 -0.763632
-2.430953 2.622662 -0.760320
-2.415859 2.617715 -0.756167
-2.403645 2.624051 -0.754824
-2.388140 2.616978 -0.750134
-2.371050 2.602825 -0.743700
-2.357157 2.601659 -0.740477
-2.344636 2.606335 -0.738676
-2.330593 2.604282 -0.735212
-2.316016 2.599573 -0.731098
-2.302435 2.599201 -0.728028
-2.288901 2.598927 -0.724971
-2.275093 2.597183 -0.721548
-2.261890 2.598292 -0.718797
-2.248455 2.598153 -0.715734
-2.234600 2.595690 -0.712109
-2.220027 2.589093 -0.707505
-2.205896 2.584507 -0.703372
-2.192530 2.583956 -0.700175
-2.178070 2.576827 -0.695442
-2.164799 2.576408 -0.692258
-2.152036 2.579045 -0.689762
-2.137967 2.573343 -0.685346
-2.123668 2.565645 -0.680476
-2.109254 2.556556 -0.675299
-2.095461 2.551166 -0.670961
-2.082408 2.550742 -0.667736
-2.069417 2.550663 -0.664578
-2.056390 2.550181 -0.661323
-2.043753 2.552755 -0.658733
-2.030762 2.552380 -0.655485
-2.017282 2.547457 -0.651244
-2.003790 2.541805 -0.646853
-1.990879 2.541139 -0.643548
-1.978627 2.546951 -0.641632
-1.966117 2.550318 -0.639185
-1.953242 2.549623 -0.635876
-1.940145 2.545854 -0.631929
-1.927152 2.542546 -0.628099
-1.914553 2.543696 -0.625221
-1.901897 2.543613 -0.622102
-1.889124 2.541028 -0.618491
-1.876100 2.533071 -0.613811
-1.863836 2.536604 -0.611520
-1.851372 2.535700 -0.608356
-1.839142 2.538331 -0.605947
-1.835324 2.743168 -0.644109
-1.825070 2.821805 -0.656722
-1.746895 2.894037 -0.653211
-1.733685 2.865806 -0.645076
-1.720860 2.840681 -0.637680
-1.708292 2.857025 -0.638342
-1.695802 2.863871 -0.637272
-1.683538 2.859085 -0.634092
-1.671571 2.847725 -0.629785
-1.659211 2.871160 -0.632142
-1.647602 2.860726 -0.628233
-1.635875 2.864381 -0.627077
-1.622912 2.913789 -0.634546
-1.612923 2.870047 -0.624781
-1.601889 2.867437 -0.622786
-1.591657 2.850221 -0.618205
-3.836550 1.231165 -0.687474
-3.875985 1.268008 -0.700831
-3.886638 1.286468 -0.705861
-3.882458 1.295403 -0.706629
-3.887925 1.311049 -0.710381
-3.890836 1.325287 -0.713503
-3.893750 1.339830 -0.716757
-3.887763 1.348535 -0.717465
-3.882032 1.357619 -0.718362
-3.878476 1.368430 -0.720029
-3.871487 1.377034 -0.720766
-3.858024 1.381188 -0.719626
-3.855042 1.392995 -0.721792
-3.850837 1.404131 -0.723691
-3.860353 1.425552 -0.729953
-3.860753 1.440594 -0.733515
-3.852960 1.449758 -0.734619
-3.847005 1.460445 -0.736384
-3.844957 1.474267 -0.739470
-3.839102 1.485358 -0.741435
-3.833089 1.496468 -0.743422
-3.831426 1.511124 -0.746880
-3.814950 1.514223 -0.745609
-3.768883 1.509670 -0.738800
-3.787738 1.626283 -0.771243
-3.777136 1.634617 -0.772167
-3.773453 1.648991 -0.775482
-3.756308 1.651580 -0.774139
-3.721048 1.637880 -0.766414
-3.629384 1.572925 -0.738683
-3.605378 1.568038 -0.734571
-3.595237 1.575608 -0.735333
-3.595932 1.593194 -0.739974
-3.598026 1.612250 -0.745152
-3.595383 1.627015 -0.748644
-3.589701 1.638981 -0.751036
-3.592005 1.658692 -0.756375
-3.587509 1.671980 -0.759225
-3.590468 1.692666 -0.764866
-3.597802 1.717909 -0.772192
-3.591364 1.729647 -0.774365
-3.584655 1.741148 -0.776427
-3.577069 1.751785 -0.778146
-3.574130 1.767233 -0.781647
-3.572255 1.783901 -0.785572
-3.570385 1.800709 -0.789516
-3.567831 1.816928 -0.793208
-3.566422 1.834502 -0.797368
-3.568243 1.855727 -0.802837
-3.567580 1.874460 -0.807346
-3.568418 1.895027 -0.812487
-3.564065 1.910021 -0.815553
-3.560209 1.925680 -0.818830
-3.561767 1.947611 -0.824349
-3.558859 1.964659 -0.828057
-3.549764 1.974687 -0.829203
-3.550493 1.996222 -0.834460
-3.550309 2.016917 -0.839371
-3.551380 2.039332 -0.844851
-3.548045 2.056697 -0.848490
-3.542865 2.071977 -0.851355
-3.536494 2.085915 -0.853715
-3.534089 2.104866 -0.857813
-3.540836 2.135477 -0.865961
-3.534652 2.150156 -0.868474
-3.526968 2.163034 -0.870331
-3.523120 2.180938 -0.873908
-3.527213 2.209364 -0.881093
-3.524142 2.228756 -0.885101
-3.507608 2.230473 -0.882990
-3.510047 2.257507 -0.889559
-3.507762 2.278509 -0.894012
-3.497379 2.288671 -0.894731
-3.496663 2.312233 -0.899980
-3.497692 2.338536 -0.906109
-3.493573 2.357937 -0.909858
-3.498942 2.391080 -0.918187
-3.478324 2.387313 -0.914085
-3.454873 2.379174 -0.908538
-3.447032 2.393634 -0.910533
-3.419187 2.378524 -0.902697
-3.224366 2.310676 -0.855857
-3.192204 2.284154 -0.844678
-3.169491 2.272651 -0.838362
-3.153414 2.271927 -0.835509
-3.138675 2.273315 -0.833334
-3.107500 2.272777 -0.827947
-3.089823 2.268596 -0.824034
-3.093115 2.301501 -0.831747
-3.112671 2.364275 -0.848715
-3.120925 2.407743 -0.859551
-3.113676 2.423503 -0.861714
-3.151792 2.683690 -0.924388
-3.143579 2.701030 -0.926661
-3.125541 2.698760 -0.922992
-3.111465 2.704370 -0.921700
-3.095242 2.705501 -0.919062
-3.079106 2.706674 -0.916438
-3.064075 2.710050 -0.914472
-3.046294 2.707436 -0.910730
-3.026913 2.701106 -0.905900
-3.009493 2.698769 -0.902262
-2.995424 2.703674 -0.900756
-2.977185 2.699121 -0.896482
-2.955085 2.685447 -0.889565
-2.938826 2.684788 -0.886455
-2.923989 2.687284 -0.884262
-2.909232 2.689873 -0.882093
-2.897754 2.700273 -0.882163
-2.885213 2.708191 -0.881504
-2.861600 2.688725 -0.873029
-2.843398 2.682151 -0.868256
-2.826421 2.678345 -0.864281
-2.810995 2.678277 -0.861368
-2.795775 2.678581 -0.858561
-2.772715 2.657904 -0.849883
-2.760221 2.664943 -0.848975
-2.749497 2.676868 -0.849409
-2.734018 2.675787 -0.846219
-2.719996 2.678621 -0.844110
-2.701381 2.668243 -0.838365
-2.678504 2.645016 -0.829122
-2.662768 2.641964 -0.825427
-2.650807 2.649964 -0.824737
-2.639899 2.661268 -0.824922
-2.624699 2.659510 -0.821560
-2.606626 2.648517 -0.815718
-2.588972 2.638346 -0.810115
-2.572973 2.633059 -0.805829
-2.556667 2.626422 -0.801192
-2.543314 2.629332 -0.799087
-2.531167 2.636314 -0.798044
-2.517565 2.638337 -0.795679
-2.501595 2.631902 -0.791094
-2.485809 2.625757 -0.786590
-2.471517 2.624725 -0.783417
-2.458768 2.629286 -0.781683
-2.443969 2.626069 -0.777932
-2.428177 2.618734 -0.773124
-2.414088 2.617720 -0.769934
-2.401615 2.623067 -0.768352
-2.387459 2.621558 -0.765016
-2.370542 2.608231 -0.758697
-2.356125 2.604964 -0.754918
-2.342347 2.604240 -0.751770
-2.328238 2.601879 -0.748205
-2.314020 2.598792 -0.744454
-2.300897 2.600592 -0.741902
-2.288705 2.606848 -0.740427
-2.273821 2.600029 -0.735732
-2.259738 2.596807 -0.731914
-2.247190 2.601269 -0.729949
-2.233365 2.599074 -0.726358
-2.217251 2.584189 -0.719715
-2.204360 2.586437 -0.717181
-2.190783 2.584773 -0.713699
-2.177098 2.582277 -0.710011
-2.163118 2.577752 -0.705838
-2.149793 2.576970 -0.702537
-2.135729 2.571262 -0.698079
-2.122446 2.570316 -0.694724
-2.108333 2.563492 -0.690003
-2.093949 2.554161 -0.684711
-2.082013 2.562196 -0.683395
-2.067770 2.553018 -0.678139
-2.054363 2.549691 -0.674218
-2.041620 2.551495 -0.671450
-2.028829 2.552909 -0.668583
-2.015402 2.548592 -0.664432
-2.001985 2.543818 -0.660187
-1.989122 2.543875 -0.657013
-1.976745 2.548775 -0.654899
-1.964163 2.551707 -0.652346
-1.951179 2.550088 -0.648806
-1.937962 2.545139 -0.644559
-1.924839 2.540420 -0.640383
-1.911798 2.535760 -0.636243
-1.899465 2.540302 -0.634080
-1.886322 2.532133 -0.629249
-1.873991 2.535702 -0.626920
-1.861377 2.533747 -0.623459
-1.849172 2.538546 -0.621435
-1.836993 2.543585 -0.619487
-1.823695 2.859756 -0.678129
-1.810982 2.889425 -0.680961
-1.783062 2.860094 -0.668822
-1.768867 2.812482 -0.656318
-1.730371 2.846165 -0.654618
-1.717591 2.829242 -0.648663
-1.704967 2.849809 -0.650157
-1.692387 2.861744 -0.650036
-1.680164 2.848481 -0.645117
-1.667894 2.855048 -0.644150
-1.655781 2.859449 -0.642864
-1.643858 2.861575 -0.641244
-1.632216 2.859193 -0.638871
-1.620532 2.864379 -0.638052
-1.608964 2.870185 -0.637455
-1.598305 2.856251 -0.633226
-1.585611 2.896647 -0.639379
-3.847250 1.235136 -0.701212
-3.876080 1.265093 -0.711693
-3.876343 1.276741 -0.713753
-3.874643 1.287347 -0.715340
-3.878606 1.302002 -0.718761
-3.886355 1.319533 -0.723463
-3.891455 1.335615 -0.727500
-3.877115 1.338634 -0.725724
-3.874717 1.350053 -0.727710
-3.872310 1.361707 -0.729812
-3.871549 1.374764 -0.732543
-3.869305 1.387020 -0.734933
-3.859967 1.394401 -0.735218
-3.854713 1.404888 -0.736878
-3.860924 1.423975 -0.742263
-3.858382 1.436915 -0.744999
-3.849703 1.445479 -0.745877
-3.842613 1.455361 -0.747341
-3.841512 1.469942 -0.750817
-3.838428 1.483212 -0.753742
-3.836375 1.497460 -0.757085
-3.832183 1.510219 -0.759807
-3.815387 1.513138 -0.758427
-3.790759 1.509738 -0.754454
-3.770386 1.525930 -0.756152
-3.797528 1.633613 -0.787850
-3.781670 1.637520 -0.786970
-3.768759 1.643899 -0.787100
-3.742151 1.638131 -0.782359
-3.733564 1.648126 -0.783964
-3.707831 1.642695 -0.779410
-3.606980 1.568681 -0.747620
-3.597706 1.577085 -0.748703
-3.594298 1.590909 -0.751920
-3.598222 1.611681 -0.757852
-3.594076 1.625046 -0.760837
-3.589911 1.638466 -0.763822
-3.587380 1.653534 -0.767427
-3.589573 1.673305 -0.772834
-3.588439 1.690001 -0.777010
-3.594468 1.713942 -0.783951
-3.592969 1.730614 -0.788044
-3.583679 1.739535 -0.789132
-3.577507 1.751624 -0.791417
-3.569998 1.762377 -0.793171
-3.568738 1.779659 -0.797386
-3.569447 1.799158 -0.802407
-3.572474 1.821309 -0.808387
-3.566311 1.833847 -0.810703
-3.567804 1.854729 -0.816125
-3.572284 1.879096 -0.822805
-3.567657 1.893697 -0.825793
-3.562860 1.908204 -0.828717
-3.558494 1.923293 -0.831827
-3.556782 1.941507 -0.836060
-3.556623 1.961673 -0.840973
-3.552340 1.977271 -0.844169
-3.543763 1.987968 -0.845542
-3.546349 2.011877 -0.851707
-3.550695 2.038173 -0.858687
-3.549248 2.057825 -0.863207
-3.543689 2.072681 -0.865956
-3.537997 2.087487 -0.868656
-3.533466 2.103845 -0.871884
-3.535362 2.128396 -0.878004
-3.534034 2.149177 -0.882731
-3.526377 2.162108 -0.884630
-3.525253 2.183546 -0.889512
-3.527268 2.209323 -0.895880
-3.526211 2.231395 -0.900891
-3.521936 2.249458 -0.904454
-3.523458 2.275485 -0.910760
-3.505533 2.275501 -0.907964
-3.494242 2.284426 -0.908262
-3.492177 2.306115 -0.912957
-3.491259 2.329674 -0.918252
-3.511855 2.383895 -0.934024
-3.497864 2.389748 -0.933131
-3.440799 2.358983 -0.916892
-3.402531 2.354159 -0.909575
-3.329771 2.270968 -0.878757
-3.327392 2.292565 -0.883270
-3.213031 2.216235 -0.847069
-3.195067 2.237970 -0.848946
-3.155633 2.276554 -0.850902
-3.146360 2.287348 -0.851724
-3.125105 2.277587 -0.845911
-3.109349 2.277039 -0.843081
-3.101948 2.291041 -0.844913
-3.119202 2.377280 -0.867001
-3.147542 2.644130 -0.930727
-3.143807 2.669868 -0.935702
-3.133600 2.683120 -0.936783
-3.122161 2.694030 -0.937123
-3.107705 2.698858 -0.935585
-3.090507 2.697954 -0.932296
-3.074584 2.699532 -0.929768
-3.060581 2.705058 -0.928438
-3.044374 2.705812 -0.925662
-3.021183 2.691215 -0.918275
-3.004062 2.689456 -0.914769
-2.992908 2.700808 -0.915185
-2.978346 2.704579 -0.913327
-2.957583 2.694074 -0.907234
-2.939772 2.689976 -0.903058
-2.923233 2.688593 -0.899695
-2.906579 2.686731 -0.896197
-2.894435 2.695543 -0.895826
-2.885098 2.711296 -0.897461
-2.861762 2.692588 -0.889065
-2.843002 2.684704 -0.883841
-2.825088 2.678590 -0.879145
-2.809338 2.677736 -0.875973
-2.792022 2.672585 -0.871576
-2.774447 2.666434 -0.866905
-2.757854 2.662591 -0.862903
-2.744783 2.668120 -0.861561
-2.731381 2.672732 -0.859950
-2.716106 2.672035 -0.856837
-2.699827 2.668282 -0.852870
-2.681097 2.657122 -0.846844
-2.662709 2.646469 -0.840981
-2.650842 2.654883 -0.840415
-2.638418 2.661709 -0.839391
-2.622850 2.658864 -0.835695
-2.604675 2.647565 -0.829687
-2.587471 2.638846 -0.824404
-2.571040 2.632192 -0.819695
-2.556425 2.631169 -0.816519
-2.542706 2.632977 -0.814104
-2.528491 2.633003 -0.811201
-2.513834 2.631339 -0.807841
-2.498658 2.627626 -0.803933
-2.483374 2.623245 -0.799849
-2.469346 2.623177 -0.796906
-2.455766 2.624647 -0.794362
-2.440918 2.621189 -0.790515
-2.425182 2.614000 -0.785693
-2.412028 2.616646 -0.783435
-2.399906 2.623449 -0.782239
-2.385582 2.621292 -0.778708
-2.370917 2.617478 -0.774747
-2.353567 2.601784 -0.767746
-2.339284 2.598805 -0.764006
-2.326098 2.600516 -0.761450
-2.312670 2.601068 -0.758587
-2.300154 2.605832 -0.756769
-2.287512 2.610103 -0.754806
-2.272309 2.601802 -0.749688
-2.257447 2.594714 -0.744877
-2.244572 2.597479 -0.742502
-2.230821 2.595617 -0.738970
-2.216545 2.590686 -0.734678
-2.201242 2.579610 -0.728888
-2.188216 2.580985 -0.726127
-2.174756 2.579756 -0.722721
-2.161126 2.577326 -0.719017
-2.147666 2.575736 -0.715504
-2.134444 2.575504 -0.712306
-2.121201 2.575028 -0.709038
-2.108546 2.578510 -0.706690
-2.094764 2.574055 -0.702462
-2.080671 2.566871 -0.697596
-2.066170 2.555913 -0.691862
-2.052459 2.550341 -0.687386
-2.039322 2.548995 -0.683884
-2.026015 2.545958 -0.679992
-2.012906 2.544316 -0.676417
-1.999619 2.540695 -0.672394
-1.987339 2.546561 -0.670510
-1.974676 2.548834 -0.667806
-1.961842 2.549255 -0.664685
-1.948482 2.543386 -0.660174
-1.935152 2.536900 -0.655547
-1.922123 2.533158 -0.651544
-1.909708 2.537018 -0.649217
-1.896426 2.528059 -0.644118
-1.884099 2.532346 -0.641912
-1.871420 2.530560 -0.638417
-1.859171 2.535613 -0.636409
-1.846842 2.538912 -0.634048
-1.835248 2.558250 -0.635094
-1.832425 2.802100 -0.683219
-1.779415 2.827187 -0.675772
-1.765944 2.814445 -0.670151
-1.752873 2.815452 -0.667427
-1.727168 2.841942 -0.667149
-1.714347 2.848549 -0.665774
-1.701631 2.851219 -0.663694
-1.689031 2.855048 -0.661937
-1.676570 2.857702 -0.660043
-1.664296 2.857634 -0.657711
-1.652254 2.854428 -0.654868
-1.640391 2.851869 -0.652265
-1.628667 2.851251 -0.650153
-1.617084 2.851843 -0.648388
-1.605867 2.847223 -0.645721
-1.594725 2.846068 -0.643840
-1.585221 2.812033 -0.635725
-3.862899 1.242312 -0.716616
-3.875616 1.261838 -0.722442
-3.873940 1.272270 -0.724010
-3.865539 1.278480 -0.723632
-3.873347 1.295726 -0.728350
-3.878674 1.311653 -0.732443
-3.854504 1.307799 -0.727524
-3.864520 1.327443 -0.733319
-3.879318 1.350797 -0.740761
-3.872164 1.359235 -0.741473
-3.874425 1.374504 -0.745261
-3.873537 1.387824 -0.748181
-3.866500 1.396973 -0.749260
-3.859460 1.406287 -0.750437
-3.856755 1.418939 -0.753101
-3.854454 1.432103 -0.755999
-3.848359 1.442647 -0.757764
-3.838671 1.450634 -0.758438
-3.833218 1.461940 -0.760569
-3.837981 1.481247 -0.766155
-3.836090 1.495681 -0.769637
-3.830060 1.507057 -0.771814
-3.827121 1.640136 -0.806848
-3.805786 1.639606 -0.804062
-3.784773 1.639163 -0.801342
-3.767787 1.642045 -0.800012
-3.760264 1.653146 -0.802062
-3.734812 1.648301 -0.797601
-3.659937 1.598704 -0.774986
-3.608433 1.569167 -0.760650
-3.598024 1.576566 -0.761323
-3.598233 1.593763 -0.765935
-3.595417 1.608281 -0.769441
-3.592291 1.622602 -0.772844
-3.591365 1.639113 -0.777096
-3.591088 1.656383 -0.781618
-3.589613 1.672634 -0.785704
-3.586786 1.687682 -0.789284
-3.592017 1.710826 -0.796020
-3.578401 1.715352 -0.795409
-3.584605 1.739819 -0.802586
-3.580310 1.753850 -0.805647
-3.573917 1.765798 -0.807872
-3.572205 1.782663 -0.811978
-3.572635 1.801918 -0.816970
-3.571544 1.819742 -0.821372
-3.562102 1.828772 -0.822368
-3.561283 1.847123 -0.826908
-3.567163 1.872965 -0.834261
-3.565443 1.890736 -0.838494
-3.562082 1.906838 -0.842059
-3.558785 1.923138 -0.845666
-3.556326 1.940523 -0.849646
-3.552534 1.956536 -0.853076
-3.550059 1.974202 -0.857091
-3.541352 1.984741 -0.858418
-3.546731 2.011941 -0.865903
-3.545848 2.032025 -0.870697
-3.544504 2.051767 -0.875324
-3.539996 2.067869 -0.878573
-3.534549 2.082955 -0.881416
-3.530412 2.099785 -0.884866
-3.534094 2.126561 -0.891898
-3.530465 2.144442 -0.895649
-3.526357 2.161889 -0.899206
-3.522917 2.180368 -0.903100
-3.527352 2.209296 -0.910705
-3.523765 2.228073 -0.914618
-3.516198 2.241761 -0.916679
-3.510076 2.257488 -0.919438
-3.507044 2.277545 -0.923701
-3.500832 2.293478 -0.926467
-3.494795 2.309802 -0.929341
-3.484161 2.319863 -0.929988
-3.504269 2.373336 -0.945784
-3.500012 2.392996 -0.949690
-3.470626 2.376696 -0.941078
-3.336183 2.306315 -0.902484
-3.273293 2.260780 -0.881430
-3.226104 2.237484 -0.868099
-3.203874 2.227411 -0.862013
-3.185807 2.223691 -0.858080
-3.185048 2.247995 -0.863503
-3.180326 2.266135 -0.866831
-3.146189 2.261512 -0.859890
-3.117295 2.265112 -0.855691
-3.117162 2.652273 -0.942686
-3.112737 2.677065 -0.947412
-3.106309 2.698188 -0.950950
-3.084663 2.688104 -0.944766
-3.067807 2.687654 -0.941589
-3.059116 2.704376 -0.943710
-3.044948 2.709561 -0.942258
-3.020358 2.692001 -0.933842
-3.001344 2.686127 -0.929031
-2.985877 2.687860 -0.926550
-2.975494 2.700977 -0.927518
-2.961770 2.706604 -0.926202
-2.945462 2.706209 -0.923068
-2.920057 2.684224 -0.913470
-2.904508 2.684989 -0.910715
-2.890359 2.688992 -0.908925
-2.874913 2.689759 -0.906172
-2.856250 2.682389 -0.901015
-2.841475 2.684439 -0.898651
-2.828329 2.690538 -0.897472
-2.808562 2.679500 -0.891274
-2.790707 2.673004 -0.886423
-2.773664 2.668316 -0.882112
-2.758661 2.668843 -0.879321
-2.740959 2.661819 -0.874353
-2.726877 2.664499 -0.872187
-2.712294 2.665683 -0.869587
-2.697118 2.665040 -0.866464
-2.682365 2.665446 -0.863640
-2.666517 2.662466 -0.859856
-2.649721 2.656382 -0.855202
-2.634159 2.653714 -0.851518
-2.621531 2.659904 -0.850316
-2.607182 2.660712 -0.847598
-2.589557 2.650888 -0.841924
-2.571768 2.640046 -0.835985
-2.555798 2.634711 -0.831582
-2.540243 2.630438 -0.827479
-2.523645 2.622285 -0.822318
-2.512954 2.634322 -0.822670
-2.497106 2.628312 -0.818093
-2.483286 2.629279 -0.815410
-2.469206 2.629175 -0.812429
-2.454206 2.625471 -0.808476
-2.437273 2.614075 -0.802470
-2.423005 2.612503 -0.799094
-2.409134 2.612315 -0.796079
-2.396055 2.615200 -0.793867
-2.382208 2.614891 -0.790801
-2.367171 2.609393 -0.786368
-2.351722 2.601749 -0.781378
-2.337298 2.598182 -0.777452
-2.324430 2.601363 -0.775267
-2.310996 2.601954 -0.772398
-2.298095 2.604974 -0.770139
-2.284419 2.604271 -0.766911
-2.270616 2.602793 -0.763476
-2.256093 2.597466 -0.759059
-2.242333 2.595744 -0.755548
-2.228995 2.596088 -0.752546
-2.214569 2.590371 -0.748017
-2.199618 2.581276 -0.742650
-2.184331 2.569626 -0.736658
-2.171459 2.571631 -0.734040
-2.159004 2.576231 -0.732039
-2.146026 2.577705 -0.729253
-2.131771 2.570836 -0.724425
-2.119279 2.575345 -0.722348
-2.105880 2.573735 -0.718777
-2.092366 2.571090 -0.714951
-2.078084 2.562430 -0.709687
-2.064282 2.556756 -0.705139
-2.050813 2.553229 -0.701100
-2.037004 2.546461 -0.696301
-2.023223 2.539261 -0.691408
-2.009843 2.534969 -0.687200
-1.999141 2.555717 -0.688776
-1.985298 2.546884 -0.683506
-1.972465 2.547589 -0.680433
-1.959515 2.546876 -0.677035
-1.945638 2.535018 -0.671122
-1.932534 2.531038 -0.667012
-1.919968 2.533285 -0.664311
-1.907074 2.530842 -0.660571
-1.894913 2.538553 -0.659097
-1.881868 2.532603 -0.654614
-1.869468 2.536223 -0.652259
-1.856757 2.533722 -0.648588
-1.844422 2.537534 -0.646317
-1.834120 2.587867 -0.654094
-1.817119 2.829534 -0.699491
-1.802329 2.789609 -0.687757
-1.776215 2.812870 -0.686373
-1.762682 2.795103 -0.679599
-1.749822 2.812384 -0.680222
-1.737022 2.842750 -0.683595
-1.724040 2.858102 -0.683899
-1.711067 2.869490 -0.683450
-1.698199 2.870344 -0.680920
-1.685560 2.862520 -0.676722
-1.673089 2.858421 -0.673391
-1.660850 2.852209 -0.669743
-1.648894 2.843039 -0.665616
-1.636881 2.845285 -0.663895
-1.624886 2.852117 -0.663194
-1.613019 2.858800 -0.662565
-1.602196 2.841363 -0.657255
-1.591546 2.827299 -0.652743
-1.579167 2.857687 -0.657121
-3.900859 1.263912 -0.739126
-3.878622 1.260873 -0.734318
-3.869237 1.266318 -0.733584
-3.866706 1.276474 -0.735090
-3.868531 1.289784 -0.738079
-3.869069 1.302516 -0.740793
-3.869737 1.315615 -0.743676
-3.862253 1.323396 -0.744105
-3.869752 1.341737 -0.749407
-3.867181 1.353403 -0.751639
-3.866197 1.366423 -0.754496
-3.869916 1.383046 -0.758992
-3.866223 1.394657 -0.761217
-3.858914 1.403854 -0.762371
-3.856301 1.416644 -0.765154
-3.855625 1.431079 -0.768677
-3.852481 1.443907 -0.771489
-3.842517 1.451790 -0.772122
-3.838768 1.464488 -0.774898
-3.840870 1.481850 -0.779725
-3.835923 1.493995 -0.782262
-3.825148 1.501714 -0.782879
-3.812409 1.507920 -0.782860
-3.796310 1.511443 -0.781703
-3.821881 1.634551 -0.818389
-3.806659 1.639252 -0.817739
-3.778636 1.632799 -0.812421
-3.768879 1.641975 -0.813685
-3.763826 1.655292 -0.816671
-3.750353 1.661182 -0.816559
-3.648167 1.587218 -0.783394
-3.603219 1.563574 -0.771217
-3.603537 1.580788 -0.775921
-3.599396 1.594024 -0.778965
-3.591195 1.603533 -0.780465
-3.589250 1.618948 -0.784358
-3.591725 1.638692 -0.789980
-3.594554 1.658970 -0.795778
-3.590839 1.673090 -0.799052
-3.586648 1.686826 -0.802147
-3.579493 1.697699 -0.804069
-3.585864 1.722135 -0.811387
-3.586476 1.741032 -0.816447
-3.582643 1.755568 -0.819739
-3.580638 1.772080 -0.823784
-3.574449 1.784365 -0.826130
-3.571511 1.800116 -0.829813
-3.569371 1.816830 -0.833842
-3.564903 1.831186 -0.836916
-3.556750 1.841645 -0.838447
-3.565208 1.870269 -0.846997
-3.563805 1.888385 -0.851424
-3.562029 1.906252 -0.855716
-3.564536 1.929099 -0.861881
-3.562015 1.946495 -0.865912
-3.555474 1.959435 -0.868208
-3.547378 1.970645 -0.869821
-3.550260 1.994727 -0.876287
-3.544469 2.008859 -0.878945
-3.543310 2.028608 -0.883688
-3.542975 2.049558 -0.888839
-3.541798 2.069715 -0.893649
-3.535862 2.084247 -0.896322
-3.531176 2.100437 -0.899580
-3.532414 2.124186 -0.905603
-3.535092 2.150049 -0.912354
-3.529071 2.165140 -0.915090
-3.524038 2.181627 -0.918308
-3.520490 2.200202 -0.922255
-3.515118 2.216573 -0.925363
-3.503547 2.224860 -0.925506
-3.503748 2.248937 -0.931344
-3.506989 2.277446 -0.938728
-3.503546 2.297204 -0.942909
-3.492241 2.306319 -0.943242
-3.484719 2.320728 -0.945448
-3.475775 2.333252 -0.946958
-3.477847 2.361565 -0.954039
-3.429727 2.369123 -0.947789
-3.273407 2.261447 -0.895928
-3.258357 2.263412 -0.893807
-3.234633 2.251549 -0.886951
-3.175683 2.233421 -0.872516
-3.164466 2.240729 -0.872259
-3.129789 2.234720 -0.864794
-3.120526 2.245163 -0.865581
-3.096628 2.230456 -0.857966
-3.072863 2.215502 -0.850309
-3.093446 2.305561 -0.874714
-3.053245 2.316236 -0.869973
-3.068557 2.373215 -0.885785
-3.086551 2.497344 -0.917419
-3.100794 2.654979 -0.955922
-3.099349 2.686119 -0.962730
-3.079046 2.678716 -0.957309
-3.067235 2.688801 -0.957412
-3.062369 2.713738 -0.962157
-3.047128 2.716787 -0.960015
-3.024871 2.704442 -0.953080
-3.005055 2.697001 -0.947698
-2.990701 2.701418 -0.946005
-2.970495 2.692520 -0.940205
-2.961396 2.708711 -0.942135
-2.947424 2.713826 -0.940645
-2.927371 2.704582 -0.934770
-2.900318 2.678204 -0.923712
-2.890618 2.692937 -0.925164
-2.873539 2.689806 -0.921198
-2.854796 2.682279 -0.915921
-2.833777 2.668639 -0.908831
-2.819402 2.671434 -0.906680
-2.809912 2.686809 -0.908270
-2.791724 2.679585 -0.903129
-2.774518 2.674600 -0.898667
-2.757345 2.669397 -0.894153
-2.741248 2.666828 -0.890424
-2.724171 2.661288 -0.885833
-2.710101 2.663926 -0.883636
-2.693246 2.658481 -0.879088
-2.677644 2.656360 -0.875513
-2.665263 2.663555 -0.874625
-2.642075 2.638287 -0.864405
-2.630798 2.648479 -0.864376
-2.613997 2.641670 -0.859480
-2.597336 2.634927 -0.854616
-2.588561 2.653127 -0.856817
-2.575227 2.656899 -0.854911
-2.553639 2.633226 -0.845292
-2.537366 2.626538 -0.840468
-2.524835 2.632330 -0.839131
-2.506596 2.618198 -0.832248
-2.501473 2.650153 -0.838128
-2.483459 2.636346 -0.831335
-2.469783 2.637913 -0.828782
-2.455240 2.636133 -0.825305
-2.438280 2.624857 -0.819242
-2.421695 2.614466 -0.813434
-2.406962 2.610915 -0.809489
-2.393198 2.611034 -0.806529
-2.378726 2.608077 -0.802737
-2.363630 2.602219 -0.798168
-2.350989 2.606627 -0.796330
-2.336988 2.605073 -0.792895
-2.322578 2.601468 -0.788913
-2.309121 2.601998 -0.786013
-2.295844 2.603292 -0.783300
-2.281763 2.600622 -0.779542
-2.268781 2.603180 -0.777131
-2.254562 2.599443 -0.773080
-2.239934 2.593268 -0.768400
-2.226424 2.592667 -0.765145
-2.212609 2.590255 -0.761417
-2.197260 2.578915 -0.755421
-2.181773 2.566032 -0.749048
-2.169174 2.569631 -0.746829
-2.157308 2.577878 -0.745749
-2.142850 2.570050 -0.740639
-2.129753 2.570568 -0.737600
-2.116656 2.571043 -0.734537
-2.103160 2.568671 -0.730761
-2.089077 2.561775 -0.725874
-2.075652 2.559254 -0.722054
-2.062450 2.558197 -0.718582
-2.049524 2.559203 -0.715598
-2.036348 2.558088 -0.712094
-2.021501 2.542068 -0.705036
-2.009688 2.552394 -0.704248
-1.996567 2.550976 -0.700662
-1.983594 2.550774 -0.697358
-1.970261 2.546574 -0.693119
-1.956953 2.542006 -0.688803
-1.943633 2.536565 -0.684297
-1.930360 2.530788 -0.679730
-1.917440 2.528644 -0.676012
-1.905020 2.532927 -0.673767
-1.892142 2.530396 -0.669983
-1.879795 2.535607 -0.667960
-1.866891 2.531153 -0.663782
-1.854114 2.527525 -0.659819
-1.841672 2.529253 -0.657076
-1.832678 2.611477 -0.672079
-1.827332 2.808928 -0.712165
-1.788484 2.885892 -0.718893
-1.773652 2.829714 -0.703576
-1.746956 2.825807 -0.696543
-1.733946 2.846910 -0.698019
-1.720855 2.856602 -0.697131
-1.707793 2.873811 -0.697886
-1.694794 2.881021 -0.696613
-1.682020 2.875614 -0.692801
-1.669487 2.867646 -0.688568
-1.657407 2.847967 -0.682036
-1.645310 2.842896 -0.678638
-1.633058 2.851126 -0.678076
-1.621053 2.854946 -0.676711
-1.608921 2.866593 -0.677040
-1.597131 2.871813 -0.676163
-1.586075 2.863339 -0.672626
-1.578399 2.787798 -0.655704
-3.900230 1.260504 -0.749957
-3.882841 1.260713 -0.746662
-3.876469 1.268237 -0.746935
-3.876934 1.280488 -0.749488
-3.872155 1.289513 -0.750498
-3.871728 1.301687 -0.753015
-3.871648 1.314365 -0.755769
-3.871829 1.327494 -0.758735
-3.864380 1.335620 -0.759359
-3.860201 1.346206 -0.761151
-3.863247 1.362097 -0.765415
-3.868618 1.379945 -0.770574
-3.873088 1.397481 -0.775574
-3.864483 1.405865 -0.776373
-3.862764 1.419420 -0.779551
-3.866938 1.437550 -0.784809
-3.853656 1.442972 -0.784309
-3.850365 1.455958 -0.787247
-3.846443 1.468646 -0.790054
-3.839385 1.479094 -0.791866
-3.833003 1.490177 -0.793970
-3.823775 1.499145 -0.795145
-3.810511 1.504985 -0.794953
-3.726810 1.470541 -0.774421
-3.793189 1.609090 -0.821336
-3.805122 1.636819 -0.830563
-3.748816 1.605959 -0.814697
-3.762341 1.635226 -0.824554
-3.765298 1.655571 -0.830563
-3.736858 1.648185 -0.824807
-3.692182 1.625860 -0.812797
-3.612897 1.571482 -0.787407
-3.603686 1.580066 -0.788549
-3.597367 1.591305 -0.790791
-3.592097 1.603556 -0.793438
-3.583468 1.612685 -0.794773
-3.589155 1.635450 -0.801728
-3.593172 1.656862 -0.808078
-3.590394 1.671896 -0.811765
-3.583994 1.683474 -0.814010
-3.583198 1.700641 -0.818514
-3.585043 1.720594 -0.824114
-3.585491 1.739331 -0.829180
-3.587080 1.759406 -0.834745
-3.579522 1.770252 -0.836556
-3.574457 1.783712 -0.839396
-3.568688 1.796503 -0.841942
-3.571541 1.818501 -0.848130
-3.569284 1.835264 -0.852192
-3.571817 1.857346 -0.858323
-3.566939 1.871574 -0.861308
-3.560376 1.884033 -0.863569
-3.563284 1.907097 -0.869960
-3.566809 1.931119 -0.876673
-3.565319 1.949729 -0.881227
-3.558989 1.962968 -0.883658
-3.552304 1.975871 -0.885934
-3.550927 1.995049 -0.890601
-3.548707 2.013426 -0.894920
-3.536900 2.020551 -0.894895
-3.546436 2.053331 -0.904644
-3.540164 2.067360 -0.907189
-3.535098 2.082964 -0.910304
-3.530595 2.099398 -0.913701
-3.526432 2.116403 -0.917279
-3.533988 2.148387 -0.926441
-3.529994 2.166080 -0.930189
-3.521118 2.177653 -0.931620
-3.516711 2.195101 -0.935212
-3.508519 2.207746 -0.936990
