ply
format ascii 1.0
comment ---
element vertex 1594
property float x
property float y
property float z
element face 0
property list uchar uint vertex_indices
end_header
-3.385437 -5.945937 -0.122711
-3.412057 -5.941091 -0.119441
-3.440138 -5.938747 -0.115873
-3.484822 -5.966092 -0.108610
-3.511111 -5.959809 -0.105524
-3.534882 -5.948949 -0.103025
-3.565617 -5.950190 -0.099007
-3.589447 -5.939214 -0.096548
-3.606453 -5.916541 -0.095607
-3.628608 -5.902757 -0.093551
-3.666420 -5.915144 -0.088108
-3.693512 -5.909258 -0.085035
-3.722454 -5.906232 -0.081589
-3.722947 -5.856886 -0.084281
-3.768396 -5.880342 -0.077341
-3.799265 -5.879886 -0.073565
-3.838156 -5.891744 -0.068120
-3.864976 -5.884290 -0.065270
-3.901179 -5.891125 -0.060473
-3.916058 -5.865022 -0.060177
-3.946463 -5.862558 -0.056650
-3.981597 -5.866897 -0.052171
-4.017336 -5.871735 -0.047605
-4.042836 -5.861171 -0.045183
-4.064941 -5.845579 -0.043476
-4.100095 -5.848708 -0.039122
-4.272038 -5.853539 -0.018640
-4.333054 -5.842700 -0.012215
-4.347620 -5.815776 -0.012188
-4.360990 -5.787466 -0.012396
-4.399095 -5.791574 -0.007758
-4.455168 -5.818447 0.000349
-4.473778 -5.796612 0.001113
-4.507278 -5.793695 0.004753
-4.527389 -5.773714 0.005783
-4.569074 -5.780553 0.010948
-4.593381 -5.765553 0.012749
-4.600392 -5.729424 0.011239
-4.604546 -5.690184 0.009199
-4.596791 -5.637105 0.004922
-4.584693 -5.579538 -0.000142
-4.568337 -5.517718 -0.005966
-4.570388 -5.478103 -0.008307
-4.596350 -5.466416 -0.006177
-4.542869 -5.323625 -0.021452
-4.569247 -5.313167 -0.019225
-4.575423 -5.280175 -0.020723
-4.693731 -4.912518 -0.032860
-4.776673 -4.921131 -0.023462
-4.747046 -4.856898 -0.031124
-4.792555 -4.759278 -0.033341
-4.705425 -4.578670 -0.055512
-4.675189 -4.518955 -0.063017
-4.670495 -4.482451 -0.066204
-4.646961 -4.335786 -0.079633
-4.632588 -4.232063 -0.089062
-4.594575 -4.171035 -0.097590
-4.347173 -3.887137 -0.144336
-4.330243 -3.846820 -0.149224
-4.330739 -3.820488 -0.151313
-4.327652 -3.791577 -0.153975
-4.323461 -3.762054 -0.156809
-4.289584 -3.710359 -0.164324
-4.296266 -3.689656 -0.165429
-4.304964 -3.670519 -0.166230
-4.300502 -3.641771 -0.169098
-4.308243 -3.622111 -0.170071
-4.309046 -3.597511 -0.172131
-4.306565 -3.570716 -0.174704
-4.280173 -3.527245 -0.180949
-4.272182 -3.497136 -0.184357
-4.275283 -3.474948 -0.186073
-4.288884 -3.460042 -0.186209
-4.292123 -3.438066 -0.187935
-4.251598 -3.386820 -0.196251
-4.249201 -3.361571 -0.198817
-4.266222 -3.349243 -0.198495
-4.264293 -3.324480 -0.201016
-4.234416 -3.281863 -0.207674
-4.230578 -3.256354 -0.210472
-4.242733 -3.241098 -0.210932
-4.246077 -3.220292 -0.212703
-4.239783 -3.193596 -0.215887
-4.233706 -3.167219 -0.219042
-4.249867 -3.154474 -0.218998
-4.252661 -3.133623 -0.220901
-4.252157 -3.110883 -0.223287
-4.251194 -3.087979 -0.225746
-4.232857 -3.055119 -0.230667
-4.217989 -3.024573 -0.235084
-4.212551 -2.999651 -0.238170
-4.220038 -2.982133 -0.239456
-4.222087 -2.961600 -0.241512
-4.210577 -2.933705 -0.245445
-4.202029 -2.907650 -0.248960
-4.200160 -2.885370 -0.251554
-4.205696 -2.867129 -0.253141
-4.208801 -2.847644 -0.255064
-4.202502 -2.823354 -0.258253
-4.190974 -2.796571 -0.262129
-4.184099 -2.772380 -0.265363
-4.185267 -2.752396 -0.267512
-4.191116 -2.734820 -0.269034
-4.175380 -2.706773 -0.273379
-4.173897 -2.685898 -0.275826
-4.184005 -2.670683 -0.276742
-4.178522 -2.648164 -0.279661
-4.184090 -2.630982 -0.281122
-4.184772 -2.611650 -0.283180
-4.171102 -2.585979 -0.287029
-4.148060 -2.556443 -0.292006
-4.162472 -2.543882 -0.292183
-4.154772 -2.521713 -0.295102
-4.151561 -2.501764 -0.297394
-4.177033 -2.494258 -0.296051
-4.156719 -2.467482 -0.300344
-4.151102 -2.447248 -0.302732
-4.155345 -2.431355 -0.303826
-4.144771 -2.409683 -0.306662
-4.149038 -2.394309 -0.307593
-4.152652 -2.378907 -0.308522
-4.163996 -2.366763 -0.308428
-4.191304 -2.360940 -0.306319
-4.193048 -2.345443 -0.307219
-4.183853 -2.326127 -0.309341
-4.182212 -2.310004 -0.310454
-4.182117 -2.294774 -0.311284
-1.822623 -6.124255 -0.371867
-1.857655 -6.088139 -0.369570
-1.879406 -6.087579 -0.366993
-1.907696 -6.114123 -0.362348
-1.932533 -6.123378 -0.358771
-1.978914 -6.123217 -0.352544
-1.994985 -6.092427 -0.351499
-2.016269 -6.082378 -0.348841
-2.038405 -6.074970 -0.345891
-2.087368 -6.075786 -0.338533
-2.114352 -6.084143 -0.334108
-2.142081 -6.094141 -0.329464
-2.172765 -6.113612 -0.323988
-2.429514 -6.350920 -0.274840
-2.626535 -6.354267 -0.242897
-3.087204 -6.093341 -0.182716
-3.089351 -6.037010 -0.184747
-3.088527 -5.975539 -0.187438
-3.118003 -5.978475 -0.183205
-3.155822 -5.998307 -0.177120
-3.180813 -5.991333 -0.173985
-3.193972 -5.960476 -0.173536
-3.209071 -5.933956 -0.172658
-3.262779 -5.983743 -0.163197
-3.290647 -5.981917 -0.159546
-3.301039 -5.946286 -0.159784
-3.339359 -5.964300 -0.153889
-3.372010 -5.971009 -0.149287
-3.399358 -5.967452 -0.145881
-3.427930 -5.965967 -0.142242
-3.458070 -5.967104 -0.138298
-3.494324 -5.978955 -0.133077
-3.522117 -5.975222 -0.129712
-3.534867 -5.944806 -0.129580
-3.573964 -5.960666 -0.123867
-3.582422 -5.923098 -0.124670
-3.603714 -5.907932 -0.122772
-3.635615 -5.910708 -0.118671
-3.666684 -5.911755 -0.114780
-3.691798 -5.902651 -0.112160
-3.706418 -5.876281 -0.111730
-3.732967 -5.869475 -0.108852
-3.755445 -5.855993 -0.106833
-3.801900 -5.880520 -0.099941
-3.837775 -5.887644 -0.095257
-3.871038 -5.890265 -0.091142
-3.894065 -5.876785 -0.089123
-3.934388 -5.889609 -0.083653
-3.946532 -5.859389 -0.083857
-4.014317 -5.864098 -0.075646
-4.043427 -5.858921 -0.072535
-4.077678 -5.860978 -0.068440
-4.110112 -5.860074 -0.064734
-4.133825 -5.846483 -0.062759
-4.278343 -5.859407 -0.045489
-4.297262 -5.838397 -0.044547
-4.328914 -5.834520 -0.041190
-4.360715 -5.830586 -0.037830
-4.351076 -5.771937 -0.042324
-4.404863 -5.796631 -0.034851
-4.466674 -5.830866 -0.025932
-4.491457 -5.816835 -0.023995
-4.491288 -5.771174 -0.026714
-4.531140 -5.776175 -0.021999
-4.554078 -5.759755 -0.020442
-4.579345 -5.746168 -0.018469
-4.595203 -5.721038 -0.018236
-4.607547 -5.691803 -0.018646
-4.606402 -5.646659 -0.021507
-4.568439 -5.516050 -0.033604
-4.566173 -5.471483 -0.036582
-4.583982 -5.450512 -0.035945
-4.546381 -5.366439 -0.045201
-4.562937 -5.304624 -0.047263
-4.564963 -5.267153 -0.049390
-4.738988 -4.992688 -0.048730
-4.743635 -4.960700 -0.050370
-4.751507 -4.932104 -0.051465
-4.763234 -4.907415 -0.051916
-4.778042 -4.779994 -0.059057
-4.606506 -4.150962 -0.121129
-4.329915 -3.873352 -0.168431
-4.324073 -3.841879 -0.171418
-4.320517 -3.812461 -0.174050
-4.316244 -3.782730 -0.176790
-4.302197 -3.745793 -0.181018
-4.298311 -3.716910 -0.183691
-4.300241 -3.692604 -0.185484
-4.293516 -3.662030 -0.188589
-4.297842 -3.639822 -0.190032
-4.302969 -3.618295 -0.191367
-4.307765 -3.596615 -0.192763
-4.298984 -3.565352 -0.196186
-4.290691 -3.534708 -0.199533
-4.273635 -3.498206 -0.204168
-4.272340 -3.472978 -0.206480
-4.268499 -3.446164 -0.209171
-4.283126 -3.432052 -0.209182
-4.276046 -3.403311 -0.212361
-4.262094 -3.370231 -0.216531
-4.272987 -3.353796 -0.217129
-4.285265 -3.338239 -0.217552
-4.226165 -3.276667 -0.228154
-4.242813 -3.264278 -0.227965
-4.240772 -3.239992 -0.230442
-4.239747 -3.216477 -0.232785
-4.239765 -3.193728 -0.234991
-4.243131 -3.173131 -0.236742
-4.237905 -3.147395 -0.239697
-4.252472 -3.133674 -0.239928
-4.252163 -3.111058 -0.242228
-4.226413 -3.073644 -0.248011
-4.222346 -3.049215 -0.250823
-4.220285 -3.026081 -0.253367
-4.214149 -3.000758 -0.256465
-4.221807 -2.983335 -0.257715
-4.216506 -2.958729 -0.260708
-4.207195 -2.932084 -0.264230
-4.206151 -2.910127 -0.266654
-4.210090 -2.890947 -0.268425
-4.205350 -2.867218 -0.271335
-4.203096 -2.844948 -0.273914
-4.188919 -2.816636 -0.278030
-4.187533 -2.795139 -0.280476
-4.186352 -2.773869 -0.282887
-4.188073 -2.754172 -0.284916
-4.178859 -2.729175 -0.288319
-4.174335 -2.706694 -0.291103
-4.180748 -2.689661 -0.292491
-4.178374 -2.668505 -0.294958
-4.177149 -2.648057 -0.297254
-4.181369 -2.630300 -0.298844
-4.191833 -2.615516 -0.299635
-4.172847 -2.587442 -0.304001
-4.175950 -2.569638 -0.305612
-4.170756 -2.548321 -0.308181
-4.159974 -2.524820 -0.311365
-4.167044 -2.509333 -0.312335
-4.180385 -2.496655 -0.312499
-4.149880 -2.465643 -0.317829
-4.149777 -2.447803 -0.319452
-4.127687 -2.421203 -0.323596
-4.137259 -2.407898 -0.323914
-4.138529 -2.391443 -0.325131
-4.151237 -2.379765 -0.324924
-4.164141 -2.368323 -0.324615
-4.178075 -2.357444 -0.324102
-4.181320 -2.342665 -0.324742
-4.186013 -2.328703 -0.325121
-4.205850 -2.320630 -0.323658
-4.285275 -2.334564 -0.315237
-1.801442 -6.102939 -0.397640
-1.822840 -6.106097 -0.395380
-1.936084 -6.123387 -0.381681
-1.959997 -6.127413 -0.378463
-1.979150 -6.110370 -0.376546
-2.016837 -6.072132 -0.372695
-2.041228 -6.074035 -0.369160
-2.066392 -6.077835 -0.365384
-2.092520 -6.084193 -0.361322
-2.118987 -6.090729 -0.357148
-2.147205 -6.102592 -0.352494
-2.184608 -6.145976 -0.345417
-2.424734 -6.327749 -0.302130
-2.449838 -6.320178 -0.298331
-2.524611 -6.295437 -0.287085
-2.615194 -6.315298 -0.272101
-2.751509 -6.156629 -0.255679
-3.056021 -5.960912 -0.217962
-3.115052 -5.967486 -0.209577
-3.140102 -5.961142 -0.206406
-3.167678 -5.959861 -0.202722
-3.186224 -5.940223 -0.201005
-3.210437 -5.932071 -0.198097
-3.283820 -6.020495 -0.184784
-3.306186 -6.007562 -0.182367
-3.312334 -5.963520 -0.183385
-3.332141 -5.946160 -0.181536
-3.377868 -5.977625 -0.174299
-3.413910 -5.990154 -0.169138
-3.435863 -5.976260 -0.166938
-3.466824 -5.978781 -0.162904
-3.491647 -5.969947 -0.160166
-3.509947 -5.949436 -0.158786
-3.543813 -5.956482 -0.154254
-3.566334 -5.943355 -0.152061
-3.578969 -5.913204 -0.151883
-3.605206 -5.906591 -0.148977
-3.642192 -5.917962 -0.143948
-3.677135 -5.925406 -0.139370
-3.700401 -5.913128 -0.137148
-3.719911 -5.894673 -0.135690
-3.737686 -5.873503 -0.134586
-3.767524 -5.871789 -0.131131
-3.795485 -5.866842 -0.128072
-3.834440 -5.878945 -0.122903
-3.865769 -5.878665 -0.119254
-3.924721 -5.871584 -0.112760
-3.967272 -5.887393 -0.107055
-3.994672 -5.879982 -0.104282
-4.017731 -5.865997 -0.102357
-4.039694 -5.850372 -0.100657
-4.184000 -5.867168 -0.083495
-4.224299 -5.876252 -0.078509
-4.249716 -5.864321 -0.076311
-4.282208 -5.861955 -0.072829
-4.314505 -5.859043 -0.069411
-4.340175 -5.846985 -0.067230
-4.339657 -5.800100 -0.069829
-4.403763 -5.838661 -0.060703
-4.426429 -5.822246 -0.059126
-4.477185 -5.842002 -0.052511
-4.489826 -5.812404 -0.052774
-4.510149 -5.792739 -0.051666
-4.534343 -5.777956 -0.049880
-4.553812 -5.757252 -0.048944
-4.577065 -5.741250 -0.047350
-4.594157 -5.717710 -0.046852
-4.597847 -5.678113 -0.048706
-4.568826 -5.599855 -0.056255
-4.569855 -5.558274 -0.058528
-4.565343 -5.510643 -0.061745
-4.567728 -5.471571 -0.063750
-4.551810 -5.411844 -0.068891
-4.545463 -5.363803 -0.072357
-4.544793 -5.322735 -0.074831
-4.552025 -5.290938 -0.075947
-4.566308 -5.189040 -0.080512
-4.777902 -4.956973 -0.073337
-4.774192 -4.917206 -0.076238
-4.772595 -4.879851 -0.078788
-4.781879 -4.748294 -0.086430
-4.665188 -4.574512 -0.109241
-4.644073 -4.332753 -0.127767
-4.626595 -4.287305 -0.132596
-4.593671 -4.140413 -0.146177
-4.330772 -3.873889 -0.189605
-4.325649 -3.842993 -0.192371
-4.317822 -3.810261 -0.195534
-4.299134 -3.769472 -0.200291
-4.305053 -3.747894 -0.201424
-4.318910 -3.732398 -0.201410
-4.305472 -3.696467 -0.205387
-4.305660 -3.670987 -0.207380
-4.303950 -3.644277 -0.209655
-4.302534 -3.617967 -0.211892
-4.300362 -3.591290 -0.214242
-4.303903 -3.568865 -0.215784
-4.299019 -3.540600 -0.218534
-4.283372 -3.505033 -0.222810
-4.241924 -3.451989 -0.230710
-4.241592 -3.427794 -0.232804
-4.247151 -3.407728 -0.234084
-4.261337 -3.393505 -0.234181
-4.256530 -3.366604 -0.236935
-4.269563 -3.351621 -0.237233
-4.268850 -3.327640 -0.239445
-4.282899 -3.313296 -0.239649
-4.248558 -3.268035 -0.246467
-4.226211 -3.230907 -0.251629
-4.226842 -3.208527 -0.253676
-4.229352 -3.187408 -0.255482
-4.215156 -3.156147 -0.259535
-4.222874 -3.138429 -0.260666
-4.222744 -3.116015 -0.262856
-4.195265 -3.077510 -0.268660
-4.208801 -3.063474 -0.269061
-4.211263 -3.042947 -0.270933
-4.214705 -3.023045 -0.272690
-4.217850 -3.003025 -0.274498
-4.210209 -2.977015 -0.277704
-4.207581 -2.953973 -0.280265
-4.202136 -2.929513 -0.283186
-4.208152 -2.911427 -0.284652
-4.210687 -2.891496 -0.286567
-4.210577 -2.870232 -0.288817
-4.193841 -2.840365 -0.293139
-4.188480 -2.816690 -0.296025
-4.181721 -2.792469 -0.299070
-4.185602 -2.773815 -0.300792
-4.185483 -2.753231 -0.302996
-4.188057 -2.734094 -0.304859
-4.183790 -2.711715 -0.307534
-4.180577 -2.690024 -0.310056
-4.179078 -2.669323 -0.312344
-4.170047 -2.645242 -0.315498
-4.175444 -2.628117 -0.316899
-4.189540 -2.615081 -0.317244
-4.193377 -2.597409 -0.318767
-4.182719 -2.573388 -0.321939
-4.175705 -2.551285 -0.324625
-4.173405 -2.531518 -0.326702
-4.167399 -2.510388 -0.329143
-4.147360 -2.483571 -0.333122
-4.142349 -2.463514 -0.335296
-4.126198 -2.439124 -0.338659
-4.120142 -2.419289 -0.340786
-4.133739 -2.407734 -0.340609
-4.141356 -2.393917 -0.341030
-4.147676 -2.379789 -0.341515
-4.158860 -2.367781 -0.341370
-4.150024 -2.348238 -0.343372
-4.170325 -2.340174 -0.342032
-4.189217 -2.331695 -0.340762
-4.109080 -2.286518 -0.350380
-4.136229 -2.281788 -0.347999
-1.789572 -6.123371 -0.420273
-1.810284 -6.125235 -0.418374
-1.891377 -6.107512 -0.410768
-1.914380 -6.111421 -0.407983
-1.939202 -6.121475 -0.404665
-1.964801 -6.133008 -0.401104
-1.984411 -6.118184 -0.399074
-1.999907 -6.086079 -0.398046
-2.021708 -6.078942 -0.395313
-2.046564 -6.082855 -0.391750
-2.071623 -6.086394 -0.388099
-2.094485 -6.080643 -0.384965
-2.121981 -6.091280 -0.380636
-2.156209 -6.125056 -0.374623
-2.192702 -6.164956 -0.368058
-2.393894 -6.397082 -0.330996
-2.451312 -6.317019 -0.323931
-2.506677 -6.317375 -0.315179
-2.610296 -6.374735 -0.297444
-2.679168 -6.329759 -0.287833
-2.703035 -6.317663 -0.284450
-2.739472 -6.264250 -0.280251
-2.841049 -6.306284 -0.263734
-2.876501 -6.252465 -0.259951
-3.080894 -6.009072 -0.238296
-3.090273 -5.969522 -0.238343
-3.124345 -5.982069 -0.233307
-3.144406 -5.965292 -0.231191
-3.166700 -5.953221 -0.228640
-3.189065 -5.941346 -0.226100
-3.215385 -5.937369 -0.222784
-3.254394 -5.958160 -0.216937
-3.306530 -6.003725 -0.208504
-3.323065 -5.979699 -0.207272
-3.343849 -5.964028 -0.205207
-3.369362 -5.957327 -0.202225
-3.405386 -5.970034 -0.197192
-3.443268 -5.985620 -0.191837
-3.469906 -5.980188 -0.188737
-3.490984 -5.964623 -0.186753
-3.516551 -5.957101 -0.183916
-3.545041 -5.954614 -0.180538
-3.574058 -5.952822 -0.177090
-3.589962 -5.928228 -0.176196
-3.612699 -5.915508 -0.174005
-3.644936 -5.918784 -0.170021
-3.681847 -5.929505 -0.165185
-3.704710 -5.916538 -0.163050
-3.733662 -5.913497 -0.159787
-3.752814 -5.894386 -0.158395
-3.769582 -5.871560 -0.157463
-3.798083 -5.867486 -0.154355
-3.833325 -5.873769 -0.150022
-3.845051 -5.843137 -0.150076
-3.902474 -5.883021 -0.141713
-3.935042 -5.884007 -0.137979
-3.970297 -5.888714 -0.133786
-3.995370 -5.877844 -0.131482
-4.006209 -5.845872 -0.131780
-4.031639 -5.835543 -0.129442
-4.056759 -5.824657 -0.127180
-4.094265 -5.831421 -0.122715
-4.138315 -5.847022 -0.117118
-4.183285 -5.863295 -0.111402
-4.203538 -5.844545 -0.110114
-4.299339 -5.882617 -0.097841
-4.332850 -5.881172 -0.094299
-4.318491 -5.815362 -0.099148
-4.364461 -5.830447 -0.093463
-4.390720 -5.819040 -0.091240
-4.431627 -5.826563 -0.086506
-4.464371 -5.823099 -0.083212
-4.500283 -5.823406 -0.079402
-4.513496 -5.794691 -0.079500
-4.564399 -5.768215 -0.075549
-4.586264 -5.750438 -0.074204
-4.554711 -5.538525 -0.088770
-4.557025 -5.499121 -0.090659
-4.561591 -5.462732 -0.092166
-4.534538 -5.349771 -0.101097
-4.546836 -5.283659 -0.103499
-4.757521 -5.046239 -0.096195
-4.732289 -4.984261 -0.102318
-4.811066 -5.025185 -0.092262
-4.822157 -4.999188 -0.092755
-4.783071 -4.924978 -0.100986
-4.794230 -4.899762 -0.101452
-4.767701 -4.803925 -0.109853
-4.723185 -4.659886 -0.123027
-4.685339 -4.592189 -0.130839
-4.680683 -4.555101 -0.133636
-4.694059 -4.534348 -0.133733
-4.682470 -4.427807 -0.141742
-4.637497 -4.326865 -0.152522
-4.608739 -4.181945 -0.164967
-4.600574 -4.145772 -0.168206
-4.339496 -3.880636 -0.209646
-4.322153 -3.813495 -0.215973
-4.296177 -3.767082 -0.221574
-4.312993 -3.753846 -0.221131
-4.332355 -3.742462 -0.220355
-4.333310 -3.717207 -0.222177
-4.325426 -3.685561 -0.225237
-4.327236 -3.661304 -0.226953
-4.311749 -3.624620 -0.231066
-4.292477 -3.585591 -0.235690
-4.286024 -3.556115 -0.238546
-4.281731 -3.528400 -0.241110
-4.245233 -3.478404 -0.248051
-4.228665 -3.301543 -0.264279
-4.269524 -3.304739 -0.260960
-4.216388 -3.224779 -0.272032
-4.214584 -3.200949 -0.274334
-4.210995 -3.176147 -0.276875
-4.207617 -3.151626 -0.279396
-4.194825 -3.121556 -0.283126
-4.181746 -3.069611 -0.288990
-4.191338 -3.053359 -0.289897
-4.206323 -3.040206 -0.290150
-4.213051 -3.022227 -0.291459
-4.207397 -2.997240 -0.294318
-4.201788 -2.972445 -0.297172
-4.196493 -2.947987 -0.299986
-4.202909 -2.930109 -0.301370
-4.199913 -2.907147 -0.303908
-4.207177 -2.889817 -0.305205
-4.197330 -2.863434 -0.308566
-4.193307 -2.840321 -0.311217
-4.189326 -2.817383 -0.313853
-4.189979 -2.796970 -0.315930
-4.186577 -2.774611 -0.318476
-4.195230 -2.758430 -0.319595
-4.191348 -2.736079 -0.322167
-4.188753 -2.714529 -0.324567
-4.181226 -2.690766 -0.327510
-4.171610 -2.666235 -0.330656
-4.181980 -2.651362 -0.331483
-4.191533 -2.636147 -0.332380
-4.185218 -2.613706 -0.335039
-4.192712 -2.597769 -0.336096
-4.185996 -2.575571 -0.338701
-4.177392 -2.552807 -0.341456
-4.173805 -2.532532 -0.343589
-4.169313 -2.512119 -0.345755
-4.158879 -2.489448 -0.348502
-4.156148 -2.470361 -0.350326
-4.149289 -2.449832 -0.352521
-4.152767 -2.433868 -0.353510
-4.146499 -2.414181 -0.355473
-4.147623 -2.397785 -0.356548
-4.153504 -2.383540 -0.357024
-4.130864 -2.358376 -0.360467
-4.124747 -2.340096 -0.362039
-4.171940 -2.342504 -0.357829
-4.163682 -2.323879 -0.359445
-4.140618 -2.300119 -0.362534
-4.119249 -2.277489 -0.365338
-1.816254 -6.133512 -0.440018
-1.844700 -6.072890 -0.439626
-1.898288 -6.121316 -0.432491
-1.917524 -6.109087 -0.430765
-1.941054 -6.114105 -0.427902
-1.969301 -6.137229 -0.423831
-1.991482 -6.133316 -0.421198
-2.008166 -6.106182 -0.419826
-2.029072 -6.095525 -0.417367
-2.054902 -6.103243 -0.413681
-2.077135 -6.095972 -0.410799
-2.100155 -6.090950 -0.407682
-2.123671 -6.087049 -0.404406
-2.154513 -6.108883 -0.399405
-2.198503 -6.175776 -0.391384
-2.287463 -6.304050 -0.375191
-2.343968 -6.314141 -0.366347
-2.451638 -6.310405 -0.349743
-2.515533 -6.336684 -0.339253
-2.543988 -6.338444 -0.334788
-2.609162 -6.364641 -0.324128
-2.743853 -6.269680 -0.305532
-2.825704 -6.261839 -0.293464
-2.870762 -6.232757 -0.287517
-3.091859 -6.027603 -0.261862
-3.093256 -5.971066 -0.263331
-3.117716 -5.963593 -0.260294
-3.140206 -5.952032 -0.257670
-3.168224 -5.951741 -0.254000
-3.198027 -5.954815 -0.250022
-3.219123 -5.940317 -0.247754
-3.253802 -5.952559 -0.242908
-3.293715 -5.974438 -0.237107
-3.324555 -5.978188 -0.233081
-3.354388 -5.979702 -0.229283
-3.367239 -5.949090 -0.228724
-3.388311 -5.934145 -0.226631
-3.437715 -5.971244 -0.219255
-3.471657 -5.979227 -0.214825
-3.490612 -5.959876 -0.213220
-3.520315 -5.959760 -0.209644
-3.550078 -5.959486 -0.206089
-3.578276 -5.956225 -0.202855
-3.613109 -5.912402 -0.200409
-3.640285 -5.907196 -0.197435
-3.676746 -5.917288 -0.192808
-3.705813 -5.914696 -0.189554
-3.733322 -5.909328 -0.186609
-3.747934 -5.882954 -0.185999
-3.769949 -5.868661 -0.184079
-3.791438 -5.853537 -0.182271
-3.820250 -5.849897 -0.179185
-3.902176 -5.879265 -0.168826
-3.940010 -5.888305 -0.164257
-4.000815 -5.882806 -0.157815
-4.013802 -5.853991 -0.157649
-4.028136 -5.827403 -0.157255
-4.060081 -5.826492 -0.153843
-4.096064 -5.831072 -0.149767
-4.138179 -5.843944 -0.144678
-4.171794 -5.844316 -0.141074
-4.196394 -5.831828 -0.139026
-4.224343 -5.823874 -0.136431
-4.236852 -5.794696 -0.136453
-4.276721 -5.802711 -0.131895
-4.344497 -5.847575 -0.122716
-4.366991 -5.831268 -0.121135
-4.391057 -5.817006 -0.119307
-4.426375 -5.817307 -0.115638
-4.458212 -5.812792 -0.112571
-4.491699 -5.810131 -0.109258
-4.513848 -5.792868 -0.107822
-4.538754 -5.779041 -0.105952
-4.589932 -5.797695 -0.099837
-4.576060 -5.691614 -0.106461
-4.575325 -5.603807 -0.110904
-4.566725 -5.550896 -0.114419
-4.570210 -5.471019 -0.118112
-4.579273 -5.440109 -0.118790
-4.566873 -5.385004 -0.122840
-4.541323 -5.315758 -0.128925
-4.749371 -5.000272 -0.125942
-4.745847 -4.924141 -0.130575
-4.781074 -4.886442 -0.129480
-4.747200 -4.818913 -0.136502
-4.764904 -4.765889 -0.137992
-4.737097 -4.705884 -0.144065
-4.725974 -4.661851 -0.147696
-4.698793 -4.538063 -0.157627
-4.350173 -3.729714 -0.240745
-4.338309 -3.669347 -0.246128
-4.304739 -3.619465 -0.252479
-4.252999 -3.557147 -0.261196
-4.250379 -3.530686 -0.263423
-4.260852 -3.513642 -0.263947
-4.202838 -3.016473 -0.311224
-4.198313 -2.992200 -0.313858
-4.200887 -2.972059 -0.315657
-4.198927 -2.949467 -0.317997
-4.200190 -2.928762 -0.319963
-4.206644 -2.910953 -0.321331
-4.192775 -2.882274 -0.325055
-4.190921 -2.860230 -0.327382
-4.188737 -2.838138 -0.329741
-4.185437 -2.815601 -0.332219
-4.187958 -2.796191 -0.334029
-4.197932 -2.780632 -0.334992
-4.198142 -2.760195 -0.337046
-4.184649 -2.733114 -0.340608
-4.175482 -2.708431 -0.343655
-4.172176 -2.686816 -0.346023
-4.161698 -2.661968 -0.349144
-4.172431 -2.647369 -0.349911
-4.183642 -2.633029 -0.350602
-4.164315 -2.604710 -0.354557
-4.175788 -2.590752 -0.355141
-4.180661 -2.573896 -0.356391
-4.172866 -2.551580 -0.358938
-4.170455 -2.531909 -0.360848
-4.164223 -2.510832 -0.363093
-4.162308 -2.491889 -0.364812
-4.172023 -2.478100 -0.365240
-4.181664 -2.464427 -0.365607
-4.168948 -2.441728 -0.368218
-4.162596 -2.422006 -0.370077
-4.134175 -2.393773 -0.374117
-4.123992 -2.373319 -0.376176
-4.135056 -2.361559 -0.375962
-4.135677 -2.345949 -0.376726
-4.144504 -2.333762 -0.376559
-4.151303 -2.321028 -0.376506
-4.151269 -2.305987 -0.377053
-4.247739 -2.326835 -0.367709
-1.811230 -6.186019 -0.460964
-1.832293 -6.092670 -0.462500
-1.856298 -6.107611 -0.459885
-1.882874 -6.131876 -0.456617
-1.922094 -6.112826 -0.453151
-1.944196 -6.112161 -0.450733
-1.993324 -6.126924 -0.444592
-2.039816 -6.125292 -0.438798
-2.061165 -6.115482 -0.436225
-2.083315 -6.108025 -0.433414
-2.104710 -6.097048 -0.430710
-2.129104 -6.096550 -0.427308
-2.157024 -6.107922 -0.423113
-2.251960 -6.263108 -0.406406
-2.372085 -6.398395 -0.386092
-2.430898 -6.410727 -0.376951
-2.450244 -6.384325 -0.374429
-2.458789 -6.324986 -0.374091
-2.519556 -6.341563 -0.364490
-2.556262 -6.367625 -0.358429
-2.576137 -6.343753 -0.355771
-2.626423 -6.327021 -0.348359
-3.076806 -6.051045 -0.288967
-3.086084 -6.010569 -0.288726
-3.111736 -6.005254 -0.285466
-3.110786 -5.944602 -0.287143
-3.140671 -5.948440 -0.283151
-3.171041 -5.952956 -0.279107
-3.204467 -5.963269 -0.274542
-3.226780 -5.951092 -0.272039
-3.254859 -5.950258 -0.268517
-3.312582 -6.006649 -0.259675
-3.332983 -5.990031 -0.257620
-3.345244 -5.958116 -0.257049
-3.374442 -5.958393 -0.253464
-3.398320 -5.948559 -0.250859
-3.413629 -5.922978 -0.249802
-3.449590 -5.935137 -0.245109
-3.491977 -5.958303 -0.239324
-3.514236 -5.945000 -0.237122
-3.545678 -5.947833 -0.233337
-3.572142 -5.941691 -0.230454
-3.589893 -5.920436 -0.229112
-3.607780 -5.899585 -0.227764
-3.636313 -5.896805 -0.224595
-3.713952 -5.924487 -0.214822
-3.737936 -5.913284 -0.212529
-3.753810 -5.888935 -0.211637
-3.768349 -5.862658 -0.210985
-3.788967 -5.846241 -0.209316
-3.821423 -5.848393 -0.205673
-3.860393 -5.860304 -0.200969
-3.898527 -5.870401 -0.196443
-3.930813 -5.871114 -0.192927
-3.972590 -5.885782 -0.187867
-4.001945 -5.881362 -0.184902
-4.059010 -5.869469 -0.179317
-4.069016 -5.836458 -0.179592
-4.102911 -5.837970 -0.175974
-4.135901 -5.837855 -0.172534
-4.164807 -5.831698 -0.169782
-4.199162 -5.832918 -0.166175
-4.223182 -5.819572 -0.164258
-4.245672 -5.804078 -0.162605
-4.280485 -5.805194 -0.158998
-4.324702 -5.818539 -0.153925
-4.362473 -5.822770 -0.149913
-4.392718 -5.816723 -0.147120
-4.416831 -5.802498 -0.145317
-4.446208 -5.794984 -0.142703
-4.487501 -5.802468 -0.138248
-4.519866 -5.798207 -0.135218
-4.538911 -5.777034 -0.134281
-4.544093 -5.738753 -0.135500
-4.555173 -5.708092 -0.135804
-4.576454 -5.690068 -0.134542
-4.585311 -5.657086 -0.135196
-4.581159 -5.608868 -0.137834
-4.573015 -5.556498 -0.141066
-4.574133 -5.473855 -0.144847
-4.572392 -5.430544 -0.147071
-4.542981 -5.316097 -0.155365
-4.556486 -5.291483 -0.155272
-4.604761 -5.265961 -0.151957
-4.780026 -4.992948 -0.149771
-4.769599 -4.946389 -0.153195
-4.757975 -4.899195 -0.156775
-4.752257 -4.858166 -0.159510
-4.753385 -4.824030 -0.161278
-4.749942 -4.785903 -0.163683
-4.752930 -4.754109 -0.165187
-4.753651 -4.720480 -0.167009
-4.760396 -4.658848 -0.169921
-4.194074 -3.011519 -0.330709
-4.198355 -2.992302 -0.332263
-4.203528 -2.973628 -0.333728
-4.201308 -2.950888 -0.336034
-4.202127 -2.929939 -0.338003
-4.207194 -2.911382 -0.339504
-4.206553 -2.889803 -0.341641
-4.200735 -2.865593 -0.344344
-4.195535 -2.841883 -0.346970
-4.180990 -2.813507 -0.350597
-4.179535 -2.792114 -0.352786
-4.193593 -2.778699 -0.353298
-4.186180 -2.754509 -0.356103
-4.175347 -2.728844 -0.359243
-4.170888 -2.706549 -0.361678
-4.159935 -2.681314 -0.364763
-4.159989 -2.661594 -0.366657
-4.166103 -2.644879 -0.367889
-4.173944 -2.629060 -0.368911
-4.170756 -2.608258 -0.371032
-4.168161 -2.587942 -0.373041
-4.181437 -2.574957 -0.373381
-4.175793 -2.553652 -0.375593
-4.175213 -2.534834 -0.377227
-4.165309 -2.512216 -0.379731
-4.162595 -2.493001 -0.381437
-4.173543 -2.479812 -0.381704
-4.188293 -2.468341 -0.381524
-4.176053 -2.445883 -0.383940
-4.140941 -2.414527 -0.388516
-4.130437 -2.393665 -0.390563
-4.128187 -2.376457 -0.391705
-4.135104 -2.363147 -0.391857
-4.148658 -2.352630 -0.391270
-4.154845 -2.339467 -0.391311
-4.152880 -2.323466 -0.392049
-4.166350 -2.313551 -0.391191
-4.229669 -2.322233 -0.385408
-1.805447 -6.233226 -0.482156
-1.824662 -6.229242 -0.481059
-1.840645 -6.112104 -0.483544
-1.943967 -6.095865 -0.474199
-1.964527 -6.088174 -0.472112
-1.986119 -6.083630 -0.469733
-2.044383 -6.130589 -0.461715
-2.063830 -6.113739 -0.459568
-2.076612 -6.071190 -0.458673
-2.108428 -6.099984 -0.453930
-2.133663 -6.102803 -0.450445
-2.161398 -6.113655 -0.446422
-2.200440 -6.163246 -0.440160
-2.273932 -6.329865 -0.427207
-2.313464 -6.374385 -0.420850
-2.344802 -6.389307 -0.416057
-2.398028 -6.385364 -0.408214
-2.419737 -6.367095 -0.405194
-2.473190 -6.361976 -0.397205
-2.484539 -6.312252 -0.396094
-2.580063 -6.348392 -0.381199
-2.598393 -6.320565 -0.378772
-2.608565 -6.270361 -0.377859
-2.632749 -6.260215 -0.374353
-2.676416 -6.303330 -0.367269
-2.700943 -6.218622 -0.364728
-2.940652 -6.252841 -0.329604
-2.979456 -6.209496 -0.324919
-3.041068 -6.219076 -0.316289
-3.089137 -6.012402 -0.313874
-3.101562 -5.979284 -0.312947
-3.131416 -5.982901 -0.309010
-3.146042 -5.954987 -0.307746
-3.175315 -5.957187 -0.303974
-3.205017 -5.959974 -0.300163
-3.233000 -5.959066 -0.296683
-3.264542 -5.964918 -0.292627
-3.317698 -6.012245 -0.284924
-3.337731 -5.994869 -0.282908
-3.321264 -5.908542 -0.287098
-3.377847 -5.960629 -0.278940
-3.409591 -5.965338 -0.275025
-3.434687 -5.957518 -0.272261
-3.488338 -5.947816 -0.266239
-3.509418 -5.932545 -0.264227
-3.537935 -5.930382 -0.261006
-3.563817 -5.923423 -0.258250
-3.595495 -5.926293 -0.254569
-3.616218 -5.910218 -0.252716
-3.644192 -5.906395 -0.249699
-3.684178 -5.922361 -0.244754
-3.718933 -5.929102 -0.240700
-3.750719 -5.930584 -0.237161
-3.766299 -5.905609 -0.236265
-3.782535 -5.881900 -0.235278
-3.802212 -5.863822 -0.233753
-3.835969 -5.867843 -0.229999
-3.866411 -5.866357 -0.226803
-3.897567 -5.865701 -0.223522
-3.933739 -5.872372 -0.219477
-3.969861 -5.878535 -0.215474
-4.014592 -5.897083 -0.210151
-4.039427 -5.885651 -0.207983
-4.061390 -5.869945 -0.206283
-4.090149 -5.864054 -0.203544
-4.113305 -5.849952 -0.201696
-4.136825 -5.836329 -0.199810
-4.169697 -5.835772 -0.196503
-4.223327 -5.817087 -0.191821
-4.254024 -5.812826 -0.188920
-4.290321 -5.815883 -0.185192
-4.328782 -5.821449 -0.181167
-4.360264 -5.817350 -0.178226
-4.387793 -5.807821 -0.175902
-4.416080 -5.799131 -0.173485
-4.440780 -5.785663 -0.171625
-4.489950 -5.803288 -0.166140
-4.554775 -5.794666 -0.160246
-4.566092 -5.719411 -0.162305
-4.590438 -5.618036 -0.164305
-4.581269 -5.564416 -0.167477
-4.525855 -5.335143 -0.182687
-4.538734 -5.309778 -0.182629
-4.578150 -5.274591 -0.180600
-4.730482 -5.053267 -0.177362
-4.754889 -5.040707 -0.175841
-4.775716 -5.024498 -0.174826
-4.792306 -5.004092 -0.174403
-4.763447 -4.903643 -0.181953
-4.752279 -4.822237 -0.187079
-4.770837 -4.735635 -0.190051
-4.788514 -4.717619 -0.189537
-4.752078 -4.650754 -0.196160
-4.195407 -3.012321 -0.349002
-4.193909 -2.989831 -0.351148
-4.201106 -2.972331 -0.352367
-4.204948 -2.952979 -0.353957
-4.206345 -2.932339 -0.355815
-4.206928 -2.911341 -0.357763
-4.211865 -2.892771 -0.359254
-4.209775 -2.870522 -0.361483
-4.199939 -2.844351 -0.364510
-4.192530 -2.819665 -0.367268
-4.171357 -2.788141 -0.371421
-4.174220 -2.769143 -0.373083
-4.181536 -2.752460 -0.374281
-4.179785 -2.731342 -0.376382
-4.171895 -2.707384 -0.379076
-4.170753 -2.686915 -0.381059
-4.170018 -2.666802 -0.382970
-4.174623 -2.649369 -0.384317
-4.181931 -2.633307 -0.385363
-4.173528 -2.610120 -0.387907
-4.178516 -2.593289 -0.389092
-4.180548 -2.575273 -0.390513
-4.191268 -2.561286 -0.391039
-4.135478 -2.518303 -0.397893
-4.174789 -2.517237 -0.395546
-4.170184 -2.497241 -0.397337
-4.176850 -2.482291 -0.397979
-4.188672 -2.469671 -0.398058
-4.173506 -2.446090 -0.400600
-4.143909 -2.417061 -0.404398
-4.135193 -2.396987 -0.406137
-4.160119 -2.390630 -0.404642
-4.148469 -2.369980 -0.406468
-4.154745 -2.356677 -0.406529
-4.165583 -2.345361 -0.406073
-4.171171 -2.332260 -0.406009
-4.179921 -2.320595 -0.405557
-4.337276 -2.364132 -0.391279
-1.871426 -6.139204 -0.502760
-1.890239 -6.129134 -0.501440
-1.925106 -6.093550 -0.499042
-1.948173 -6.098245 -0.496632
-1.967233 -6.084775 -0.494891
-1.992566 -6.095946 -0.491895
-2.021674 -6.120502 -0.488132
-2.046453 -6.126007 -0.485099
-2.063784 -6.101518 -0.483352
-2.086313 -6.096471 -0.480581
-2.107345 -6.085053 -0.478012
-2.134572 -6.095698 -0.474266
-2.163502 -6.111221 -0.470165
-2.210464 -6.188913 -0.462812
-2.312057 -6.360385 -0.446701
-2.367505 -6.366175 -0.438650
-2.387527 -6.343157 -0.435930
-2.418042 -6.353783 -0.431350
-2.447450 -6.360137 -0.426949
-2.469833 -6.344213 -0.423757
-2.495390 -6.338027 -0.420003
-2.512124 -6.305328 -0.417770
-2.544949 -6.320611 -0.412752
-2.595851 -6.306854 -0.405278
-2.642219 -6.280293 -0.398614
-2.667463 -6.272846 -0.394949
-2.689002 -6.255428 -0.391931
-2.712586 -6.170484 -0.389258
-2.822058 -6.165949 -0.373586
-2.905171 -6.231049 -0.361160
-3.040472 -6.148429 -0.343760
-3.049875 -6.106206 -0.343131
-3.062382 -6.071558 -0.342009
-3.087555 -6.004466 -0.339804
-3.094627 -5.960233 -0.339634
-3.123321 -5.961652 -0.335957
-3.150005 -5.958706 -0.332641
-3.168158 -5.938333 -0.330740
-3.205140 -5.955896 -0.325821
-3.244321 -5.977186 -0.320589
-3.271640 -5.974557 -0.317306
-3.338000 -5.991192 -0.308963
-3.337656 -5.935466 -0.310190
-3.336670 -5.879526 -0.311524
-3.397694 -5.939285 -0.303039
-3.437426 -5.958534 -0.297979
-3.469088 -5.962505 -0.294232
-3.490207 -5.947258 -0.292175
-3.504114 -5.919301 -0.291272
-3.527548 -5.908370 -0.288898
-3.562593 -5.917540 -0.284742
-3.588672 -5.910868 -0.282013
-3.622119 -5.916574 -0.278171
-3.650782 -5.913848 -0.275100
-3.675270 -5.903963 -0.272701
-3.723178 -5.932539 -0.266735
-3.752977 -5.930756 -0.263584
-3.775906 -5.917651 -0.261508
-3.794430 -5.897495 -0.260123
-3.823532 -5.894165 -0.257154
-3.879280 -5.883035 -0.251664
-3.906095 -5.875572 -0.249117
-3.964805 -5.867831 -0.243335
-3.991627 -5.859860 -0.240859
-4.027031 -5.864377 -0.237134
-4.065085 -5.872363 -0.233048
-4.094226 -5.867019 -0.230307
-4.153265 -5.856787 -0.224786
-4.176167 -5.842077 -0.223026
-4.227053 -5.819547 -0.218821
-4.255973 -5.812866 -0.216246
-4.294190 -5.818530 -0.212354
-4.319917 -5.807084 -0.210285
-4.423198 -5.805990 -0.200479
-4.441094 -5.783741 -0.199606
-4.540145 -5.819291 -0.188984
-4.561903 -5.801377 -0.187629
-4.560408 -5.754690 -0.189542
-4.581211 -5.735876 -0.188338
-4.605659 -5.721503 -0.186640
-4.582547 -5.564096 -0.194927
-4.573216 -5.511000 -0.197889
-4.561701 -5.456027 -0.201136
-4.547497 -5.398659 -0.204736
-4.558360 -5.290607 -0.208210
-4.640594 -5.302430 -0.200456
-4.601264 -5.181750 -0.209040
-4.747276 -5.069176 -0.201483
-4.779343 -5.027134 -0.200717
-4.763756 -4.938976 -0.206135
-4.756740 -4.896349 -0.208734
-4.765816 -4.869521 -0.209271
-4.782281 -4.849833 -0.208874
-4.743900 -4.744357 -0.217153
-4.199216 -2.992859 -0.368982
-4.197052 -2.970090 -0.371141
-4.203876 -2.952430 -0.372391
-4.205194 -2.931768 -0.374208
-4.203039 -2.909310 -0.376376
-4.203913 -2.888605 -0.378239
-4.203065 -2.867084 -0.380271
-4.204673 -2.846970 -0.382055
-4.189507 -2.818264 -0.385478
-4.177035 -2.791237 -0.388610
-4.179729 -2.772151 -0.390244
-4.186491 -2.755193 -0.391473
-4.187786 -2.735587 -0.393211
-4.183600 -2.713430 -0.395448
-4.183549 -2.693462 -0.397261
-4.181656 -2.672771 -0.399213
-4.182519 -2.653562 -0.400868
-4.173367 -2.629853 -0.403416
-4.184176 -2.615602 -0.404056
-4.178071 -2.593739 -0.406217
-4.182986 -2.577085 -0.407302
-4.173764 -2.554321 -0.409624
-4.172112 -2.535189 -0.411184
-4.174699 -2.518135 -0.412287
-4.181090 -2.502917 -0.412975
-4.174393 -2.482355 -0.414766
-4.178189 -2.466492 -0.415529
-4.170278 -2.446033 -0.417255
-4.143054 -2.418065 -0.420607
-4.149108 -2.404020 -0.420900
-4.175140 -2.398138 -0.419333
-4.188697 -2.387401 -0.418783
-4.165178 -2.362446 -0.421413
-4.174919 -2.350759 -0.421009
-4.189172 -2.340995 -0.420113
-4.182618 -2.323611 -0.420951
-4.178368 -2.307439 -0.421490
-1.797284 -6.147937 -0.529528
-1.815120 -6.140010 -0.528827
-1.973794 -6.097196 -0.516943
-2.020065 -6.100730 -0.511917
-2.045459 -6.109388 -0.508904
-2.089836 -6.098289 -0.503699
-2.110360 -6.085320 -0.501252
-2.168972 -6.120816 -0.493312
-2.279240 -6.329197 -0.476859
-2.334275 -6.426698 -0.468608
-2.341820 -6.361651 -0.467930
-2.362780 -6.342199 -0.465060
-2.391773 -6.348771 -0.460874
-2.416364 -6.340614 -0.457363
-2.440778 -6.331692 -0.453857
-2.469565 -6.336069 -0.449638
-2.512315 -6.299052 -0.443520
-2.542738 -6.307435 -0.439019
-2.595564 -6.299687 -0.431293
-2.621055 -6.292975 -0.427584
-2.671376 -6.277577 -0.420306
-2.799581 -6.245060 -0.402042
-2.830291 -6.181057 -0.398110
-2.894830 -6.201006 -0.389009
-2.918550 -6.190011 -0.385834
-3.097857 -6.021830 -0.363842
-3.106434 -5.980570 -0.363271
-3.119581 -5.949535 -0.362026
-3.144571 -5.943254 -0.359006
-3.168416 -5.934582 -0.356191
-3.208115 -5.957599 -0.351010
-3.243856 -5.972039 -0.346466
-3.291416 -6.009026 -0.340182
-3.315547 -5.999663 -0.337461
-3.327940 -5.967844 -0.336528
-3.335738 -5.927804 -0.336302
-3.360271 -5.919683 -0.333599
-3.395156 -5.930631 -0.329386
-3.430571 -5.942061 -0.325131
-3.461770 -5.945368 -0.321535
-3.484295 -5.932830 -0.319252
-3.497303 -5.903458 -0.318396
-3.520619 -5.892499 -0.316044
-3.542543 -5.879097 -0.313922
-3.583014 -5.897509 -0.309118
-3.632516 -5.930588 -0.303037
-3.646075 -5.902367 -0.302219
-3.666718 -5.886225 -0.300393
-3.717119 -5.919068 -0.294292
-3.749553 -5.921720 -0.290822
-3.766355 -5.898854 -0.289627
-3.796062 -5.896742 -0.286603
-3.834372 -5.907963 -0.282378
-3.856806 -5.893864 -0.280447
-3.916461 -5.888276 -0.274554
-3.993885 -5.860190 -0.267602
-4.025791 -5.859568 -0.264476
-4.060974 -5.863429 -0.260920
-4.085474 -5.851497 -0.258878
-4.109291 -5.838514 -0.256951
-4.151037 -5.850834 -0.252565
-4.180261 -5.845064 -0.249938
-4.196623 -5.821247 -0.249101
-4.225778 -5.815151 -0.246523
-4.282087 -5.845802 -0.240260
-4.282139 -5.799735 -0.241701
-4.306260 -5.786352 -0.239873
-4.445732 -5.832848 -0.225466
-4.481296 -5.833076 -0.222200
-4.476577 -5.781705 -0.224346
-4.494111 -5.759023 -0.223519
-4.522738 -5.750288 -0.221230
-4.572691 -5.767763 -0.216135
-4.609100 -5.723661 -0.214419
-4.549611 -5.358994 -0.232875
-4.544227 -5.312904 -0.235074
-4.539316 -5.267868 -0.237205
-4.765183 -5.086188 -0.225658
-4.779203 -5.063002 -0.225506
-4.728411 -4.975766 -0.233337
-4.770761 -4.981119 -0.229710
-4.759540 -4.933994 -0.232664
-4.745275 -4.884466 -0.235983
-4.782139 -4.884275 -0.233083
-4.790321 -4.856647 -0.233687
-4.752153 -4.751302 -0.241480
-4.721828 -4.622235 -0.249876
-4.699020 -4.536144 -0.255764
-3.754668 -3.094222 -0.402723
-4.195625 -3.012436 -0.385859
-4.202869 -2.994921 -0.387029
-4.199215 -2.971307 -0.389267
-4.199871 -2.950228 -0.391092
-4.204990 -2.931691 -0.392493
-4.202903 -2.909287 -0.394586
-4.194851 -2.883820 -0.397238
-4.199018 -2.865033 -0.398731
-4.198177 -2.843685 -0.400690
-4.195670 -2.821599 -0.402794
-4.185765 -2.795878 -0.405565
-4.192627 -2.778881 -0.406773
-4.195675 -2.760026 -0.408316
-4.195607 -2.739732 -0.410123
-4.194120 -2.718889 -0.412032
-4.192835 -2.698311 -0.413890
-4.190136 -2.677232 -0.415837
-4.177663 -2.651746 -0.418610
-4.185945 -2.636234 -0.419495
-4.187891 -2.617901 -0.420895
-4.180929 -2.595692 -0.423021
-4.159156 -2.567116 -0.426371
-4.162429 -2.550092 -0.427472
-4.166846 -2.533754 -0.428410
-4.177012 -2.520087 -0.428787
-4.186048 -2.506071 -0.429191
-4.187356 -2.488948 -0.430178
-4.165052 -2.462219 -0.433085
-4.154321 -2.440749 -0.434914
-4.151492 -2.422876 -0.435981
-4.162176 -2.410749 -0.435820
-4.168778 -2.397180 -0.435910
-4.173898 -2.383256 -0.436033
-4.184011 -2.371518 -0.435642
-4.186903 -2.357214 -0.435759
-4.171599 -2.336275 -0.437297
-4.192842 -2.329487 -0.435690
-4.117573 -2.287000 -0.442032
-1.863001 -6.156082 -0.547768
-1.881549 -6.147107 -0.546736
-1.942916 -6.137099 -0.542127
-2.020908 -6.090693 -0.535110
-2.043032 -6.087178 -0.532722
-2.070452 -6.102911 -0.529470
-2.094712 -6.105116 -0.526598
-2.114491 -6.089657 -0.524298
-2.140580 -6.096696 -0.521005
-2.178525 -6.144920 -0.515929
-2.290195 -6.357485 -0.500445
-2.323256 -6.380081 -0.495915
-2.353717 -6.392562 -0.491711
-2.362741 -6.333694 -0.490549
-2.396290 -6.355272 -0.485819
-2.427301 -6.367563 -0.481422
-2.438282 -6.316420 -0.479878
-2.469144 -6.327538 -0.475454
-2.498668 -6.333844 -0.471207
-2.517585 -6.307985 -0.468473
-2.534170 -6.275727 -0.466068
-2.583279 -6.338039 -0.458984
-2.597066 -6.297709 -0.456980
-2.626639 -6.302524 -0.452712
-2.654980 -6.303524 -0.448629
-2.673847 -6.278464 -0.445921
-2.717767 -6.173043 -0.439714
-2.766814 -6.227876 -0.432737
-2.874597 -6.215478 -0.417787
-2.911120 -6.235106 -0.412745
-2.964734 -6.226771 -0.405538
-2.997037 -6.235171 -0.401195
-3.044400 -6.277521 -0.394733
-3.047836 -6.155331 -0.394942
-3.093098 -6.191883 -0.388882
-3.103190 -6.028709 -0.388771
-3.119623 -6.003841 -0.386930
-3.139531 -5.986537 -0.384626
-3.155285 -5.960924 -0.382937
-3.214602 -5.966383 -0.375728
-3.257329 -5.994500 -0.370336
-3.284307 -5.990993 -0.367194
-3.302586 -5.970533 -0.365302
-3.336477 -5.980106 -0.361254
-3.415924 -5.965092 -0.352409
-3.435380 -5.946979 -0.350495
-3.455988 -5.931086 -0.348447
-3.489073 -5.937588 -0.344703
-3.502614 -5.909125 -0.343683
-3.526956 -5.899910 -0.341200
-3.552396 -5.892528 -0.338593
-3.572658 -5.876166 -0.336721
-3.617416 -5.901403 -0.331532
-3.644772 -5.896657 -0.328750
-3.719213 -5.919052 -0.320595
-3.748408 -5.916440 -0.317652
-3.761330 -5.887405 -0.316929
-3.798377 -5.897112 -0.312979
-3.834785 -5.905330 -0.309148
-3.859422 -5.894716 -0.306922
-3.883770 -5.883578 -0.304757
-3.913800 -5.881062 -0.301859
-3.954751 -5.894843 -0.297539
-3.975407 -5.877614 -0.295937
-3.999514 -5.865552 -0.293898
-4.030399 -5.863390 -0.290988
-4.079853 -5.840532 -0.286856
-4.101820 -5.825038 -0.285181
-4.139373 -5.831572 -0.281496
-4.176546 -5.837136 -0.277888
-4.202940 -5.827335 -0.275705
-4.228914 -5.816833 -0.273596
-4.260458 -5.813792 -0.270791
-4.279069 -5.793073 -0.269668
-4.312256 -5.791875 -0.266695
-4.343859 -5.788287 -0.263948
-4.401717 -5.818806 -0.257883
-4.455149 -5.842686 -0.252421
-4.464106 -5.808678 -0.252627
-4.503628 -5.768812 -0.250338
-4.531851 -5.759506 -0.248152
-4.597999 -5.752306 -0.242631
-4.584554 -5.648374 -0.247074
-4.599198 -5.580088 -0.248032
-4.556273 -5.487671 -0.254695
-4.548298 -5.437105 -0.257043
-4.556387 -5.405575 -0.257421
-4.551896 -5.360003 -0.259338
-4.537560 -5.303863 -0.262447
-4.527800 -5.253539 -0.264991
-4.636509 -5.178557 -0.258809
-4.772377 -5.092383 -0.251298
-4.796672 -5.042333 -0.251385
-4.794447 -4.966999 -0.254587
-4.809284 -4.909324 -0.255838
-4.773499 -4.839952 -0.261430
-4.766292 -4.798262 -0.263735
-4.767045 -4.764383 -0.265132
-4.744622 -4.675684 -0.270653
-3.683832 -3.085922 -0.424101
-3.707155 -3.081830 -0.423075
-3.745422 -3.087757 -0.420576
-3.783422 -3.093093 -0.418151
-3.850680 -3.117651 -0.412851
-3.819651 -3.076146 -0.417404
-3.874517 -3.091627 -0.413439
-3.889613 -3.080605 -0.413457
-3.893868 -3.062506 -0.414566
-3.891766 -3.040403 -0.416312
-3.933614 -3.046154 -0.413805
-3.984831 -3.036252 -0.412074
-4.031895 -3.022905 -0.410892
-4.142000 -3.003025 -0.407468
-4.178831 -3.002761 -0.405847
-4.201603 -2.994167 -0.405565
-4.192202 -2.967352 -0.408251
-4.200795 -2.950732 -0.409298
-4.200405 -2.929185 -0.411166
-4.203872 -2.909841 -0.412689
-4.195750 -2.884350 -0.415247
-4.195006 -2.862978 -0.417138
-4.197596 -2.843477 -0.418727
-4.190697 -2.819150 -0.421140
-4.192722 -2.799596 -0.422755
-4.197217 -2.781394 -0.424141
-4.196635 -2.760735 -0.425948
-4.195853 -2.740123 -0.427749
-4.197725 -2.720964 -0.429293
-4.198105 -2.701217 -0.430933
-4.184765 -2.675086 -0.433692
-4.191775 -2.658865 -0.434692
-4.195143 -2.641047 -0.435956
-4.190611 -2.619747 -0.437827
-4.179270 -2.595600 -0.440198
-4.168916 -2.572226 -0.442419
-4.143866 -2.542662 -0.445766
-4.166835 -2.534633 -0.445124
-4.177111 -2.521099 -0.445451
-4.183552 -2.506060 -0.446017
-4.194865 -2.493266 -0.446113
-4.161660 -2.462028 -0.449692
-4.133821 -2.433602 -0.452739
-4.171452 -2.432420 -0.450473
-4.160307 -2.411499 -0.452001
-4.169430 -2.399040 -0.451825
-4.151338 -2.376072 -0.453709
-4.188782 -2.375171 -0.451104
-4.163822 -2.350228 -0.453334
-4.154760 -2.331847 -0.454210
-4.150357 -2.315593 -0.454622
-4.151563 -2.301759 -0.454497
-1.805550 -6.142588 -0.572802
-1.862843 -6.135343 -0.570345
-1.968443 -6.136440 -0.562729
-1.983397 -6.106971 -0.561684
-2.005090 -6.104342 -0.559650
-2.044270 -6.079220 -0.555815
-2.096017 -6.098430 -0.549977
-2.118072 -6.091881 -0.547416
-2.142292 -6.092429 -0.544495
-2.188108 -6.168992 -0.538736
-2.238691 -6.258797 -0.532297
-2.296077 -6.368193 -0.524920
-2.325022 -6.376898 -0.521117
-2.367307 -6.340306 -0.515347
-2.401477 -6.363939 -0.510723
-2.429535 -6.366888 -0.506845
-2.442262 -6.321425 -0.504907
-2.469453 -6.321321 -0.501084
-2.507261 -6.352862 -0.495871
-2.525079 -6.323575 -0.493222
-2.543798 -6.297456 -0.490449
-2.570409 -6.294552 -0.486651
-2.607221 -6.320399 -0.481526
-2.644002 -6.345100 -0.476405
-2.664439 -6.323724 -0.473414
-2.679106 -6.287014 -0.471187
-2.699532 -6.266540 -0.468224
-2.727152 -6.265409 -0.464339
-2.762382 -6.283901 -0.459476
-2.783600 -6.265679 -0.456465
-2.830900 -6.242236 -0.449877
-2.897630 -6.266488 -0.440842
-2.946619 -6.246656 -0.434247
-2.986657 -6.206383 -0.428947
-3.053082 -6.162375 -0.420397
-3.102525 -6.022954 -0.414567
-3.121680 -6.003857 -0.412296
-3.145195 -5.994009 -0.409485
-3.169693 -5.986186 -0.406578
-3.196952 -5.983905 -0.403342
-3.222552 -5.978141 -0.400354
-3.251896 -5.979674 -0.396911
-3.279692 -5.977921 -0.393702
-3.289574 -5.941415 -0.392850
-3.322869 -5.950159 -0.388988
-3.442673 -5.956479 -0.375596
-3.465216 -5.943985 -0.373280
-3.496184 -5.946558 -0.369909
-3.530193 -5.954192 -0.366179
-3.548216 -5.933453 -0.364528
-3.573306 -5.925114 -0.361998
-3.591307 -5.904553 -0.360400
-3.604848 -5.876597 -0.359392
-3.650215 -5.902305 -0.354363
-3.688251 -5.915049 -0.350300
-3.718028 -5.913692 -0.347314
-3.744052 -5.905988 -0.344829
-3.773067 -5.902972 -0.341994
-3.795070 -5.888569 -0.340066
-3.828001 -5.891394 -0.336790
-3.984773 -5.888634 -0.321809
-3.996351 -5.857885 -0.321337
-4.025279 -5.852940 -0.318738
-4.053103 -5.846180 -0.316299
-4.077992 -5.835021 -0.314243
-4.104761 -5.826455 -0.311978
-4.141174 -5.831375 -0.308557
-4.178329 -5.836929 -0.305073
-4.199435 -5.819827 -0.303566
-4.252009 -5.799749 -0.299351
-4.276861 -5.787594 -0.297447
-4.341166 -5.782311 -0.291944
-4.363710 -5.766699 -0.290377
-4.441361 -5.777186 -0.283418
-4.483450 -5.785944 -0.279592
-4.512480 -5.777762 -0.277341
-4.544355 -5.772955 -0.274773
-4.594759 -5.702246 -0.272501
-4.609666 -5.676610 -0.271990
-4.593351 -5.613954 -0.275126
-4.559566 -5.489767 -0.281505
-4.553440 -5.400551 -0.284661
-4.547054 -5.352913 -0.286620
-4.534037 -5.298365 -0.289337
-4.538447 -5.263934 -0.290056
-4.766021 -5.047794 -0.279838
-4.795459 -5.040136 -0.277937
-4.808411 -5.016126 -0.277868
-4.806241 -4.977530 -0.279464
-4.822961 -4.957475 -0.279006
-4.807860 -4.907112 -0.282021
-4.749595 -4.816556 -0.289704
-4.729926 -4.763446 -0.293188
-4.686652 -4.524013 -0.306041
-4.694056 -4.498305 -0.306651
-3.714586 -3.451726 -0.418617
-3.718024 -3.387022 -0.421649
-3.676816 -3.121521 -0.438873
-3.651119 -3.083015 -0.442611
-3.661969 -3.070492 -0.442826
-3.703440 -3.079095 -0.440133
-3.739105 -3.083270 -0.438043
-3.752976 -3.072307 -0.438064
-3.790401 -3.077061 -0.435889
-3.842011 -3.090838 -0.432430
-3.856751 -3.079798 -0.432476
-3.893326 -3.082872 -0.430521
-3.917536 -3.077603 -0.429757
-3.918727 -3.057447 -0.431148
-3.914241 -3.033797 -0.433074
-3.986200 -3.058028 -0.428047
-4.004583 -3.048326 -0.427957
-4.015418 -3.033871 -0.428577
-4.038079 -3.026527 -0.428161
-4.061954 -3.019719 -0.427671
-4.089631 -3.014954 -0.426879
-4.110340 -3.005855 -0.426739
-4.134815 -2.998775 -0.426299
-4.160856 -2.992384 -0.425757
-4.186403 -2.985486 -0.425290
-4.204473 -2.974181 -0.425498
-4.197911 -2.949099 -0.427835
-4.202714 -2.930435 -0.429201
-4.207447 -2.911782 -0.430577
-4.209286 -2.891631 -0.432197
-4.195239 -2.863153 -0.435141
-4.193229 -2.841268 -0.437063
-4.202489 -2.825365 -0.438042
-4.191049 -2.798881 -0.440712
-4.186543 -2.776173 -0.442787
-4.189507 -2.757389 -0.444231
-4.190319 -2.737650 -0.445825
-4.186312 -2.715699 -0.447775
-4.177215 -2.691495 -0.450092
-4.172030 -2.669425 -0.452052
-4.185098 -2.656191 -0.452528
-4.188855 -2.638655 -0.453696
-4.180209 -2.615563 -0.455779
-4.181464 -2.597268 -0.457030
-4.176578 -2.576411 -0.458693
-4.176085 -2.557775 -0.459948
-4.152902 -2.476686 -0.465813
-4.141866 -2.455004 -0.467459
-4.127581 -2.432357 -0.469255
-4.137136 -2.419854 -0.469169
-4.158746 -2.412400 -0.468094
-4.154707 -2.394800 -0.468842
-4.194436 -2.394777 -0.466234
-4.195777 -2.379729 -0.466392
-4.153276 -2.348079 -0.469712
-4.137859 -2.327411 -0.470920
-4.153907 -2.319019 -0.469693
-4.171448 -2.311343 -0.468261
-1.945443 -6.114649 -0.587481
-2.010502 -6.111811 -0.582040
-2.071439 -6.082271 -0.576065
-2.144213 -6.088873 -0.567884
-2.192039 -6.172815 -0.562362
-2.251009 -6.292010 -0.555511
-2.295342 -6.356089 -0.550205
-2.322383 -6.358816 -0.546755
-2.346694 -6.351660 -0.543547
-2.379565 -6.372046 -0.539321
-2.407449 -6.375118 -0.535604
-2.430639 -6.362663 -0.532374
-2.446151 -6.326168 -0.529982
-2.466817 -6.306134 -0.526980
-2.510606 -6.356046 -0.521313
-2.533372 -6.341559 -0.518026
-2.554084 -6.321123 -0.514964
-2.582860 -6.324183 -0.510966
-2.622352 -6.357232 -0.505719
-2.652899 -6.363992 -0.501503
-2.660408 -6.306792 -0.499974
-2.676060 -6.273083 -0.497513
-2.702744 -6.269608 -0.493776
-2.730415 -6.268593 -0.489937
-2.742427 -6.226636 -0.487957
-2.772235 -6.231274 -0.483903
-2.811998 -6.260760 -0.478690
-2.856926 -6.231533 -0.472425
-2.924478 -6.257287 -0.463574
-2.945188 -6.238431 -0.460746
-3.029970 -6.170112 -0.449519
-3.095715 -6.125809 -0.441184
-3.101557 -6.076928 -0.440401
-3.100462 -6.014328 -0.440484
-3.121989 -6.000291 -0.437884
-3.144060 -5.987498 -0.435250
-3.172851 -5.988508 -0.431842
-3.198792 -5.983527 -0.428809
-3.223964 -5.976906 -0.425899
-3.253348 -5.978516 -0.422516
-3.276426 -5.967571 -0.419921
-3.288903 -5.936198 -0.418626
-3.375609 -5.991265 -0.408738
-3.458006 -6.035035 -0.399502
-3.462302 -5.988522 -0.399334
-3.476887 -5.961328 -0.397965
-3.494295 -5.939502 -0.396287
