ply
format ascii 1.0
comment ---
element vertex 1649
property float x
property float y
property float z
element face 0
property list uchar uint vertex_indices
end_header
-2.677753 -6.021585 0.653293
-2.690120 -6.019262 0.653748
-2.700615 -6.009597 0.652673
-2.712618 -6.006025 0.652894
-2.726487 -6.009540 0.654628
-2.740087 -6.011837 0.656124
-2.753018 -6.011516 0.657085
-2.764917 -6.007426 0.657261
-2.778121 -6.007958 0.658437
-2.789916 -6.003510 0.658567
-2.801117 -5.997101 0.658292
-2.812276 -5.990662 0.658022
-2.823732 -5.985302 0.657996
-2.838066 -5.989280 0.659989
-2.851429 -5.989940 0.661288
-2.864330 -5.989023 0.662265
-2.878656 -5.992395 0.664185
-2.891625 -5.991446 0.665188
-2.902568 -5.984390 0.664878
-2.913068 -5.976132 0.664317
-2.922237 -5.964166 0.662954
-2.934029 -5.959886 0.663278
-2.953256 -5.976413 0.668178
-2.963946 -5.968799 0.667803
-2.977697 -5.969601 0.669291
-2.994800 -5.979230 0.672746
-3.008257 -5.978838 0.674008
-3.019573 -5.972754 0.674022
-3.026637 -5.955789 0.671624
-3.039264 -5.953252 0.672442
-3.054093 -5.956157 0.674490
-3.067650 -5.955722 0.675809
-3.078621 -5.948878 0.675702
-3.091055 -5.945596 0.676406
-3.107682 -5.952202 0.679356
-3.120923 -5.950593 0.680468
-3.134150 -5.948858 0.681566
-3.149321 -5.951466 0.683667
-3.161678 -5.947546 0.684296
-3.174124 -5.943786 0.684974
-3.188644 -5.944539 0.686698
-3.203084 -5.944965 0.688365
-3.217260 -5.944684 0.689885
-3.226818 -5.934505 0.689130
-3.239769 -5.931525 0.690050
-3.256383 -5.936049 0.692728
-3.271528 -5.937332 0.694673
-3.283832 -5.932719 0.695256
-3.298014 -5.931821 0.696722
-3.312792 -5.931981 0.698453
-3.326498 -5.929913 0.699675
-3.339909 -5.927186 0.700756
-3.351694 -5.921289 0.701098
-3.366614 -5.921287 0.702854
-3.383059 -5.923983 0.705272
-3.397919 -5.923563 0.706966
-3.412263 -5.922075 0.708421
-3.428118 -5.923198 0.710522
-3.444406 -5.924925 0.712789
-3.458861 -5.923248 0.714254
-3.470643 -5.916809 0.714576
-3.481355 -5.908522 0.714458
-3.494888 -5.905078 0.715533
-3.513955 -5.910895 0.718898
-3.533230 -5.916790 0.722313
-3.549001 -5.916631 0.724262
-3.553857 -5.898504 0.721775
-3.566292 -5.892856 0.722387
-3.581443 -5.891523 0.724089
-3.597660 -5.891757 0.726205
-3.619862 -5.901213 0.730663
-3.636199 -5.901232 0.732781
-3.651373 -5.899314 0.734433
-3.662976 -5.891858 0.734700
-3.676676 -5.887552 0.735782
-3.701290 -5.899425 0.741021
-3.720099 -5.902349 0.744012
-3.731045 -5.893588 0.744024
-3.743981 -5.887715 0.744796
-3.759192 -5.885053 0.746418
-3.777113 -5.886117 0.749035
-3.795871 -5.888173 0.751942
-3.812699 -5.887344 0.754128
-3.827919 -5.884156 0.755722
-3.842140 -5.879503 0.756954
-3.862053 -5.882442 0.760225
-3.882758 -5.886211 0.763757
-3.894508 -5.877899 0.764099
-3.914444 -5.880287 0.767333
-3.927628 -5.873701 0.768188
-3.942694 -5.869478 0.769706
-3.948307 -5.853141 0.767959
-3.967243 -5.853709 0.770828
-4.002879 -5.874904 0.779391
-4.023432 -5.876881 0.782753
-4.043744 -5.878336 0.786018
-4.061260 -5.876185 0.788328
-4.066864 -5.859588 0.786649
-4.083436 -5.856145 0.788658
-4.103747 -5.856969 0.791903
-4.122880 -5.856204 0.794747
-4.141102 -5.854198 0.797285
-4.160383 -5.853235 0.800163
-4.185270 -5.858435 0.804852
-4.204566 -5.857049 0.807712
-4.217700 -5.848626 0.808584
-4.234095 -5.843738 0.810512
-4.255405 -5.844083 0.814008
-4.273431 -5.840653 0.816451
-4.291350 -5.836951 0.818859
-4.308102 -5.831856 0.820898
-4.325130 -5.826919 0.823027
-4.346989 -5.826869 0.826660
-4.364542 -5.822154 0.828947
-4.382416 -5.817621 0.831333
-4.400938 -5.813593 0.833916
-4.422655 -5.812603 0.837474
-4.440140 -5.807198 0.839731
-4.459891 -5.803881 0.842675
-4.480152 -5.800882 0.845765
-4.496797 -5.794218 0.847758
-4.516620 -5.790472 0.850704
-4.536836 -5.786927 0.853756
-4.559672 -5.785662 0.857577
-4.576134 -5.778277 0.859492
-4.586425 -5.765135 0.859584
-4.589784 -5.745713 0.857649
-4.592362 -5.725733 0.855508
-4.596368 -5.707184 0.853805
-4.599185 -5.687724 0.851773
-4.591278 -5.659053 0.846658
-4.588830 -5.635454 0.843153
-4.588620 -5.614032 0.840314
-4.590578 -5.594674 0.838111
-4.593433 -5.576264 0.836171
-4.594582 -5.556619 0.833752
-4.595016 -5.536604 0.831135
-4.594129 -5.515745 0.828150
-4.589231 -5.491905 0.824044
-4.591767 -5.474355 0.822025
-4.594372 -5.457083 0.820015
-4.591476 -5.435717 0.816469
-4.592045 -5.417368 0.813877
-4.568803 -5.380920 0.804722
-4.574581 -5.367282 0.803556
-4.584856 -5.357263 0.803590
-4.600230 -5.351228 0.804971
-4.577945 -5.317280 0.796103
-4.586812 -5.306904 0.795664
-4.562493 -5.272483 0.786274
-4.566954 -5.259532 0.784611
-4.582282 -5.254644 0.785808
-4.566783 -5.227950 0.778777
-4.565372 -5.211706 0.775475
-4.576333 -5.204456 0.775405
-4.591774 -5.200510 0.776458
-4.595580 -5.188700 0.774423
-4.571764 -5.158311 0.765199
-4.556135 -5.134042 0.758123
-4.560637 -5.123779 0.756235
-4.580679 -5.124136 0.758289
-1.921414 -6.142994 0.611666
-1.932454 -6.102799 0.605906
-1.941656 -6.107918 0.608491
-1.951215 -6.108944 0.610270
-1.961289 -6.099410 0.610021
-1.971166 -6.101009 0.611804
-1.981269 -6.101068 0.613248
-1.991284 -6.114568 0.617180
-2.001904 -6.107430 0.617162
-2.012650 -6.099362 0.616907
-2.023564 -6.082715 0.614957
-2.034418 -6.090351 0.617577
-2.045492 -6.096435 0.619856
-2.056743 -6.096769 0.620986
-2.068137 -6.096157 0.621885
-2.079632 -6.092911 0.622228
-2.091043 -6.078853 0.620438
-2.102749 -6.077948 0.621136
-2.114636 -6.079608 0.622287
-2.126615 -6.080113 0.623176
-2.138734 -6.081458 0.624192
-2.150890 -6.080946 0.624814
-2.163049 -6.078594 0.625045
-2.175169 -6.074213 0.624852
-2.187654 -6.075883 0.625812
-2.200338 -6.079492 0.627128
-2.212636 -6.075521 0.626944
-2.224956 -6.071601 0.626751
-2.237301 -6.067833 0.626572
-2.249816 -6.066142 0.626787
-2.262175 -6.062269 0.626564
-2.274818 -6.061663 0.626976
-2.287550 -6.061756 0.627519
-2.299975 -6.058405 0.627383
-2.312473 -6.055865 0.627405
-2.325234 -6.055816 0.627919
-2.338779 -6.062613 0.629790
-2.351702 -6.063392 0.630478
-2.364122 -6.059875 0.630322
-2.376320 -6.054782 0.629860
-2.388646 -6.050966 0.629659
-2.401734 -6.052947 0.630618
-2.415124 -6.056867 0.631975
-2.427756 -6.055290 0.632252
-2.439748 -6.049539 0.631708
-2.452345 -6.047979 0.632013
-2.466219 -6.054411 0.633927
-2.476680 -6.039849 0.631661
-2.489687 -6.040985 0.632546
-2.503096 -6.044308 0.633887
-2.515372 -6.041131 0.633941
-2.527241 -6.035892 0.633595
-2.540047 -6.035792 0.634297
-2.552043 -6.031497 0.634171
-2.564031 -6.027325 0.634084
-2.577181 -6.028958 0.635186
-2.590484 -6.031185 0.636427
-2.602285 -6.026265 0.636238
-2.614280 -6.022384 0.636274
-2.626465 -6.019449 0.636517
-2.638716 -6.016856 0.636846
-2.649804 -6.009353 0.636190
-2.665006 -6.019222 0.639098
-2.678838 -6.023016 0.640786
-2.690752 -6.018903 0.640872
-2.700790 -6.007514 0.639476
-2.712381 -6.002441 0.639391
-2.725755 -6.004197 0.640728
-2.739682 -6.007844 0.642475
-2.752996 -6.009032 0.643732
-2.766845 -6.011984 0.645375
-2.779002 -6.008803 0.645761
-2.790103 -6.001991 0.645405
-2.802114 -5.998390 0.645731
-2.812496 -5.989379 0.644939
-2.824508 -5.985900 0.645315
-2.835998 -5.980742 0.645353
-2.850632 -5.985594 0.647509
-2.864476 -5.987713 0.649110
-2.877933 -5.988468 0.650440
-2.891131 -5.988299 0.651592
-2.904414 -5.988271 0.652789
-2.913886 -5.976975 0.651605
-2.923682 -5.966835 0.650672
-2.937628 -5.968651 0.652302
-2.952270 -5.972242 0.654329
-2.961589 -5.960935 0.653176
-2.974676 -5.960063 0.654274
-2.993517 -5.974499 0.658690
-3.007166 -5.974698 0.660056
-3.016225 -5.962816 0.658819
-3.030816 -5.965335 0.660715
-3.040224 -5.954536 0.659727
-3.056521 -5.961104 0.662537
-3.069735 -5.959773 0.663639
-3.081846 -5.955666 0.664146
-3.093379 -5.950147 0.664353
-3.105387 -5.945768 0.664820
-3.121333 -5.950576 0.667331
-3.135489 -5.951002 0.668891
-3.147491 -5.946373 0.669342
-3.162382 -5.948229 0.671250
-3.178231 -5.952034 0.673611
-3.191511 -5.949977 0.674678
-3.207357 -5.953394 0.676989
-3.218352 -5.946212 0.676931
-3.226281 -5.932583 0.675421
-3.237760 -5.926565 0.675636
-3.255336 -5.933142 0.678723
-3.270185 -5.933865 0.680500
-3.283686 -5.931719 0.681638
-3.297451 -5.930012 0.682891
-3.312610 -5.930952 0.684766
-3.327893 -5.931978 0.686680
-3.342049 -5.930672 0.688072
-3.352916 -5.923000 0.688003
-3.366341 -5.920176 0.689068
-3.384395 -5.925887 0.692139
-3.399583 -5.926059 0.693939
-3.411922 -5.920907 0.694508
-3.424958 -5.916981 0.695375
-3.440777 -5.917953 0.697414
-3.456997 -5.919469 0.699601
-3.470380 -5.915869 0.700593
-3.482490 -5.910015 0.701061
-3.496563 -5.907486 0.702337
-3.515343 -5.912803 0.705511
-3.532325 -5.914864 0.707931
-3.547012 -5.912951 0.709414
-3.557851 -5.904646 0.709365
-3.567591 -5.894592 0.708900
-3.583060 -5.893763 0.710692
-3.603652 -5.900910 0.714457
-3.622514 -5.905053 0.717519
-3.639257 -5.905676 0.719744
-3.650920 -5.898339 0.720025
-3.660585 -5.887966 0.719564
-3.682099 -5.895463 0.723561
-3.700395 -5.897867 0.726324
-3.717341 -5.898078 0.728566
-3.729721 -5.891467 0.729119
-3.742138 -5.884882 0.729693
-3.762318 -5.889370 0.733091
-3.776369 -5.884932 0.734254
-3.794392 -5.885986 0.736840
-3.819813 -5.897124 0.742044
-3.830154 -5.887155 0.741868
-3.844105 -5.882124 0.742979
-3.855321 -5.873339 0.743139
-3.874594 -5.875305 0.746113
-3.886673 -5.867556 0.746584
-3.908333 -5.872321 0.750359
-3.931642 -5.878957 0.754671
-3.941861 -5.868485 0.754507
-3.953887 -5.860332 0.754974
-3.968286 -5.855142 0.756250
-3.992748 -5.862417 0.760893
-4.022882 -5.876372 0.767388
-4.043504 -5.878237 0.770689
-4.061335 -5.876494 0.773057
-4.074142 -5.868562 0.773778
-4.089072 -5.863109 0.775202
-4.107186 -5.861308 0.777661
-4.125372 -5.859426 0.780138
-4.143952 -5.857831 0.782737
-4.159991 -5.853155 0.784521
-4.187700 -5.861581 0.790008
-4.201858 -5.854430 0.791186
-4.216525 -5.847765 0.792533
-4.232512 -5.842466 0.794301
-4.253841 -5.842875 0.797735
-4.274490 -5.842320 0.800947
-4.290972 -5.837094 0.802865
-4.307631 -5.831929 0.804842
-4.325105 -5.827489 0.807069
-4.344943 -5.825363 0.810016
-4.364592 -5.822850 0.812901
-4.385703 -5.821642 0.816221
-4.402615 -5.815978 0.818271
-4.419550 -5.810207 0.820330
-4.436735 -5.804554 0.822464
-4.457020 -5.801814 0.825518
-4.478956 -5.800489 0.829052
-4.496618 -5.794832 0.831317
-4.512900 -5.787724 0.833175
-4.533278 -5.784379 0.836228
-4.557570 -5.784520 0.840408
-4.574230 -5.777346 0.842359
-4.582488 -5.762357 0.841884
-4.589394 -5.746191 0.841034
-4.591426 -5.725717 0.838806
-4.599079 -5.710418 0.838202
-4.601112 -5.690230 0.836013
-4.597133 -5.664958 0.832142
-4.588563 -5.635986 0.827008
-4.586635 -5.613067 0.823775
-4.586895 -5.592255 0.821174
-4.587291 -5.571775 0.818624
-4.587121 -5.551044 0.815926
-4.590293 -5.533304 0.814162
-4.594080 -5.516256 0.812565
-4.590968 -5.493809 0.809069
-4.591359 -5.474471 0.806538
-4.587327 -5.451874 0.802799
-4.582646 -5.429091 0.798886
-4.581467 -5.409378 0.795922
-4.585498 -5.393983 0.794352
-4.571615 -5.365118 0.787957
-4.581411 -5.354678 0.787902
-4.585844 -5.340374 0.786383
-4.591162 -5.326971 0.785070
-4.582999 -5.303869 0.780168
-4.590675 -5.292758 0.779425
-4.578125 -5.267222 0.773350
-4.577799 -5.250937 0.770465
-4.579322 -5.236295 0.768038
-4.568064 -5.212941 0.762281
-4.569921 -5.199217 0.759900
-4.582494 -5.193226 0.760237
-4.582179 -5.178547 0.757235
-4.565863 -5.153275 0.750151
-4.554450 -5.131817 0.744323
-4.563414 -5.124479 0.743625
-4.571054 -5.116471 0.742556
-1.922575 -6.105524 0.593302
-1.932135 -6.099099 0.593762
-1.941434 -6.102968 0.596042
-1.951002 -6.105079 0.597957
-1.961000 -6.099632 0.598441
-1.971078 -6.096359 0.599269
-1.981319 -6.092670 0.599965
-1.991876 -6.080426 0.599026
-2.002012 -6.099742 0.603867
-2.012908 -6.082029 0.601801
-2.023699 -6.080959 0.602763
-2.034618 -6.086645 0.604933
-2.045742 -6.091371 0.606878
-2.057041 -6.092832 0.608166
-2.068540 -6.098743 0.610242
-2.080098 -6.094902 0.610442
-2.091702 -6.088105 0.610038
-2.103430 -6.083890 0.610074
-2.115401 -6.085739 0.611212
-2.127366 -6.083364 0.611515
-2.139498 -6.083345 0.612228
-2.151729 -6.083447 0.612931
-2.164000 -6.082457 0.613398
-2.176261 -6.079854 0.613530
-2.189087 -6.086678 0.615432
-2.201989 -6.092577 0.617140
-2.214377 -6.088664 0.616960
-2.226647 -6.082797 0.616389
-2.239468 -6.084513 0.617253
-2.250554 -6.063382 0.613734
-2.263355 -6.064825 0.614525
-2.276636 -6.071197 0.616257
-2.289043 -6.067192 0.615996
-2.301872 -6.067655 0.616590
-2.314480 -6.065708 0.616723
-2.327155 -6.064396 0.616979
-2.340038 -6.064900 0.617590
-2.352543 -6.062033 0.617556
-2.365162 -6.060235 0.617734
-2.377826 -6.058844 0.618000
-2.390310 -6.056126 0.618017
-2.403804 -6.060923 0.619501
-2.416393 -6.058959 0.619687
-2.427975 -6.050215 0.618567
-2.440175 -6.046072 0.618352
-2.452978 -6.046007 0.618942
-2.465142 -6.041949 0.618769
-2.477345 -6.038327 0.618695
-2.492126 -6.049939 0.621611
-2.504392 -6.046576 0.621618
-2.515890 -6.039118 0.620838
-2.527627 -6.033291 0.620390
-2.540515 -6.033753 0.621191
-2.553845 -6.036395 0.622440
-2.566713 -6.036558 0.623217
-2.579037 -6.034009 0.623478
-2.591816 -6.033686 0.624194
-2.604157 -6.031281 0.624515
-2.614537 -6.020022 0.623096
-2.627891 -6.022383 0.624393
-2.641398 -6.025237 0.625807
-2.654254 -6.025127 0.626650
-2.665971 -6.020207 0.626550
-2.678802 -6.019943 0.627395
-2.691274 -6.018176 0.627956
-2.702121 -6.010025 0.627252
-2.712980 -6.002142 0.626614
-2.724854 -5.998291 0.626798
-2.738344 -6.000468 0.628213
-2.751583 -6.001554 0.629426
-2.766355 -6.007968 0.631736
-2.777628 -6.001801 0.631514
-2.789894 -5.999160 0.632021
-2.802057 -5.996159 0.632469
-2.815048 -5.995903 0.633492
-2.826200 -5.989533 0.633280
-2.837519 -5.983798 0.633208
-2.850099 -5.982127 0.633983
-2.865155 -5.988102 0.636347
-2.878645 -5.988978 0.637679
-2.890886 -5.985942 0.638220
-2.903194 -5.983079 0.638809
-2.917929 -5.987279 0.640879
-2.925331 -5.970119 0.638520
-2.938432 -5.969511 0.639616
-2.952105 -5.970397 0.641038
-2.963834 -5.965781 0.641323
-2.977095 -5.965331 0.642494
-2.990418 -5.964938 0.643692
-3.009148 -5.978692 0.647893
-3.020829 -5.973599 0.648133
-3.032943 -5.969628 0.648621
-3.041553 -5.956772 0.647229
-3.052480 -5.949917 0.647118
-3.073206 -5.967251 0.652189
-3.083931 -5.959692 0.651955
-3.092748 -5.947623 0.650759
-3.106729 -5.947963 0.652239
-3.121537 -5.950095 0.654122
-3.135163 -5.949312 0.655390
-3.147543 -5.945583 0.656033
-3.160715 -5.943594 0.657065
-3.175882 -5.945952 0.659060
-3.193454 -5.953394 0.662186
-3.207264 -5.952370 0.663477
-3.218375 -5.945460 0.663486
-3.226902 -5.933120 0.662303
-3.238254 -5.926840 0.662462
-3.252599 -5.926752 0.664004
-3.269519 -5.931786 0.666702
-3.284036 -5.931720 0.668283
-3.297133 -5.928694 0.669217
-3.312423 -5.929918 0.671118
-3.329708 -5.934858 0.673874
-3.342062 -5.930062 0.674453
-3.353592 -5.923671 0.674681
-3.366244 -5.919394 0.675397
-3.381654 -5.920206 0.677285
-3.401001 -5.928101 0.680811
-3.413629 -5.923460 0.681491
-3.425863 -5.918075 0.682009
-3.439370 -5.914931 0.683056
-3.453847 -5.913423 0.684495
-3.470450 -5.915504 0.686784
-3.484033 -5.912201 0.687841
-3.500027 -5.912934 0.689854
-3.516707 -5.914663 0.692123
-3.528983 -5.908867 0.692643
-3.542860 -5.905692 0.693793
-3.558446 -5.905228 0.695602
-3.572994 -5.902949 0.696999
-3.586039 -5.898169 0.697817
-3.602184 -5.898245 0.699812
-3.621784 -5.903584 0.703091
-3.637585 -5.902774 0.704921
-3.650313 -5.897116 0.705602
-3.662982 -5.891330 0.706267
-3.678182 -5.889315 0.707862
-3.700200 -5.897335 0.711929
-3.713109 -5.891618 0.712670
-3.728166 -5.888993 0.714187
-3.747071 -5.891818 0.717071
-3.763713 -5.891195 0.719132
-3.779541 -5.889270 0.720897
-3.789363 -5.878807 0.720556
-3.810455 -5.884024 0.724151
-3.828399 -5.884650 0.726633
-3.837391 -5.872915 0.726025
-3.860309 -5.880007 0.730197
-3.859197 -5.854727 0.726180
-3.889719 -5.871569 0.732901
-3.908826 -5.872976 0.735732
-3.929106 -5.875701 0.738940
-3.948438 -5.876980 0.741815
-3.950815 -5.856502 0.739083
-3.970359 -5.857850 0.742030
-3.994161 -5.864298 0.746353
-4.017150 -5.869436 0.750384
-4.044964 -5.880190 0.755948
-4.063902 -5.879795 0.758622
-4.080805 -5.876773 0.760638
-4.098961 -5.875100 0.763049
-4.115378 -5.871215 0.764907
-4.129206 -5.864183 0.765951
-4.143459 -5.857574 0.767138
-4.162372 -5.856216 0.769784
-4.175682 -5.848326 0.770688
-4.208101 -5.861827 0.777496
-4.218698 -5.850595 0.777563
-4.233835 -5.844360 0.779036
-4.253057 -5.842483 0.781757
-4.275206 -5.843584 0.785360
-4.293139 -5.839927 0.787680
-4.308043 -5.832904 0.789091
-4.326626 -5.829650 0.791609
-4.345656 -5.826693 0.794257
-4.363013 -5.821836 0.796408
-4.378295 -5.814719 0.797947
-4.405015 -5.819063 0.802850
-4.418869 -5.810205 0.803971
-4.436666 -5.805186 0.806248
-4.454139 -5.799705 0.808431
-4.475948 -5.798304 0.811865
-4.497620 -5.796554 0.815249
-4.515776 -5.791240 0.817616
-4.535880 -5.787624 0.820534
-4.554151 -5.782119 0.822923
-4.572774 -5.776803 0.825407
-4.586877 -5.767198 0.826610
-4.590016 -5.747568 0.824737
-4.594640 -5.729417 0.823303
-4.595858 -5.708346 0.820938
-4.600898 -5.690832 0.819658
-4.600927 -5.669051 0.817006
-4.585802 -5.634348 0.810201
-4.584736 -5.612168 0.807304
-4.587526 -5.593497 0.805481
-4.585656 -5.571074 0.802397
-4.584763 -5.549719 0.799593
-4.588778 -5.532656 0.798126
-4.594651 -5.517282 0.797158
-4.596313 -5.498646 0.795052
-4.592094 -5.475519 0.791371
-4.582027 -5.448064 0.786138
-4.575269 -5.423628 0.781799
-4.585580 -5.412858 0.781978
-4.586862 -5.395242 0.779750
-4.580798 -5.372272 0.775579
-4.581267 -5.354627 0.773114
-4.584368 -5.339245 0.771317
-4.584798 -5.322134 0.768803
-4.589328 -5.308347 0.767327
-4.584324 -5.287847 0.763368
-4.583773 -5.270953 0.760539
-4.584675 -5.255426 0.758058
-4.583292 -5.238585 0.754972
-4.579976 -5.220722 0.751376
-4.571199 -5.199406 0.746388
-4.558620 -5.175879 0.740443
-4.572089 -5.170729 0.741003
-4.568014 -5.153784 0.737151
-4.564009 -5.137249 0.733304
-4.573200 -5.129928 0.732694
-4.578394 -5.120161 0.731063
-1.923652 -6.070978 0.575748
-1.931643 -6.100400 0.582510
-1.941051 -6.103137 0.584519
-1.950954 -6.097511 0.584993
-1.961120 -6.087904 0.584700
-1.971171 -6.086430 0.585805
-1.981548 -6.078196 0.585642
-1.991982 -6.072727 0.585919
-2.002336 -6.080459 0.588525
-2.013012 -6.080481 0.589690
-2.023830 -6.083591 0.591365
-2.034756 -6.109138 0.597074
-2.046023 -6.092970 0.595148
-2.057363 -6.088471 0.595293
-2.068891 -6.092990 0.597038
-2.080497 -6.090363 0.597431
-2.092267 -6.090773 0.598336
-2.104132 -6.089824 0.598951
-2.116091 -6.088394 0.599438
-2.128048 -6.083918 0.599326
-2.140302 -6.086005 0.600390
-2.152616 -6.086828 0.601191
-2.164992 -6.086979 0.601840
-2.177672 -6.091625 0.603298
-2.191178 -6.109241 0.607145
-2.204046 -6.112302 0.608273
-2.216606 -6.109240 0.608246
-2.228411 -6.094955 0.606113
-2.240534 -6.086201 0.604995
-2.253724 -6.091565 0.606500
-2.266280 -6.088303 0.606389
-2.278500 -6.081264 0.605567
-2.291424 -6.082209 0.606234
-2.303831 -6.077575 0.605857
-2.316016 -6.071035 0.605121
-2.328706 -6.069616 0.605349
-2.341177 -6.066244 0.605215
-2.353673 -6.063271 0.605161
-2.366374 -6.062118 0.605456
-2.380013 -6.068357 0.607154
-2.393680 -6.074277 0.608805
-2.405394 -6.065499 0.607692
-2.418129 -6.064460 0.608051
-2.429401 -6.053511 0.606546
-2.441010 -6.045444 0.605596
-2.454040 -6.046906 0.606465
-2.466468 -6.044528 0.606621
-2.478312 -6.038750 0.606143
-2.491040 -6.038421 0.606716
-2.505257 -6.046513 0.608912
-2.516454 -6.037467 0.607854
-2.528166 -6.031626 0.607420
-2.541289 -6.033423 0.608464
-2.555298 -6.039597 0.610366
-2.568362 -6.040720 0.611317
-2.581043 -6.039870 0.611906
-2.593319 -6.037081 0.612138
-2.605278 -6.032885 0.612114
-2.616567 -6.025784 0.611544
-2.627921 -6.019207 0.611087
-2.644018 -6.033408 0.614674
-2.657574 -6.036148 0.616061
-2.669142 -6.030433 0.615821
-2.678854 -6.017310 0.614150
-2.692584 -6.020664 0.615705
-2.705963 -6.022420 0.616967
-2.714578 -6.005738 0.614632
-2.726404 -6.001686 0.614783
-2.739737 -6.003254 0.616053
-2.753821 -6.007394 0.617849
-2.764242 -5.998232 0.617035
-2.777284 -5.998468 0.618092
-2.789006 -5.994054 0.618243
-2.803243 -5.998182 0.620104
-2.815477 -5.995405 0.620609
-2.828240 -5.994342 0.621470
-2.841146 -5.993663 0.622423
-2.853857 -5.992275 0.623249
-2.867318 -5.993148 0.624543
-2.879738 -5.990693 0.625184
-2.890257 -5.982465 0.624674
-2.904303 -5.984837 0.626315
-2.913779 -5.973666 0.625228
-2.926619 -5.972390 0.626156
-2.939383 -5.970814 0.627038
-2.952344 -5.969712 0.628029
-2.966041 -5.970543 0.629430
-2.978793 -5.968664 0.630291
-2.992930 -5.970417 0.631911
-3.005380 -5.967544 0.632595
-3.020790 -5.972320 0.634871
-3.028085 -5.956029 0.632803
-3.041121 -5.954571 0.633813
-3.054965 -5.955043 0.635237
-3.067379 -5.951852 0.635912
-3.082123 -5.954275 0.637773
-3.094969 -5.951955 0.638656
-3.108128 -5.950305 0.639693
-3.122236 -5.950780 0.641190
-3.136172 -5.950719 0.642588
-3.148961 -5.947912 0.643420
-3.162321 -5.946329 0.644522
-3.174203 -5.941369 0.644918
-3.190122 -5.945252 0.647213
-3.206743 -5.950423 0.649804
-3.219343 -5.946737 0.650511
-3.229302 -5.937421 0.650016
-3.240774 -5.931352 0.650227
-3.257226 -5.935566 0.652674
-3.270778 -5.933635 0.653806
-3.284811 -5.932582 0.655142
-3.298497 -5.930727 0.656317
-3.313785 -5.931933 0.658176
-3.328684 -5.932216 0.659850
-3.343955 -5.933073 0.661666
-3.352795 -5.921539 0.660759
-3.369005 -5.923987 0.662955
-3.383483 -5.923023 0.664412
-3.398607 -5.923129 0.666123
-3.414757 -5.924959 0.668237
-3.427943 -5.921278 0.669133
-3.439313 -5.914308 0.669300
-3.452040 -5.909737 0.670018
-3.466378 -5.907927 0.671372
-3.482448 -5.908997 0.673398
-3.500422 -5.913144 0.676146
-3.517090 -5.914861 0.678362
-3.529495 -5.909289 0.678927
-3.541940 -5.903758 0.679512
-3.560654 -5.908431 0.682468
-3.577771 -5.910282 0.684796
-3.589070 -5.902646 0.684940
-3.603388 -5.899797 0.686212
-3.621859 -5.903362 0.689003
-3.638133 -5.903302 0.690970
-3.652513 -5.900186 0.692238
-3.663460 -5.891768 0.692270
-3.675081 -5.884382 0.692556
-3.693769 -5.887509 0.695359
-3.712537 -5.890536 0.698169
-3.727849 -5.888309 0.699748
-3.748620 -5.893850 0.703220
-3.768234 -5.897471 0.706264
-3.779673 -5.889290 0.706477
-3.792192 -5.882620 0.707070
-3.805897 -5.877567 0.708075
-3.819767 -5.872675 0.709139
-3.838010 -5.873665 0.711673
-3.857274 -5.875844 0.714533
-3.881591 -5.884555 0.719051
-3.893417 -5.876422 0.719417
-3.918795 -5.886008 0.724236
-3.933936 -5.881968 0.725683
-3.945273 -5.872947 0.725898
-3.958744 -5.866631 0.726816
-3.964084 -5.850019 0.725137
-3.983207 -5.850732 0.727886
-4.019172 -5.872050 0.735959
-4.044216 -5.879415 0.740523
-4.063666 -5.879673 0.743303
-4.081217 -5.877453 0.745481
-4.102036 -5.878966 0.748670
-4.118063 -5.874612 0.750366
-4.129830 -5.865170 0.750756
-4.139194 -5.852930 0.750428
-4.154585 -5.847612 0.751955
-4.183323 -5.857318 0.757527
-4.204329 -5.857951 0.760736
-4.220741 -5.853249 0.762557
-4.233809 -5.844738 0.763384
-4.251433 -5.841143 0.765577
-4.273467 -5.842161 0.769073
-4.292531 -5.839760 0.771683
-4.308796 -5.834211 0.773471
-4.322860 -5.826227 0.774621
-4.346704 -5.828341 0.778621
-4.359868 -5.819174 0.779518
-4.373632 -5.810561 0.780600
-4.394781 -5.809343 0.783809
-4.424622 -5.816615 0.789491
-4.438576 -5.807750 0.790629
-4.453789 -5.800049 0.792133
-4.474768 -5.797864 0.795267
-4.495520 -5.795257 0.798330
-4.517299 -5.793436 0.801672
-4.531375 -5.784123 0.802858
-4.550953 -5.779894 0.805576
-4.575589 -5.780193 0.809685
-4.594357 -5.774855 0.812159
-4.596015 -5.753813 0.809934
-4.591675 -5.727533 0.806097
-4.595020 -5.708381 0.804390
-4.601419 -5.692066 0.803530
-4.597345 -5.666677 0.799851
-4.586545 -5.635732 0.794393
-4.585484 -5.613531 0.791588
-4.588751 -5.595235 0.789958
-4.589768 -5.575205 0.787737
-4.587482 -5.552623 0.784650
-4.594060 -5.537619 0.783920
-4.595601 -5.518622 0.781857
-4.592196 -5.495831 0.778498
-4.587700 -5.472464 0.774863
-4.586040 -5.451666 0.771972
-4.582177 -5.429418 0.768511
-4.586299 -5.413713 0.767113
-4.601542 -5.406804 0.768561
-4.591097 -5.380308 0.763380
-4.576988 -5.351472 0.757270
-4.578057 -5.334518 0.755035
-4.572886 -5.313208 0.751198
-4.572496 -5.295793 0.748559
-4.586734 -5.289374 0.749580
-4.598120 -5.281018 0.749835
-4.571028 -5.245233 0.740446
-4.590909 -5.243511 0.742757
-4.587523 -5.225465 0.739248
-4.573986 -5.200692 0.733221
-4.540501 -5.162580 0.722307
-4.546848 -5.152552 0.721166
-4.584237 -5.163928 0.727533
-4.584356 -5.150012 0.724778
-4.557944 -5.105399 0.712813
-1.923257 -6.069564 0.564169
-1.931227 -6.100663 0.571041
-1.940828 -6.100060 0.572407
-1.950783 -6.094457 0.572855
-1.960754 -6.092836 0.573943
-1.970980 -6.088020 0.574420
-1.981286 -6.085795 0.575297
-1.991673 -6.087560 0.576822
-2.002300 -6.085898 0.577694
-2.013059 -6.086356 0.578889
-2.023997 -6.085386 0.579780
-2.035044 -6.096970 0.582849
-2.046333 -6.096542 0.583742
-2.057731 -6.088824 0.583289
-2.069239 -6.084811 0.583446
-2.080894 -6.084229 0.584170
-2.092753 -6.088097 0.585649
-2.104657 -6.087147 0.586226
-2.116602 -6.083922 0.586357
-2.128594 -6.079802 0.586291
-2.140923 -6.083293 0.587563
-2.153578 -6.091769 0.589705
-2.166141 -6.094737 0.590831
-2.183816 -6.196859 0.609861
-2.199837 -6.250361 0.620112
-2.213378 -6.253020 0.621154
-2.226687 -6.250830 0.621301
-2.239748 -6.244659 0.620712
-2.253103 -6.242624 0.620861
-2.266269 -6.237957 0.620523
-2.279374 -6.232714 0.620073
-2.292393 -6.226729 0.619483
-2.306467 -6.232367 0.621011
-2.320775 -6.239592 0.622831
-2.333275 -6.228487 0.621306
-2.346798 -6.227681 0.621667
-2.358839 -6.213726 0.619624
-2.372430 -6.213972 0.620189
-2.386594 -6.218778 0.621599
-2.400315 -6.219689 0.622306
-2.412458 -6.208590 0.620815
-2.425676 -6.206044 0.620908
-2.441499 -6.221925 0.624409
-2.453429 -6.210296 0.622854
-2.466562 -6.207278 0.622899
-2.479298 -6.201899 0.622521
-2.495058 -6.215466 0.625666
-2.508731 -6.215705 0.626362
-2.518166 -6.191229 0.622484
-2.529274 -6.177543 0.620617
-2.545672 -6.193680 0.624315
-2.559035 -6.192653 0.624837
-2.572237 -6.190787 0.625219
-2.586781 -6.195799 0.626905
-2.598391 -6.185936 0.625825
-2.602613 -6.140666 0.618116
-2.618475 -6.152568 0.621139
-2.631168 -6.149198 0.621313
-2.636979 -6.114772 0.615650
-2.655226 -6.136812 0.620643
-2.672583 -6.153980 0.624747
-2.676383 -6.112877 0.617841
-2.684323 -6.090573 0.614493
-2.699727 -6.099447 0.617074
-2.699307 -6.044793 0.607580
-2.709538 -6.033813 0.606397
-2.722041 -6.031880 0.606953
-2.735964 -6.035265 0.608543
-2.745245 -6.021289 0.606820
-2.759806 -6.026861 0.608861
-2.772830 -6.026659 0.609811
-2.777884 -5.998492 0.605379
-2.790424 -5.996923 0.606085
-2.804191 -5.999443 0.607598
-2.816376 -5.996517 0.608071
-2.829519 -5.996705 0.609164
-2.847275 -6.011586 0.613138
-2.859204 -6.007467 0.613426
-2.863610 -5.979974 0.609147
-2.881831 -5.995498 0.613305
-2.895833 -5.997716 0.614874
-2.899902 -5.970290 0.610613
-2.915754 -5.977985 0.613285
-2.929661 -5.979733 0.614800
-2.942725 -5.978920 0.615823
-2.955660 -5.977646 0.616769
-2.967039 -5.972002 0.616855
-2.981906 -5.975856 0.618851
-2.996308 -5.978228 0.620568
-3.009165 -5.976335 0.621444
-3.018482 -5.965168 0.620464
-3.028994 -5.957241 0.620141
-3.041482 -5.954398 0.620855
-3.057476 -5.960247 0.623344
-3.070293 -5.957993 0.624204
-3.081564 -5.951912 0.624295
-3.094799 -5.950566 0.625363
-3.108026 -5.949107 0.626420
-3.122773 -5.951103 0.628200
-3.136258 -5.950006 0.629359
-3.150608 -5.950774 0.630917
-3.162777 -5.946487 0.631442
-3.176895 -5.946501 0.632870
-3.190401 -5.945038 0.634004
-3.206358 -5.948783 0.636240
-3.218821 -5.944832 0.636882
-3.231140 -5.940536 0.637460
-3.246804 -5.943191 0.639514
-3.263172 -5.947100 0.641851
-3.274139 -5.939773 0.641825
-3.285492 -5.933259 0.641977
-3.298085 -5.929227 0.642667
-3.312900 -5.929527 0.644292
-3.327640 -5.929536 0.645872
-3.342673 -5.929972 0.647558
-3.358706 -5.932162 0.649639
-3.373148 -5.931175 0.651052
-3.386173 -5.927436 0.651881
-3.399915 -5.924962 0.652997
-3.415661 -5.926044 0.654904
-3.429328 -5.923226 0.655973
-3.440684 -5.916220 0.656136
-3.452595 -5.910201 0.656523
-3.465355 -5.905649 0.657244
-3.481805 -5.907407 0.659377
-3.497314 -5.907383 0.661133
-3.514932 -5.910770 0.663670
-3.532628 -5.914073 0.666212
-3.548010 -5.913347 0.667871
-3.564716 -5.914650 0.670007
-3.573514 -5.903009 0.669234
-3.586800 -5.898637 0.670115
-3.604859 -5.901760 0.672718
-3.623518 -5.905611 0.675513
-3.639247 -5.904693 0.677241
-3.654015 -5.902170 0.678620
-3.661960 -5.889187 0.677602
-3.674624 -5.883409 0.678255
-3.689510 -5.880901 0.679683
-3.710742 -5.887638 0.683289
-3.730022 -5.891239 0.686196
-3.751030 -5.897110 0.689667
-3.768244 -5.897282 0.691830
-3.779007 -5.888161 0.691817
-3.792422 -5.882775 0.692704
-3.809166 -5.881952 0.694697
-3.821803 -5.875341 0.695330
-3.838111 -5.873688 0.697172
-3.856173 -5.874266 0.699580
-3.879198 -5.881287 0.703579
-3.897873 -5.882255 0.706151
-3.919811 -5.887302 0.709752
-3.933708 -5.881657 0.710774
-3.946905 -5.875046 0.711580
-3.960859 -5.869346 0.712632
-3.970146 -5.857699 0.712231
-3.978994 -5.845546 0.711715
-3.997175 -5.844970 0.714109
-4.037854 -5.871745 0.723416
-4.052459 -5.866230 0.724665
-4.068356 -5.862176 0.726312
-4.078723 -5.851435 0.726287
-4.108646 -5.863729 0.732173
-4.125967 -5.860894 0.734241
-4.141608 -5.855970 0.735806
-4.157540 -5.851270 0.737462
-4.177463 -5.850977 0.740301
-4.198702 -5.851959 0.743518
-4.217722 -5.850244 0.746076
-4.227395 -5.838048 0.745907
-4.255259 -5.845719 0.751033
-4.274768 -5.843996 0.753722
-4.292247 -5.839907 0.755823
-4.309254 -5.835171 0.757790
-4.328790 -5.832955 0.760480
-4.346432 -5.828580 0.762629
-4.362137 -5.822060 0.764233
-4.373644 -5.811142 0.764664
-4.391672 -5.806790 0.766935
-4.419336 -5.811937 0.771891
-4.441665 -5.811451 0.775344
-4.455600 -5.802486 0.776469
-4.471303 -5.795167 0.778088
-4.495518 -5.795950 0.782046
-4.512080 -5.789166 0.783899
-4.529845 -5.783404 0.786082
-4.548436 -5.778279 0.788486
-4.571318 -5.776987 0.792044
-4.595240 -5.776430 0.795868
-4.602467 -5.760449 0.795204
-4.593398 -5.729849 0.790208
-4.594957 -5.709085 0.788084
-4.597792 -5.689616 0.786321
-4.599964 -5.669713 0.784402
-4.589367 -5.638906 0.779145
-4.588620 -5.616933 0.776508
-4.590834 -5.597696 0.774663
-4.592180 -5.577900 0.772602
-4.592393 -5.557353 0.770259
-4.590152 -5.534995 0.767291
-4.581267 -5.507466 0.762627
-4.578443 -5.485218 0.759537
-4.590544 -5.475222 0.760265
-4.588099 -5.453729 0.757271
-4.583090 -5.430508 0.753627
-4.571959 -5.402850 0.748441
-4.599247 -5.405283 0.752933
-4.581697 -5.373303 0.746126
-4.575931 -5.350783 0.742280
-4.572927 -5.330708 0.739118
-4.566041 -5.308081 0.734982
-4.570744 -5.294386 0.733701
-4.593567 -5.294166 0.736845
-4.604583 -5.285412 0.737032
-4.603457 -5.268127 0.734213
-4.584430 -5.238454 0.727025
-4.580480 -5.219966 0.723497
-4.570759 -5.197819 0.718563
-4.563011 -5.177480 0.714097
-4.565422 -5.164532 0.712049
-4.580300 -5.160373 0.712935
-4.586967 -5.150822 0.711823
-4.564451 -5.121959 0.703800
-4.577155 -5.117074 0.704062
-1.922444 -6.077955 0.554225
-1.931448 -6.086717 0.557153
-1.940455 -6.101725 0.561101
-1.950172 -6.104870 0.563005
-1.960174 -6.105535 0.564442
-1.970449 -6.103052 0.565293
-1.980868 -6.101292 0.566216
-1.991549 -6.094580 0.566237
-2.002218 -6.096149 0.567625
-2.013065 -6.098080 0.569026
-2.024057 -6.104889 0.571221
-2.035320 -6.095261 0.570530
-2.046668 -6.100291 0.572324
-2.058146 -6.093615 0.572043
-2.069682 -6.084619 0.571310
-2.081347 -6.080881 0.571445
-2.093225 -6.083784 0.572696
-2.105175 -6.083545 0.573362
-2.117191 -6.081866 0.573741
-2.129264 -6.079242 0.573920
-2.141592 -6.081687 0.574958
-2.154136 -6.086760 0.576431
-2.167204 -6.100435 0.579395
-2.187005 -6.242619 0.604974
-2.200985 -6.254696 0.607651
-2.214419 -6.254813 0.608205
-2.227564 -6.249663 0.607815
-2.240930 -6.247681 0.607970
-2.254089 -6.242641 0.607576
-2.267916 -6.246167 0.608690
-2.280833 -6.238117 0.607749
-2.294072 -6.234243 0.607544
-2.308085 -6.238762 0.608830
-2.322349 -6.245183 0.610458
-2.335950 -6.244446 0.610817
-2.348719 -6.235994 0.609806
-2.362648 -6.238383 0.610734
-2.375738 -6.233407 0.610355
-2.389096 -6.230941 0.610433
-2.402331 -6.227641 0.610372
-2.415378 -6.223129 0.610104
-2.429065 -6.223537 0.610729
-2.443072 -6.226129 0.611760
-2.456710 -6.226016 0.612320
-2.468729 -6.215271 0.610981
-2.483042 -6.219737 0.612394
-2.497848 -6.226933 0.614317
-2.510447 -6.220488 0.613795
-2.521834 -6.207336 0.612074
-2.535021 -6.205037 0.612329
-2.548898 -6.206614 0.613303
-2.563005 -6.209298 0.614496
-2.575649 -6.204170 0.614287
-2.589148 -6.203589 0.614921
-2.603779 -6.208601 0.616593
-2.617558 -6.209189 0.617477
-2.626757 -6.188028 0.614398
-2.639185 -6.182685 0.614225
-2.651498 -6.176996 0.614003
-2.667130 -6.186144 0.616524
-2.681107 -6.187669 0.617664
-2.692330 -6.177388 0.616643
-2.703064 -6.165416 0.615321
-2.714488 -6.156642 0.614601
-2.728086 -6.156785 0.615547
-2.747858 -6.180941 0.620973
-2.758181 -6.167879 0.619503
-2.770172 -6.161481 0.619283
-2.786500 -6.171214 0.622092
-2.799389 -6.168031 0.622505
-2.806931 -6.145838 0.619365
-2.823384 -6.155453 0.622207
-2.841305 -6.169662 0.625938
-2.851246 -6.156342 0.624498
-2.858466 -6.134327 0.621418
-2.866030 -6.114046 0.618666
-2.877865 -6.108021 0.618622
-2.885553 -6.088978 0.616109
-2.891085 -6.063722 0.612410
-2.911201 -6.083734 0.617366
-2.924369 -6.082089 0.618201
-2.939802 -6.087081 0.620326
-2.937232 -6.039249 0.612293
-2.935611 -5.995461 0.605014
-2.947644 -5.991511 0.605420
-2.960960 -5.991134 0.606530
-2.972845 -5.986705 0.606866
-2.984745 -5.982320 0.607221
-2.999639 -5.985930 0.609148
-3.014129 -5.988248 0.610839
-3.022012 -5.973208 0.609138
-3.030946 -5.961145 0.608021
-3.044698 -5.961456 0.609350
-3.056002 -5.955526 0.609457
-3.069676 -5.955456 0.610735
-3.083145 -5.954759 0.611902
-3.094623 -5.949181 0.612108
-3.106125 -5.943671 0.612336
-3.121730 -5.947748 0.614494
-3.135174 -5.946609 0.615622
-3.148066 -5.944113 0.616488
-3.164930 -5.950469 0.619155
-3.178353 -5.948898 0.620236
-3.191743 -5.947161 0.621296
-3.205956 -5.947115 0.622712
-3.219536 -5.945581 0.623838
-3.232170 -5.941951 0.624546
-3.245603 -5.939940 0.625598
-3.261994 -5.943941 0.627901
-3.274173 -5.939130 0.628401
-3.286500 -5.934594 0.628966
-3.297326 -5.927040 0.628913
-3.313203 -5.929461 0.630946
-3.327675 -5.928957 0.632386
-3.344622 -5.933088 0.634812
-3.359044 -5.932188 0.636199
-3.374218 -5.932583 0.637875
-3.388559 -5.931283 0.639207
-3.401156 -5.926668 0.639849
-3.414143 -5.922724 0.640645
-3.428976 -5.922046 0.642149
-3.441066 -5.916369 0.642597
-3.453782 -5.911774 0.643287
-3.470343 -5.913826 0.645422
-3.483500 -5.909837 0.646269
-3.494757 -5.902555 0.646413
-3.510142 -5.902239 0.648082
-3.530641 -5.910313 0.651602
-3.547173 -5.911531 0.653649
-3.559827 -5.906252 0.654288
-3.570027 -5.896974 0.654055
-3.586007 -5.896980 0.655884
-3.606449 -5.903900 0.659269
-3.628741 -5.913425 0.663266
-3.641264 -5.907472 0.663835
-3.650932 -5.897110 0.663427
-3.665169 -5.893744 0.664601
-3.678789 -5.889370 0.665563
-3.693992 -5.887286 0.667060
-3.708740 -5.884422 0.668400
-3.731906 -5.893735 0.672541
-3.751410 -5.897421 0.675432
-3.766429 -5.894466 0.676825
-3.781394 -5.891335 0.678198
-3.793173 -5.883641 0.678533
-3.804603 -5.875453 0.678767
-3.828125 -5.883878 0.682895
-3.839925 -5.876024 0.683248
-3.859793 -5.879030 0.686172
-3.879166 -5.881148 0.688922
-3.898954 -5.883606 0.691786
-3.910660 -5.875269 0.692114
-3.925342 -5.870776 0.693377
-3.946293 -5.874242 0.696576
-3.958838 -5.866779 0.697178
-3.971718 -5.859701 0.697893
-3.984122 -5.851985 0.698474
-4.025099 -5.879527 0.707684
-4.042677 -5.877734 0.709794
-4.055867 -5.870469 0.710590
-4.063224 -5.856149 0.709664
-4.077297 -5.849893 0.710749
-4.096506 -5.849610 0.713352
-4.120816 -5.855086 0.717439
-4.146296 -5.861610 0.721844
-4.161500 -5.856050 0.723251
-4.167278 -5.839702 0.721947
-4.193013 -5.845866 0.726397
-4.209753 -5.841698 0.728258
-4.243196 -5.855803 0.734866
-4.257143 -5.848146 0.735920
-4.273765 -5.843305 0.737737
-4.289452 -5.837332 0.739295
-4.311031 -5.837499 0.742503
-4.328577 -5.833199 0.744583
-4.347045 -5.829710 0.746920
-4.361824 -5.822251 0.748240
-4.376139 -5.814227 0.749442
-4.395561 -5.811283 0.752047
-4.417413 -5.810593 0.755310
-4.437771 -5.808194 0.758161
-4.457625 -5.805102 0.760871
-4.472520 -5.796998 0.762246
-4.487990 -5.789356 0.763781
-4.509023 -5.786928 0.766803
-4.528045 -5.782398 0.769284
-4.550607 -5.781024 0.772698
-4.579373 -5.785187 0.777734
-4.594284 -5.776289 0.779111
-4.600594 -5.759487 0.778242
-4.601610 -5.737992 0.776014
-4.595428 -5.710243 0.771944
-4.595785 -5.688575 0.769603
-4.595237 -5.666302 0.767053
-4.589437 -5.639679 0.763178
-4.587543 -5.616705 0.760334
-4.590377 -5.597986 0.758715
-4.592813 -5.579091 0.757005
-4.592113 -5.557750 0.754511
-4.585989 -5.532156 0.750662
-4.580667 -5.507539 0.747035
-4.581213 -5.487985 0.744889
-4.585361 -5.471546 0.743644
-4.587350 -5.453569 0.741856
-4.574946 -5.424480 0.736499
-4.581931 -5.410949 0.735941
-4.583317 -5.393251 0.733987
-4.588349 -5.378593 0.732913
-4.581486 -5.355128 0.728917
-4.578876 -5.335238 0.725952
-4.579227 -5.317877 0.723692
-4.569039 -5.293045 0.718872
-4.580367 -5.284363 0.719218
-4.563800 -5.255658 0.712848
-4.577376 -5.249096 0.713669
-4.578169 -5.233593 0.711407
-4.563332 -5.207391 0.705426
-4.567431 -5.194918 0.703906
-4.569894 -5.181587 0.701969
-4.575332 -5.170595 0.700697
-4.574132 -5.155345 0.697847
-4.556481 -5.129323 0.691171
-4.554576 -5.114362 0.688134
-4.578033 -5.116593 0.690891
-1.920987 -6.100943 0.546572
-1.930918 -6.091246 0.546395
-1.940236 -6.100212 0.549234
-1.949518 -6.117333 0.553381
-1.959849 -6.111061 0.553622
-1.970256 -6.106949 0.554166
-1.980771 -6.104498 0.554933
-1.991601 -6.094131 0.554326
-2.002265 -6.100001 0.556378
-2.013169 -6.103872 0.558051
-2.024310 -6.102334 0.558768
-2.035564 -6.110670 0.561098
-2.047019 -6.097508 0.559761
-2.058539 -6.090542 0.559417
-2.070135 -6.083485 0.559011
-2.081851 -6.080093 0.559181
-2.093761 -6.082220 0.560249
-2.105789 -6.083629 0.561159
-2.117909 -6.084074 0.561871
-2.130026 -6.081287 0.562002
-2.142323 -6.081616 0.562635
-2.154844 -6.085282 0.563814
-2.167646 -6.092635 0.565602
-2.188808 -6.260733 0.594929
-2.202211 -6.260401 0.595397
-2.215209 -6.252505 0.594549
-2.228444 -6.248626 0.594376
-2.241788 -6.246193 0.594441
-2.255655 -6.250510 0.595661
-2.269301 -6.251128 0.596239
-2.282476 -6.245780 0.595784
-2.295727 -6.241577 0.595524
-2.309735 -6.245601 0.596687
-2.323891 -6.250556 0.598016
-2.337146 -6.246253 0.597747
-2.350628 -6.244304 0.597891
-2.363579 -6.237770 0.597245
-2.377511 -6.239961 0.598123
-2.390892 -6.237465 0.598197
-2.403932 -6.232468 0.597844
-2.416991 -6.227939 0.597584
-2.430307 -6.225555 0.597709
-2.443943 -6.225546 0.598262
-2.457089 -6.222199 0.598245
-2.470165 -6.218586 0.598195
-2.485127 -6.227119 0.600290
-2.499075 -6.228879 0.601214
-2.511817 -6.223314 0.600868
-2.524210 -6.216010 0.600229
-2.537859 -6.216146 0.600915
-2.551494 -6.216164 0.601597
-2.564535 -6.212965 0.601728
-2.577341 -6.208662 0.601679
-2.591227 -6.209999 0.602646
-2.605441 -6.212844 0.603898
-2.618525 -6.210033 0.604163
-2.631905 -6.208686 0.604705
-2.643048 -6.197006 0.603420
-2.656506 -6.196223 0.604094
-2.670183 -6.196369 0.604951
-2.683634 -6.195450 0.605634
-2.695279 -6.186852 0.604954
-2.707998 -6.182968 0.605135
-2.720437 -6.178017 0.605138
-2.735649 -6.184206 0.607168
-2.749479 -6.184663 0.608180
-2.760801 -6.175409 0.607450
-2.772745 -6.168735 0.607198
-2.788354 -6.175714 0.609444
-2.801559 -6.173635 0.610059
-2.813623 -6.167465 0.609941
-2.824959 -6.158860 0.609389
-2.838166 -6.156857 0.610058
-2.851768 -6.156143 0.610979
-2.866310 -6.158450 0.612472
-2.873584 -6.136864 0.609570
-2.886194 -6.132982 0.609943
-2.901489 -6.137570 0.611899
-2.914013 -6.133288 0.612226
-2.930551 -6.141283 0.614851
-2.943220 -6.137263 0.615256
-2.956183 -6.134108 0.615833
-2.972136 -6.139642 0.618053
-2.986342 -6.139864 0.619294
-3.002691 -6.146011 0.621667
-3.016944 -6.146000 0.622896
-3.029241 -6.140477 0.623097
-3.040904 -6.133263 0.622985
-3.055489 -6.133922 0.624380
-3.066705 -6.125555 0.624068
-3.067261 -6.089601 0.618484
-3.072237 -6.065817 0.615214
-3.064842 -6.011293 0.606022
-3.057844 -5.959094 0.597239
-3.068652 -5.951938 0.597125
-3.082738 -5.952797 0.598570
-3.095174 -5.949548 0.599231
-3.106413 -5.943426 0.599342
-3.123591 -5.951183 0.602171
-3.136800 -5.949470 0.603167
-3.148740 -5.944782 0.603591
-3.162149 -5.943377 0.604669
-3.176104 -5.943084 0.605979
-3.190397 -5.943405 0.607423
-3.205137 -5.944551 0.609045
-3.218565 -5.942733 0.610092
-3.230771 -5.938242 0.610617
-3.242322 -5.932355 0.610870
-3.257145 -5.933222 0.612487
-3.271124 -5.932212 0.613741
-3.286486 -5.933874 0.615548
-3.302174 -5.936012 0.617468
-3.313300 -5.928992 0.617542
-3.327647 -5.928257 0.618904
-3.342756 -5.928867 0.620555
-3.355689 -5.925191 0.621342
-3.368126 -5.920529 0.621936
-3.382856 -5.920094 0.623412
-3.399566 -5.923170 0.625630
-3.412089 -5.918430 0.626244
-3.425580 -5.915394 0.627222
-3.439323 -5.912736 0.628291
-3.452889 -5.909682 0.629290
-3.469709 -5.912216 0.631476
-3.484584 -5.911207 0.632935
-3.495605 -5.903518 0.632996
-3.511061 -5.903321 0.634654
-3.529780 -5.908423 0.637458
-3.544372 -5.906470 0.638780
-3.557052 -5.901296 0.639426
-3.570106 -5.896689 0.640206
-3.585083 -5.895105 0.641650
-3.612285 -5.912743 0.647274
-3.623743 -5.905228 0.647478
-3.635601 -5.898339 0.647828
-3.647903 -5.892121 0.648334
-3.666169 -5.894934 0.650836
-3.684348 -5.897411 0.653289
-3.696349 -5.890494 0.653690
-3.711199 -5.887759 0.655031
-3.730894 -5.891991 0.657943
-3.745302 -5.888350 0.659125
-3.764850 -5.891972 0.661955
-3.783263 -5.893759 0.664403
-3.793621 -5.884066 0.664283
-3.801115 -5.870427 0.663278
-3.817306 -5.868844 0.665022
-3.852600 -5.893116 0.672702
-3.864873 -5.885739 0.673188
-3.882246 -5.885143 0.675252
-3.893966 -5.876918 0.675580
-3.912786 -5.877972 0.678077
-3.935224 -5.883524 0.681657
-3.936191 -5.861235 0.678759
-3.954739 -5.861547 0.681165
-3.972437 -5.860607 0.683309
-3.994408 -5.864833 0.686709
-4.017000 -5.869565 0.690273
-4.055210 -5.893129 0.698385
-4.060581 -5.876265 0.696874
-4.067200 -5.861026 0.695759
-4.083930 -5.857906 0.697585
-4.097980 -5.851495 0.698642
-4.118360 -5.852394 0.701512
-4.141136 -5.855845 0.705052
-4.153872 -5.847538 0.705742
-4.174105 -5.847683 0.708551
-4.195279 -5.848677 0.711614
-4.214749 -5.847547 0.714194
-4.234166 -5.846167 0.716755
-4.265182 -5.857259 0.722509
-4.273602 -5.843491 0.722030
-4.291186 -5.839577 0.724078
-4.307137 -5.833778 0.725683
-4.324100 -5.828928 0.727568
-4.340966 -5.823839 0.729430
-4.361218 -5.822107 0.732205
-4.381631 -5.820341 0.735019
-4.400386 -5.816692 0.737387
-4.418324 -5.812057 0.739538
-4.434855 -5.805871 0.741319
-4.453698 -5.801834 0.743712
-4.471691 -5.796803 0.745882
-4.491326 -5.793205 0.748480
-4.509468 -5.788003 0.750688
-4.531946 -5.786756 0.754017
-4.559436 -5.789982 0.758629
-4.580158 -5.786614 0.761482
-4.589887 -5.772956 0.761516
-4.597188 -5.757101 0.760943
-4.602723 -5.739713 0.759938
-4.599443 -5.714544 0.756721
-4.594508 -5.688158 0.753119
-4.593464 -5.665453 0.750529
-4.587502 -5.638693 0.746732
-4.582735 -5.613256 0.743264
-4.587204 -5.595951 0.742118
-4.589828 -5.577222 0.740524
-4.592441 -5.558645 0.738935
-4.591507 -5.537309 0.736482
-4.582443 -5.509551 0.732046
-4.585879 -5.492290 0.730685
-4.587384 -5.473654 0.728851
-4.585834 -5.452804 0.726275
-4.584205 -5.432159 0.723681
-4.580074 -5.409839 0.720483
-4.586044 -5.395639 0.719708
-4.588500 -5.378931 0.718074
-4.586071 -5.358758 0.715260
-4.591583 -5.344864 0.714321
-4.574852 -5.314641 0.708100
-4.571072 -5.294486 0.704939
-4.570168 -5.276783 0.702440
-4.578019 -5.265733 0.701967
-4.572996 -5.245663 0.698461
-4.571467 -5.228456 0.695751
-4.572637 -5.213490 0.693642
-4.564099 -5.192053 0.689276
-4.604213 -5.204721 0.696035
-4.579070 -5.172456 0.687820
-4.554627 -5.141285 0.679787
-4.544656 -5.120481 0.675048
-4.548175 -5.109140 0.673340
-4.708465 -5.202199 0.706705
-1.917288 -6.172902 0.546496
-1.929842 -6.109245 0.537728
-1.939893 -6.102699 0.538001
-1.950362 -6.088190 0.536941
-1.959968 -6.103449 0.540617
-1.970320 -6.102554 0.541646
-1.981173 -6.087795 0.540379
-1.991580 -6.098724 0.543224
-2.002400 -6.099888 0.544438
-2.013461 -6.095582 0.544712
-2.024619 -6.095235 0.545583
-2.035928 -6.095374 0.546486
-2.047387 -6.092950 0.546924
-2.058925 -6.082927 0.546066
-2.070585 -6.080545 0.546420
-2.082392 -6.080844 0.547176
-2.094407 -6.085742 0.548655
-2.106448 -6.085155 0.549194
-2.118647 -6.086683 0.550051
-2.130698 -6.080342 0.549573
-2.142881 -6.076790 0.549529
-2.155734 -6.088077 0.551929
-2.168509 -6.093909 0.553403
-2.189633 -6.259634 0.581522
-2.203050 -6.259213 0.581951
-2.216436 -6.257490 0.582147
-2.229528 -6.250806 0.581502
-2.243152 -6.251982 0.582162
-2.256827 -6.253204 0.582823
-2.270278 -6.251111 0.582925
-2.283705 -6.248665 0.582965
-2.297491 -6.250208 0.583675
-2.311285 -6.251490 0.584343
-2.325217 -6.253880 0.585202
-2.338754 -6.252149 0.585373
-2.351405 -6.242362 0.584191
-2.365144 -6.242867 0.584752
-2.378531 -6.240315 0.584807
-2.391793 -6.236902 0.584724
-2.405103 -6.234094 0.584755
-2.419017 -6.235971 0.585592
-2.432058 -6.231391 0.585346
-2.445210 -6.227876 0.585293
-2.458179 -6.223340 0.585079
-2.471388 -6.220634 0.585190
-2.485335 -6.222736 0.586136
-2.499776 -6.227720 0.587591
-2.512797 -6.223930 0.587564
-2.525879 -6.220679 0.587643
-2.539386 -6.219957 0.588171
-2.552550 -6.217361 0.588394
-2.565177 -6.211997 0.588157
-2.578583 -6.210907 0.588670
-2.592330 -6.211545 0.589498
-2.605345 -6.208482 0.589704
-2.618468 -6.206024 0.590030
-2.631390 -6.202667 0.590216
-2.644711 -6.201235 0.590752
-2.658375 -6.201344 0.591573
-2.671533 -6.199140 0.592007
-2.683651 -6.192466 0.591678
-2.695305 -6.184026 0.591052
-2.708844 -6.183645 0.591850
-2.722033 -6.181771 0.592402
-2.735464 -6.180840 0.593136
-2.749113 -6.180699 0.594025
-2.760790 -6.172929 0.593584
-2.773850 -6.170533 0.594103
-2.788386 -6.173558 0.595598
-2.804715 -6.182846 0.598223
-2.817625 -6.179554 0.598634
-2.830372 -6.175697 0.598957
-2.840133 -6.161626 0.597469
-2.854590 -6.163738 0.598882
-2.869890 -6.168458 0.600780
-2.886918 -6.178528 0.603660
-2.892901 -6.152751 0.600105
-2.907724 -6.155555 0.601704
-2.922687 -6.158581 0.603361
-2.934024 -6.150311 0.602987
-2.945510 -6.142618 0.602727
-2.960385 -6.145065 0.604321
-2.973269 -6.141504 0.604836
-2.987620 -6.142130 0.606128
-3.002381 -6.143764 0.607620
-3.018601 -6.149289 0.609844
-3.029822 -6.140783 0.609499
-3.042732 -6.136958 0.610027
-3.055471 -6.132652 0.610476
-3.071424 -6.136787 0.612504
-3.078695 -6.118136 0.610306
-3.083040 -6.092368 0.606774
-3.087544 -6.067565 0.603413
-3.066898 -5.980640 0.588381
-3.073584 -5.963078 0.586330
-3.083221 -5.953009 0.585689
-3.094819 -5.947764 0.585963
-3.110717 -5.952682 0.588173
-3.123614 -5.950342 0.589021
-3.138787 -5.953171 0.590865
-3.148584 -5.943574 0.590348
-3.159533 -5.936670 0.590351
-3.172946 -5.935265 0.591417
-3.187682 -5.936661 0.593034
-3.203761 -5.940792 0.595196
-3.216577 -5.937719 0.595977
-3.229351 -5.934494 0.596739
-3.241746 -5.930424 0.597346
-3.255550 -5.929218 0.598522
-3.268900 -5.926981 0.599507
-3.283889 -5.927959 0.601137
-3.301436 -5.933870 0.603754
-3.314755 -5.931194 0.604693
-3.325889 -5.924195 0.604784
-3.339476 -5.921933 0.605824
-3.351449 -5.916517 0.606246
-3.364124 -5.912408 0.606937
-3.379491 -5.913253 0.608634
-3.395454 -5.915037 0.610535
-3.410430 -5.914852 0.612056
-3.423807 -5.911658 0.612981
-3.437891 -5.909651 0.614159
-3.452519 -5.908507 0.615526
-3.467715 -5.908235 0.617086
-3.482939 -5.907875 0.618644
-3.501404 -5.912900 0.621327
-3.518266 -5.914979 0.623425
-3.531312 -5.910513 0.624185
-3.543954 -5.905334 0.624808
-3.557897 -5.902239 0.625876
-3.571805 -5.899009 0.626930
-3.589375 -5.901555 0.629212
-3.605805 -5.902098 0.631095
-3.620319 -5.899485 0.632328
-3.631554 -5.891700 0.632479
-3.647477 -5.891113 0.634173
-3.663182 -5.890059 0.635786
-3.680162 -5.890793 0.637803
-3.699615 -5.895040 0.640599
-3.715829 -5.894280 0.642340
-3.728634 -5.888413 0.642995
-3.748253 -5.892343 0.645797
-3.756704 -5.880078 0.645089
-3.781815 -5.891474 0.649575
-3.796663 -5.888108 0.650855
