ply
format ascii 1.0
comment ---
element vertex 1671
property float x
property float y
property float z
element face 0
property list uchar uint vertex_indices
end_header
-1.653387 2.860856 -0.247790
-1.634378 2.863586 -0.246464
-1.616386 2.868272 -0.245362
-1.595855 2.867448 -0.243737
-1.571114 2.857329 -0.241219
-1.550135 2.854899 -0.239502
-1.532107 2.858664 -0.238428
-1.507721 2.848134 -0.235977
-1.486852 2.845039 -0.234292
-1.466951 2.843849 -0.232823
-1.446297 2.840662 -0.231191
-1.420653 2.825482 -0.228430
-1.401222 2.824433 -0.227069
-1.385003 2.830868 -0.226454
-1.356824 2.808118 -0.223071
-1.342761 2.819404 -0.222972
-1.326278 2.824732 -0.222326
-1.297789 2.799550 -0.218815
-1.295454 2.840719 -0.221601
-1.269002 2.819966 -0.218567
-1.246596 2.809127 -0.216498
-1.225627 2.801640 -0.214771
-1.207190 2.800632 -0.213674
-1.180609 2.776944 -0.210496
-1.164290 2.781095 -0.209928
-1.152805 2.798912 -0.210638
-1.137917 2.807273 -0.210491
-1.117126 2.798439 -0.208781
-1.089561 2.769036 -0.205215
-0.970488 2.462574 -0.176414
-0.950280 2.449181 -0.174439
-0.931146 2.438551 -0.172737
-0.915016 2.436926 -0.171871
-0.895936 2.425617 -0.170146
-0.881280 2.428236 -0.169697
-0.863754 2.421267 -0.168399
-0.845246 2.410599 -0.166788
-0.830126 2.411057 -0.166189
-0.817593 2.420426 -0.166399
-0.803950 2.426041 -0.166284
-0.778829 2.390161 -0.162495
-0.763342 2.388348 -0.161752
-0.752848 2.405077 -0.162661
-0.739170 2.410118 -0.162544
-0.725055 2.413514 -0.162292
-0.711158 2.417769 -0.162127
-0.688956 2.388394 -0.159022
-0.675477 2.393771 -0.158979
-0.659228 2.387545 -0.157933
-0.644577 2.387807 -0.157464
-0.629153 2.384547 -0.156699
-0.614313 2.383643 -0.156150
-0.599677 2.383498 -0.155677
-0.586482 2.389992 -0.155789
-0.572451 2.392632 -0.155575
-0.557605 2.391253 -0.155023
-0.541579 2.383724 -0.153951
-0.524405 2.369755 -0.152337
-0.509435 2.366625 -0.151666
-0.493872 2.359979 -0.150703
-0.483019 2.379129 -0.151960
-0.466199 2.364985 -0.150374
-0.451658 2.363344 -0.149867
-0.436333 2.356722 -0.148945
-0.422734 2.360349 -0.148906
-0.409146 2.364132 -0.148887
-0.394473 2.360821 -0.148273
-0.379583 2.355668 -0.147513
-0.366374 2.361932 -0.147729
-0.348753 2.336198 -0.145245
-0.335263 2.339807 -0.145254
-0.322066 2.345834 -0.145474
-0.308164 2.346433 -0.145245
-0.294740 2.350993 -0.145357
-0.285021 2.388507 -0.148249
-0.276745 2.442383 -0.152518
-0.271920 2.534147 -0.159968
-0.260430 2.567224 -0.162490
-0.246765 2.580417 -0.163349
-0.231848 2.580893 -0.163152
-0.217934 2.593003 -0.163936
-0.202012 2.581468 -0.162753
-0.183611 2.535756 -0.158726
-0.166093 2.496303 -0.155237
-0.149191 2.460447 -0.152062
-0.136172 2.481540 -0.153648
-0.121260 2.472972 -0.152772
-0.107489 2.484286 -0.153561
-0.093528 2.493644 -0.154197
-0.079705 2.507958 -0.155255
-0.066070 2.530306 -0.156991
-0.052578 2.562554 -0.159558
-0.038061 2.570289 -0.160099
-0.023176 2.566069 -0.159658
-0.008099 2.550510 -0.158289
0.024291 2.286052 -0.136228
0.037873 2.268286 -0.134717
0.051258 2.265136 -0.134430
0.064616 2.262867 -0.134228
0.077974 2.263304 -0.134262
0.091129 2.245667 -0.132810
0.104537 2.253590 -0.133490
0.117831 2.252276 -0.133417
0.131052 2.248328 -0.133138
0.144399 2.249637 -0.133309
0.157536 2.244323 -0.132943
0.170864 2.244940 -0.133083
0.184306 2.247801 -0.133424
0.197828 2.251562 -0.133855
0.211079 2.249357 -0.133804
0.223417 2.231481 -0.132463
0.235815 2.216986 -0.131417
0.248935 2.215088 -0.131434
0.263627 2.235158 -0.133299
0.276259 2.225553 -0.132705
0.288676 2.214180 -0.131977
0.302133 2.215973 -0.132366
0.316135 2.223403 -0.133243
0.329489 2.223043 -0.133485
0.342533 2.219383 -0.133467
0.355630 2.216334 -0.133516
0.369394 2.219441 -0.134100
0.382421 2.215574 -0.134114
0.394940 2.207509 -0.133790
0.407780 2.202428 -0.133734
0.422638 2.213279 -0.135042
0.436933 2.218877 -0.135926
0.450810 2.220820 -0.136519
0.463838 2.216429 -0.136591
0.475736 2.204414 -0.136028
0.488237 2.196913 -0.135864
0.501954 2.197409 -0.136399
0.515960 2.199452 -0.137084
0.529343 2.197416 -0.137436
0.541569 2.188517 -0.137210
0.555097 2.187310 -0.137661
0.569917 2.193115 -0.138734
0.582165 2.184572 -0.138577
0.594958 2.179137 -0.138700
0.610137 2.186008 -0.139906
0.623737 2.184495 -0.140393
0.636229 2.177497 -0.140409
0.648902 2.171546 -0.140521
0.663933 2.176692 -0.141615
0.678006 2.177135 -0.142301
0.693536 2.183918 -0.143552
0.709151 2.190691 -0.144806
0.724631 2.196535 -0.145979
0.738645 2.195974 -0.146579
0.752697 2.195564 -0.147186
0.765907 2.191790 -0.147482
0.779667 2.190331 -0.147971
0.795290 2.196126 -0.149098
0.810351 2.199644 -0.150003
0.821706 2.189400 -0.149640
0.835658 2.189082 -0.150148
0.849272 2.187710 -0.150529
0.862969 2.186842 -0.150922
0.877011 2.187397 -0.151407
0.891725 2.190434 -0.152078
0.904336 2.186607 -0.152076
0.918362 2.187831 -0.152486
0.930069 2.181821 -0.152181
0.942759 2.179461 -0.152155
0.955063 2.176312 -0.151997
0.968311 2.176551 -0.152088
0.980293 2.173324 -0.151797
0.992123 2.170147 -0.151445
1.002348 2.162725 -0.150635
1.014520 2.161646 -0.150338
1.030325 2.171548 -0.150977
1.044197 2.176158 -0.151058
1.056547 2.176845 -0.150708
1.068642 2.177292 -0.150263
1.081962 2.181591 -0.150097
1.105088 2.212985 -0.152317
-2.466643 2.589807 -0.301097
-2.403600 2.555548 -0.297016
-2.400001 2.599814 -0.302406
-2.379389 2.597935 -0.301899
-2.361736 2.600278 -0.301812
-2.303766 2.575079 -0.297545
-2.289346 2.582543 -0.297774
-2.266558 2.578795 -0.296490
-2.245981 2.578297 -0.295512
-2.224996 2.577425 -0.294390
-2.212257 2.588452 -0.294652
-2.192311 2.589514 -0.293582
-2.170877 2.588596 -0.292181
-2.139989 2.573971 -0.289014
-2.115620 2.568799 -0.286945
-2.091217 2.563561 -0.284804
-2.072098 2.566239 -0.283570
-2.052397 2.568130 -0.282182
-2.033889 2.571909 -0.280971
-2.014535 2.574457 -0.279563
-1.984468 2.560255 -0.276112
-1.964659 2.561954 -0.274537
-1.932805 2.544369 -0.270650
-1.915761 2.550270 -0.269530
-1.900865 2.559710 -0.268803
-1.886434 2.570009 -0.268154
-1.884429 2.601132 -0.269906
-1.926894 2.707775 -0.280348
-1.938438 2.763883 -0.284856
-1.912719 2.794271 -0.284381
-1.890155 2.792593 -0.282224
-1.850976 2.799223 -0.279081
-1.733767 2.856428 -0.272367
-1.716856 2.864084 -0.271428
-1.694173 2.860152 -0.269267
-1.674683 2.862335 -0.267794
-1.653825 2.861533 -0.266032
-1.636163 2.867082 -0.264975
-1.616753 2.868865 -0.263547
-1.593431 2.862156 -0.261257
-1.569170 2.853031 -0.258751
-1.549418 2.853241 -0.257257
-1.526963 2.847275 -0.255152
-1.508140 2.849019 -0.253879
-1.487694 2.846915 -0.252239
-1.466736 2.843364 -0.250482
-1.441717 2.830101 -0.247765
-1.421990 2.828674 -0.246292
-1.402978 2.828689 -0.244994
-1.378673 2.815761 -0.242417
-1.357971 2.811052 -0.240704
-1.341008 2.815242 -0.239913
-1.323551 2.818102 -0.239013
-1.303993 2.815505 -0.237593
-1.284585 2.813020 -0.236212
-1.270943 2.825297 -0.236317
-1.246618 2.809482 -0.233668
-1.228918 2.810782 -0.232736
-1.211879 2.813725 -0.231987
-1.194444 2.815471 -0.231142
-1.159944 2.769321 -0.225651
-1.146657 2.781869 -0.225911
-1.131070 2.787978 -0.225561
-1.109818 2.777517 -0.223627
-1.087325 2.762875 -0.221317
-0.970457 2.462937 -0.191617
-0.953725 2.460208 -0.190574
-0.934530 2.449573 -0.188793
-0.914422 2.435554 -0.186710
-0.898537 2.434501 -0.185884
-0.882541 2.432897 -0.185021
-0.868243 2.436731 -0.184690
-0.847836 2.419917 -0.182421
-0.834868 2.427934 -0.182514
-0.817785 2.421704 -0.181278
-0.799852 2.412087 -0.179741
-0.782432 2.403841 -0.178349
-0.766628 2.401109 -0.177489
-0.754333 2.411314 -0.177849
-0.738390 2.407812 -0.176942
-0.723416 2.407812 -0.176373
-0.706843 2.401322 -0.175216
-0.689346 2.390688 -0.173689
-0.674016 2.388456 -0.172953
-0.661837 2.399298 -0.173433
-0.643595 2.384327 -0.171547
-0.629174 2.385403 -0.171149
-0.613547 2.380974 -0.170258
-0.597827 2.375780 -0.169308
-0.584316 2.380607 -0.169285
-0.571208 2.387469 -0.169455
-0.557894 2.393500 -0.169558
-0.541877 2.386065 -0.168445
-0.524049 2.368763 -0.166449
-0.509356 2.367065 -0.165881
-0.495479 2.369586 -0.165703
-0.480223 2.364410 -0.164839
-0.466495 2.367583 -0.164739
-0.452590 2.369749 -0.164556
-0.436871 2.360911 -0.163392
-0.422303 2.358603 -0.162825
-0.407332 2.353421 -0.162009
-0.393303 2.354033 -0.161723
-0.379657 2.357172 -0.161672
-0.364945 2.352837 -0.160960
-0.352355 2.363596 -0.161605
-0.334580 2.335685 -0.158809
-0.321092 2.339265 -0.158832
-0.307627 2.343164 -0.158891
-0.295002 2.354364 -0.159607
-0.288178 2.417580 -0.164949
-0.277852 2.453828 -0.167896
-0.271760 2.533938 -0.174733
-0.260460 2.568930 -0.177572
-0.233513 2.600926 -0.179904
-0.218370 2.599729 -0.179563
-0.201767 2.580112 -0.177606
-0.178236 2.466792 -0.167400
-0.161109 2.428316 -0.163814
-0.145810 2.411735 -0.162169
-0.131362 2.406214 -0.161511
-0.118166 2.421422 -0.162686
-0.104716 2.434318 -0.163666
-0.090746 2.438736 -0.163911
-0.076685 2.441833 -0.164050
-0.062518 2.442788 -0.164012
-0.051372 2.531532 -0.171687
-0.038010 2.573250 -0.175243
-0.022880 2.559926 -0.173984
-0.007650 2.535624 -0.171775
0.009747 2.361867 -0.156485
0.024327 2.294607 -0.150542
0.037989 2.271144 -0.148449
0.051402 2.262087 -0.147631
0.064754 2.261651 -0.147580
0.078045 2.252873 -0.146811
0.091362 2.253183 -0.146850
0.104564 2.245973 -0.146243
0.117924 2.249336 -0.146576
0.131128 2.245115 -0.146258
0.144454 2.246083 -0.146408
0.157800 2.247131 -0.146578
0.170928 2.242193 -0.146238
0.184324 2.244175 -0.146519
0.197726 2.245691 -0.146774
0.211299 2.249964 -0.147286
0.224206 2.241796 -0.146721
0.236467 2.224273 -0.145347
0.249791 2.224810 -0.145576
0.263662 2.232685 -0.146467
0.276786 2.229599 -0.146409
0.289274 2.218795 -0.145686
0.301702 2.208246 -0.145000
0.315010 2.208294 -0.145266
0.328822 2.213426 -0.145998
0.342057 2.212054 -0.146173
0.355757 2.215039 -0.146750
0.368737 2.210935 -0.146717
0.382267 2.211777 -0.147139
0.394588 2.202121 -0.146644
0.407886 2.200905 -0.146917
0.422462 2.209536 -0.148088
0.437171 2.218320 -0.149292
0.450663 2.217422 -0.149649
0.463788 2.213776 -0.149776
0.476233 2.205521 -0.149504
0.488918 2.199147 -0.149417
0.501133 2.189949 -0.149089
0.516815 2.202540 -0.150746
0.530777 2.203858 -0.151402
0.542781 2.193456 -0.151009
0.555040 2.184875 -0.150793
0.569028 2.186116 -0.151484
0.583134 2.187745 -0.152225
0.594687 2.175720 -0.151727
0.608306 2.174688 -0.152246
0.622472 2.176269 -0.153015
0.636443 2.176681 -0.153686
0.650072 2.175310 -0.154200
0.663965 2.175097 -0.154826
0.678900 2.179513 -0.155887
0.694211 2.185310 -0.157081
0.710387 2.194532 -0.158598
0.724924 2.196337 -0.159421
0.739943 2.200031 -0.160416
0.753476 2.197494 -0.160819
0.766256 2.192053 -0.160934
0.780032 2.190748 -0.161425
0.794687 2.192921 -0.162227
0.808833 2.193167 -0.162825
0.821933 2.189633 -0.163039
0.835433 2.187808 -0.163386
0.848560 2.184869 -0.163594
0.863923 2.190061 -0.164544
0.878217 2.191601 -0.165104
0.892126 2.192018 -0.165514
0.903330 2.183660 -0.165032
0.916954 2.183809 -0.165316
0.928536 2.177664 -0.164939
0.942043 2.178177 -0.165146
0.954426 2.175513 -0.164986
0.968703 2.179169 -0.165371
0.980698 2.176168 -0.165049
0.994446 2.178946 -0.165217
1.007322 2.179497 -0.165100
1.015463 2.166617 -0.163619
1.035162 2.187957 -0.165359
1.046516 2.185402 -0.164727
1.057585 2.182588 -0.163998
1.070998 2.186861 -0.163875
1.078274 2.174607 -0.162101
1.086456 2.165587 -0.160568
-2.410589 2.567726 -0.315448
-2.404097 2.583340 -0.317504
-2.391940 2.592025 -0.318535
-2.356174 2.569765 -0.315383
-2.334961 2.566937 -0.314676
-2.320001 2.599381 -0.317920
-2.289273 2.584483 -0.315296
-2.262669 2.575289 -0.313316
-2.240615 2.572524 -0.312074
-2.222429 2.575375 -0.311463
-2.209246 2.585592 -0.311709
-2.184282 2.579267 -0.309715
-2.162484 2.577571 -0.308234
-2.137685 2.571593 -0.306122
-2.113585 2.566651 -0.304071
-2.093185 2.567225 -0.302657
-2.070736 2.564802 -0.300795
-2.049526 2.564265 -0.299116
-2.026194 2.560493 -0.296975
-2.011719 2.570390 -0.296508
-2.000927 2.586245 -0.296734
-1.958783 2.552781 -0.290769
-1.941914 2.558986 -0.289726
-1.917201 2.552579 -0.287098
-1.900223 2.558583 -0.285981
-1.889085 2.574253 -0.286024
-1.887912 2.606764 -0.288087
-1.930250 2.749659 -0.301463
-1.909559 2.788438 -0.302105
-1.886841 2.786409 -0.299865
-1.849300 2.795834 -0.297020
-1.854618 2.844262 -0.300726
-1.732531 2.853668 -0.290405
-1.718386 2.866769 -0.290080
-1.698178 2.867832 -0.288416
-1.674888 2.862450 -0.286059
-1.654503 2.862641 -0.284361
-1.635071 2.864566 -0.282887
-1.613354 2.861512 -0.280891
-1.589630 2.853889 -0.278426
-1.568393 2.851180 -0.276538
-1.545185 2.843885 -0.274183
-1.528159 2.849773 -0.273301
-1.506286 2.844784 -0.271265
-1.487927 2.847363 -0.270081
-1.465562 2.840630 -0.267924
-1.444751 2.837095 -0.266144
-1.425048 2.835842 -0.264640
-1.406489 2.837053 -0.263429
-1.387865 2.837920 -0.262209
-1.363361 2.824270 -0.259482
-1.343622 2.821808 -0.257970
-1.319403 2.807860 -0.255282
-1.299888 2.805259 -0.253817
-1.283852 2.811327 -0.253284
-1.265561 2.811484 -0.252157
-1.248505 2.814713 -0.251373
-1.229963 2.813853 -0.250190
-1.213144 2.817461 -0.249491
-1.184593 2.788616 -0.245480
-1.174892 2.811499 -0.246806
-1.143338 2.772808 -0.241854
-1.126339 2.774731 -0.241081
-1.108757 2.774825 -0.240142
-1.086065 2.759564 -0.237668
-0.971069 2.465197 -0.207036
-0.953642 2.460389 -0.205744
-0.934689 2.450518 -0.203963
-0.915014 2.437896 -0.201928
-0.894153 2.420899 -0.199478
-0.881591 2.430298 -0.199686
-0.868624 2.438520 -0.199788
-0.855716 2.447072 -0.199934
-0.833083 2.422359 -0.196795
-0.818448 2.424596 -0.196346
-0.804121 2.427861 -0.196012
-0.787601 2.423162 -0.194906
-0.770933 2.417602 -0.193732
-0.754122 2.411157 -0.192486
-0.739157 2.411394 -0.191909
-0.723812 2.410021 -0.191188
-0.707280 2.403733 -0.190001
-0.692178 2.402860 -0.189354
-0.678814 2.409009 -0.189402
-0.658496 2.385908 -0.186625
-0.642204 2.379057 -0.185439
-0.628398 2.382729 -0.185282
-0.615020 2.388355 -0.185323
-0.600345 2.388129 -0.184810
-0.585158 2.385350 -0.184063
-0.571353 2.388960 -0.183939
-0.555441 2.382232 -0.182835
-0.543046 2.392787 -0.183394
-0.526447 2.381995 -0.181923
-0.509041 2.366243 -0.179993
-0.495210 2.368985 -0.179836
-0.480822 2.368629 -0.179394
-0.467200 2.372516 -0.179364
-0.452952 2.372792 -0.179000
-0.437961 2.368448 -0.178208
-0.421575 2.354993 -0.176565
-0.406365 2.348158 -0.175559
-0.392508 2.349731 -0.175357
-0.379143 2.354646 -0.175478
-0.365565 2.358243 -0.175483
-0.350551 2.351435 -0.174519
-0.335159 2.341135 -0.173237
-0.321544 2.343910 -0.173193
-0.307797 2.345679 -0.173062
-0.294132 2.348146 -0.173006
-0.287092 2.409213 -0.178435
-0.278460 2.460721 -0.182970
-0.269289 2.511510 -0.187438
-0.258402 2.549621 -0.190725
-0.233382 2.601064 -0.195007
-0.218564 2.603667 -0.195007
-0.203217 2.599853 -0.194422
-0.158284 2.390604 -0.174582
-0.143149 2.373856 -0.172843
-0.129849 2.384004 -0.173609
-0.117857 2.418389 -0.176628
-0.103521 2.414266 -0.176090
-0.089614 2.418096 -0.176300
-0.075583 2.419742 -0.176318
-0.062826 2.454254 -0.179384
-0.050304 2.504689 -0.183930
-0.038017 2.578471 -0.190641
-0.023368 2.585251 -0.191174
-0.008512 2.584834 -0.191056
0.024569 2.286004 -0.163368
0.038168 2.266252 -0.161510
0.051551 2.261714 -0.161067
0.064894 2.256989 -0.160619
0.078181 2.250348 -0.160008
0.091407 2.243459 -0.159387
0.104736 2.246604 -0.159704
0.118115 2.250516 -0.160106
0.131383 2.248454 -0.159970
0.144868 2.254030 -0.160553
0.158197 2.253390 -0.160576
0.171640 2.255595 -0.160877
0.184341 2.240229 -0.159569
0.197828 2.243759 -0.160022
0.211155 2.243443 -0.160135
0.224424 2.241957 -0.160154
0.237250 2.233386 -0.159533
0.250378 2.230282 -0.159434
0.263997 2.234190 -0.160001
0.277511 2.236020 -0.160392
0.289993 2.224691 -0.159577
0.301749 2.205904 -0.158083
0.314692 2.201955 -0.157984
0.328550 2.207794 -0.158814
0.342061 2.209378 -0.159265
0.355140 2.206455 -0.159313
0.369209 2.212616 -0.160227
0.381934 2.206253 -0.159988
0.394781 2.201185 -0.159887
0.408818 2.205931 -0.160723
0.423193 2.212732 -0.161772
0.436287 2.209172 -0.161865
0.449925 2.209594 -0.162350
0.463155 2.206896 -0.162558
0.475882 2.200739 -0.162455
0.489117 2.198088 -0.162699
0.503645 2.203627 -0.163738
0.517977 2.207410 -0.164628
0.530651 2.200810 -0.164545
0.543492 2.195356 -0.164585
0.555300 2.184142 -0.164085
0.569516 2.186640 -0.164911
0.583364 2.186844 -0.165530
0.596542 2.183353 -0.165806
0.609125 2.176834 -0.165798
0.622547 2.174661 -0.166218
0.636403 2.174556 -0.166845
0.650398 2.174989 -0.167532
0.664183 2.174308 -0.168115
0.677970 2.173568 -0.168695
0.695603 2.189832 -0.170943
0.711467 2.197650 -0.172366
0.726442 2.201305 -0.173379
0.740507 2.201002 -0.173995
0.754197 2.199167 -0.174450
0.765892 2.189456 -0.174110
0.779637 2.188185 -0.174589
0.793712 2.188293 -0.175184
0.809325 2.194284 -0.176344
0.822599 2.191510 -0.176602
0.836323 2.190616 -0.177017
0.849364 2.187479 -0.177173
0.864271 2.191195 -0.177977
0.877789 2.190216 -0.178267
0.891093 2.188793 -0.178467
0.903116 2.183417 -0.178218
0.917632 2.186706 -0.178789
0.929398 2.181325 -0.178428
0.941730 2.178256 -0.178241
0.955736 2.180910 -0.178569
0.969771 2.183970 -0.178873
0.981625 2.180697 -0.178470
0.995531 2.184124 -0.178674
1.005935 2.177498 -0.177792
1.022767 2.190344 -0.178803
1.036041 2.193035 -0.178715
1.043390 2.179195 -0.176890
1.056358 2.182039 -0.176671
1.070008 2.187207 -0.176610
1.080499 2.184026 -0.175640
1.089868 2.178343 -0.174350
-2.431143 2.551224 -0.329585
-2.411181 2.595676 -0.336148
-2.344736 2.557288 -0.330654
-2.315194 2.543012 -0.328413
-2.324629 2.581470 -0.333262
-2.327112 2.611356 -0.336819
-2.306621 2.610435 -0.336057
-2.255579 2.567411 -0.329461
-2.234722 2.566073 -0.328436
-2.212705 2.563295 -0.327115
-2.196360 2.568741 -0.326806
-2.177660 2.571087 -0.325980
-2.156935 2.570710 -0.324696
-2.129513 2.560678 -0.322033
-2.111063 2.563827 -0.321059
-2.093353 2.568246 -0.320175
-2.075733 2.572970 -0.319260
-2.050261 2.565912 -0.316720
-2.031283 2.568725 -0.315429
-2.013519 2.573498 -0.314341
-1.997159 2.580567 -0.313503
-1.981049 2.588156 -0.312685
-1.940997 2.557576 -0.306891
-1.924102 2.563714 -0.305831
-1.899333 2.557050 -0.303102
-1.884813 2.567064 -0.302491
-1.877921 2.589906 -0.303486
-1.911260 2.753706 -0.318207
-1.859689 2.814131 -0.317611
-1.738045 2.823584 -0.307059
-1.728280 2.844975 -0.307740
-1.720052 2.869667 -0.308817
-1.700821 2.872735 -0.307351
-1.678360 2.869109 -0.305126
-1.656316 2.866010 -0.302998
-1.635787 2.865732 -0.301233
-1.614296 2.863193 -0.299237
-1.590895 2.856302 -0.296774
-1.566946 2.847831 -0.294167
-1.552488 2.859532 -0.293908
-1.526811 2.846617 -0.290864
-1.507026 2.846265 -0.289289
-1.487422 2.846084 -0.287764
-1.468175 2.846488 -0.286337
-1.448274 2.845161 -0.284745
-1.429322 2.845801 -0.283404
-1.407678 2.839846 -0.281358
-1.387348 2.836678 -0.279654
-1.369988 2.840446 -0.278750
-1.346309 2.828499 -0.276137
-1.324032 2.819528 -0.273887
-1.300295 2.806400 -0.271215
-1.286013 2.817022 -0.271174
-1.269287 2.821362 -0.270468
-1.249507 2.817553 -0.268898
-1.230185 2.814665 -0.267457
-1.205438 2.796748 -0.264419
-1.190128 2.804153 -0.264141
-1.168986 2.795263 -0.262134
-1.145944 2.780523 -0.259528
-1.127636 2.778809 -0.258344
-1.107812 2.772424 -0.256685
-1.081647 2.746822 -0.253010
-0.970598 2.464148 -0.222148
-0.952329 2.456757 -0.220534
-0.932768 2.444951 -0.218477
-0.914764 2.437537 -0.216905
-0.894460 2.422332 -0.214537
-0.880919 2.428571 -0.214436
-0.868746 2.439411 -0.214829
-0.855709 2.447557 -0.214951
-0.841546 2.451961 -0.214697
-0.818713 2.426058 -0.211313
-0.805023 2.431627 -0.211212
-0.790785 2.435267 -0.210923
-0.774291 2.430575 -0.209789
-0.754251 2.412243 -0.207268
-0.738071 2.407858 -0.206199
-0.723687 2.410167 -0.205830
-0.708492 2.409202 -0.205138
-0.694153 2.411536 -0.204796
-0.676583 2.400454 -0.203099
-0.658005 2.384521 -0.200925
-0.642749 2.382112 -0.200141
-0.628486 2.383835 -0.199788
-0.615077 2.389344 -0.199828
-0.602160 2.397226 -0.200118
-0.585994 2.390048 -0.198897
-0.569886 2.382678 -0.197670
-0.557325 2.392307 -0.198164
-0.543956 2.398189 -0.198290
-0.524791 2.374250 -0.195437
-0.509898 2.371623 -0.194733
-0.495903 2.373605 -0.194500
-0.481948 2.375785 -0.194296
-0.467195 2.373374 -0.193644
-0.452321 2.369974 -0.192904
-0.437115 2.364236 -0.191942
-0.421056 2.352686 -0.190415
-0.406147 2.347710 -0.189551
-0.392519 2.350787 -0.189495
-0.378662 2.352351 -0.189299
-0.364199 2.349603 -0.188685
-0.349725 2.346439 -0.188040
-0.336146 2.349708 -0.188039
-0.322505 2.352586 -0.188009
-0.308014 2.348602 -0.187312
-0.295392 2.360033 -0.188140
-0.285819 2.399212 -0.191698
-0.278852 2.465659 -0.197932
-0.267687 2.497482 -0.200772
-0.261946 2.586847 -0.209248
-0.248823 2.606729 -0.210925
-0.232684 2.594943 -0.209516
-0.217722 2.595528 -0.209327
-0.202055 2.587257 -0.208284
-0.157828 2.386146 -0.188254
-0.143279 2.377877 -0.187260
-0.131320 2.409950 -0.190202
-0.117238 2.410066 -0.190044
-0.103099 2.408970 -0.189779
-0.088687 2.401853 -0.188941
-0.075138 2.412863 -0.189874
-0.062573 2.451569 -0.193507
-0.050439 2.513063 -0.199359
-0.037811 2.576869 -0.205444
-0.022646 2.562913 -0.203997
-0.007925 2.564216 -0.204044
0.024761 2.282626 -0.176638
0.038364 2.260180 -0.174428
0.051717 2.258622 -0.174254
0.065058 2.257781 -0.174162
0.078321 2.246721 -0.173093
0.091573 2.243190 -0.172768
0.104912 2.246711 -0.173138
0.118314 2.251521 -0.173648
0.131639 2.251305 -0.173685
0.145045 2.253649 -0.173984
0.158712 2.262619 -0.174940
0.171985 2.259282 -0.174718
0.185042 2.251508 -0.174080
0.198146 2.245970 -0.173674
0.211094 2.238220 -0.173069
0.224274 2.235524 -0.172969
0.237850 2.239309 -0.173515
0.250405 2.227155 -0.172527
0.263933 2.229893 -0.173004
0.277340 2.230500 -0.173291
0.290319 2.225523 -0.173050
0.302444 2.210923 -0.171885
0.315479 2.207650 -0.171842
0.329606 2.215936 -0.172947
0.342979 2.215670 -0.173233
0.356093 2.212724 -0.173274
0.370098 2.217947 -0.174135
0.384264 2.223926 -0.175090
0.396359 2.211757 -0.174276
0.410740 2.218807 -0.175373
0.424620 2.221195 -0.176029
0.436859 2.210854 -0.175445
0.449544 2.204239 -0.175245
0.463302 2.205369 -0.175829
0.476179 2.200227 -0.175807
0.489969 2.201191 -0.176408
0.503772 2.201965 -0.177008
0.515169 2.187617 -0.176112
0.529589 2.192042 -0.177108
0.542900 2.189545 -0.177425
0.556178 2.186811 -0.177732
0.569897 2.186468 -0.178292
0.584473 2.190577 -0.179315
0.597303 2.185158 -0.179386
0.610046 2.179417 -0.179432
0.623073 2.175220 -0.179642
0.636556 2.173306 -0.180090
0.650506 2.173573 -0.180765
0.663969 2.171465 -0.181201
0.679226 2.177490 -0.182472
0.695649 2.188339 -0.184241
0.711923 2.198018 -0.185892
0.727431 2.204003 -0.187159
0.741260 2.202735 -0.187670
0.753266 2.194098 -0.187405
0.765375 2.186244 -0.187202
0.779257 2.185684 -0.187737
0.793792 2.187732 -0.188523
0.808564 2.190695 -0.189379
0.824874 2.199365 -0.190806
0.836720 2.191660 -0.190484
0.849702 2.188465 -0.190597
0.863668 2.189037 -0.191064
0.876601 2.186265 -0.191134
0.890339 2.186578 -0.191481
0.904052 2.187085 -0.191797
0.918182 2.189262 -0.192233
0.930402 2.185524 -0.191986
0.942579 2.182123 -0.191712
0.956197 2.183733 -0.191904
0.970507 2.187837 -0.192292
0.982333 2.184658 -0.191842
0.993169 2.179022 -0.191061
1.004362 2.175038 -0.190384
1.015921 2.172693 -0.189807
1.027946 2.172224 -0.189354
1.035703 2.160023 -0.187596
1.049668 2.166147 -0.187690
1.063941 2.173468 -0.187833
1.077262 2.178478 -0.187658
1.117640 2.257807 -0.195148
-2.435420 2.583056 -0.350996
-2.425247 2.617269 -0.356167
-2.316527 2.547440 -0.345860
-2.308339 2.561945 -0.347561
-2.322446 2.607364 -0.353525
-2.261246 2.577286 -0.347979
-2.228939 2.559839 -0.344712
-2.208056 2.558429 -0.343607
-2.191477 2.563330 -0.343286
-2.177435 2.572152 -0.343414
-2.157563 2.572859 -0.342308
-2.132188 2.565680 -0.340013
-2.110312 2.563668 -0.338359
-2.094470 2.570727 -0.337884
-2.078600 2.577974 -0.337355
-2.059708 2.580840 -0.336151
-2.034284 2.573785 -0.333524
-2.014119 2.574774 -0.331948
-1.993956 2.575793 -0.330326
-1.977915 2.583347 -0.329545
-1.961262 2.590047 -0.328604
-1.924630 2.564556 -0.323306
-1.896761 2.552769 -0.319844
-1.879106 2.557502 -0.318573
-1.872531 2.580716 -0.319728
-1.923838 2.701890 -0.333754
-1.915930 2.798796 -0.340289
-1.925672 2.853999 -0.345360
-1.872062 2.835957 -0.338875
-1.833487 2.804897 -0.332861
-1.765652 2.876340 -0.331922
-1.737962 2.863403 -0.328383
-1.719447 2.868028 -0.327057
-1.698336 2.867346 -0.325103
-1.676937 2.865822 -0.323078
-1.656427 2.865846 -0.321273
-1.636849 2.867557 -0.319705
-1.614725 2.863740 -0.317498
-1.592266 2.858883 -0.315200
-1.573338 2.861244 -0.313807
-1.555436 2.865657 -0.312688
-1.531448 2.856564 -0.309988
-1.506164 2.844121 -0.306931
-1.487081 2.845119 -0.305505
-1.463744 2.836197 -0.302941
-1.446926 2.841901 -0.302132
-1.427790 2.842097 -0.300705
-1.406717 2.837481 -0.298746
-1.386614 2.834856 -0.297052
-1.368443 2.836651 -0.295901
-1.349690 2.836847 -0.294593
-1.329058 2.832132 -0.292747
-1.312555 2.837553 -0.292096
-1.288455 2.823382 -0.289228
-1.265983 2.812859 -0.286812
-1.248479 2.814970 -0.285865
-1.227371 2.807283 -0.283833
-1.206990 2.801157 -0.282006
-1.190404 2.805131 -0.281346
-1.178141 2.821130 -0.282056
-1.150523 2.793796 -0.277929
-1.133230 2.795226 -0.277052
-1.110447 2.780448 -0.274392
-1.060710 2.684944 -0.262795
-0.967589 2.455399 -0.236419
-0.947589 2.442581 -0.234146
-0.930066 2.436910 -0.232687
-0.913341 2.433422 -0.231488
-0.902490 2.448552 -0.232351
-0.880810 2.428641 -0.229388
-0.869165 2.441253 -0.230004
-0.855759 2.448194 -0.230012
-0.837650 2.439059 -0.228284
-0.820287 2.432068 -0.226808
-0.804849 2.431530 -0.226050
-0.790209 2.433720 -0.225602
-0.773768 2.429202 -0.224443
-0.755608 2.417913 -0.222573
-0.736059 2.400740 -0.220088
-0.718702 2.391319 -0.218455
-0.710161 2.416465 -0.220539
-0.694010 2.411591 -0.219419
-0.673968 2.390284 -0.216561
-0.659795 2.392749 -0.216254
-0.643853 2.387554 -0.215144
-0.628767 2.385769 -0.214410
-0.614037 2.385377 -0.213835
-0.599390 2.385211 -0.213297
-0.589231 2.406024 -0.214984
-0.569778 2.382917 -0.212046
-0.558058 2.396695 -0.213008
-0.541633 2.387254 -0.211537
-0.526031 2.381470 -0.210464
-0.509829 2.372078 -0.209024
-0.496724 2.378913 -0.209296
-0.482041 2.377166 -0.208679
-0.466893 2.372519 -0.207770
-0.451367 2.365243 -0.206599
-0.436455 2.361146 -0.205770
-0.421361 2.355528 -0.204795
-0.407543 2.357656 -0.204634
-0.392799 2.353627 -0.203845
-0.378450 2.351909 -0.203305
-0.363023 2.342304 -0.201960
-0.349291 2.344322 -0.201828
-0.335813 2.348274 -0.201905
-0.322517 2.353809 -0.202154
-0.308057 2.350120 -0.201461
-0.294353 2.352417 -0.201394
-0.284105 2.385336 -0.204486
-0.275561 2.436658 -0.209471
-0.268669 2.508372 -0.216550
-0.262485 2.593826 -0.225035
-0.231941 2.588367 -0.223939
-0.216503 2.583005 -0.223139
-0.201801 2.586001 -0.223206
-0.178119 2.470853 -0.211214
-0.159769 2.415414 -0.205345
-0.144937 2.404930 -0.204081
-0.131008 2.407297 -0.204139
-0.117139 2.410930 -0.204337
-0.102235 2.395435 -0.202597
-0.074469 2.401008 -0.202879
-0.062233 2.446858 -0.207417
-0.050709 2.525686 -0.215317
-0.036828 2.549405 -0.217623
-0.022107 2.548229 -0.217410
-0.006932 2.524182 -0.214887
0.024940 2.281310 -0.190105
0.038529 2.260373 -0.187944
0.051887 2.258377 -0.187720
0.065232 2.258098 -0.187683
0.078529 2.251073 -0.186975
0.091801 2.247136 -0.186593
0.105142 2.249423 -0.186858
0.118463 2.249490 -0.186911
0.131617 2.242781 -0.186291
0.145397 2.258608 -0.187974
0.158704 2.256420 -0.187843
0.185032 2.246304 -0.187041
0.198454 2.247662 -0.187316
0.211764 2.246451 -0.187345
0.224725 2.239190 -0.186774
0.238340 2.243203 -0.187368
0.251318 2.236982 -0.186935
0.263180 2.215824 -0.184993
0.277074 2.223527 -0.186013
0.290330 2.222275 -0.186136
0.303129 2.215603 -0.185722
0.316775 2.218751 -0.186329
0.330777 2.225077 -0.187281
0.343856 2.221358 -0.187222
0.356865 2.217083 -0.187121
0.370549 2.219097 -0.187686
0.383969 2.218414 -0.187991
0.397926 2.222060 -0.188761
0.411655 2.223363 -0.189307
0.425806 2.227624 -0.190179
0.438741 2.222220 -0.190068
0.450454 2.208113 -0.189070
0.463702 2.205481 -0.189279
0.476948 2.202791 -0.189497
0.489712 2.196889 -0.189397
0.502196 2.189354 -0.189140
0.515328 2.186070 -0.189342
0.527905 2.179447 -0.189207
0.542615 2.185428 -0.190410
0.556076 2.183822 -0.190830
0.570490 2.187374 -0.191806
0.584947 2.190801 -0.192783
0.598875 2.191124 -0.193443
0.610793 2.181032 -0.193007
0.623665 2.176037 -0.193117
0.637264 2.174684 -0.193619
0.650934 2.173620 -0.194156
0.666721 2.182316 -0.195741
0.680982 2.183623 -0.196536
0.695932 2.187862 -0.197646
0.711940 2.196459 -0.199223
0.727595 2.203169 -0.200592
0.741207 2.201104 -0.201004
0.752942 2.191504 -0.200584
0.765508 2.185631 -0.200549
0.780059 2.187821 -0.201368
0.794118 2.188129 -0.201959
0.808563 2.189994 -0.202693
0.822192 2.188916 -0.203074
0.835791 2.187933 -0.203429
0.849851 2.188826 -0.203951
0.863573 2.188723 -0.204321
0.876955 2.187699 -0.204542
0.890504 2.187550 -0.204809
0.904570 2.189433 -0.205245
0.917771 2.188736 -0.205340
0.928446 2.180229 -0.204512
0.943826 2.187354 -0.205345
0.956508 2.186180 -0.205196
0.967659 2.180701 -0.204503
0.979256 2.177160 -0.203955
0.992026 2.177688 -0.203783
0.999580 2.163134 -0.201878
1.013940 2.169403 -0.202192
1.023788 2.162895 -0.201027
1.038129 2.169888 -0.201270
1.045574 2.157672 -0.199335
1.056067 2.154747 -0.198346
1.067336 2.154514 -0.197579
1.083893 2.169232 -0.198364
-2.409927 2.531120 -0.359696
-2.439688 2.592087 -0.369037
-2.446447 2.624265 -0.374039
-2.424180 2.619121 -0.373434
-2.378269 2.582933 -0.368139
-2.343418 2.561229 -0.364863
-2.316295 2.549851 -0.362993
-2.307781 2.563765 -0.364732
-2.293634 2.570491 -0.365296
-2.283615 2.583272 -0.366633
-2.284958 2.612289 -0.370233
-2.239434 2.576453 -0.364215
-2.205582 2.556700 -0.360457
-2.188457 2.560635 -0.360060
-2.171885 2.565630 -0.359715
-2.158139 2.574994 -0.359903
-2.134361 2.570008 -0.357915
-2.107911 2.561123 -0.355282
-2.093657 2.570381 -0.355185
-2.078710 2.578874 -0.354893
-2.058521 2.579643 -0.353420
-2.036002 2.576910 -0.351382
-2.013036 2.573467 -0.349189
-1.990569 2.570754 -0.347050
-1.971217 2.572917 -0.345556
-1.940883 2.557540 -0.341560
-1.917610 2.553211 -0.339091
-1.897878 2.554516 -0.337381
-1.872858 2.547049 -0.334434
-1.848439 2.540332 -0.331582
-1.920005 2.695159 -0.350885
-1.913560 2.756956 -0.355208
-1.906888 2.782642 -0.356606
-1.883628 2.817576 -0.357121
-1.768170 2.761538 -0.341475
-1.741027 2.868872 -0.347575
-1.720086 2.868792 -0.345623
-1.698320 2.866828 -0.343459
-1.676957 2.865397 -0.341394
-1.657701 2.868002 -0.339876
-1.639528 2.872668 -0.338647
-1.616289 2.866607 -0.336092
-1.592528 2.859053 -0.333387
-1.574857 2.864142 -0.332304
-1.554175 2.862583 -0.330420
-1.528217 2.849147 -0.327093
-1.508681 2.849443 -0.325511
-1.484409 2.838837 -0.322615
-1.462585 2.833321 -0.320386
-1.446690 2.841154 -0.319828
-1.428145 2.842755 -0.318533
-1.403782 2.830369 -0.315567
-1.384053 2.828580 -0.313925
-1.367840 2.835095 -0.313317
-1.351092 2.840249 -0.312570
-1.331955 2.839351 -0.311121
-1.301084 2.808452 -0.306110
-1.278325 2.797359 -0.303513
-1.262908 2.804895 -0.303167
-1.245026 2.805922 -0.302071
-1.226589 2.805296 -0.300803
-1.207257 2.802019 -0.299250
-1.191083 2.807168 -0.298714
-1.174580 2.811352 -0.298086
-1.149602 2.791395 -0.294656
-1.132506 2.793381 -0.293822
-1.120289 2.809521 -0.294655
-1.072130 2.719166 -0.283145
-0.957870 2.426354 -0.248281
-0.940649 2.421616 -0.246860
-0.925430 2.422803 -0.246143
-0.913914 2.435585 -0.246775
-0.895474 2.426366 -0.244897
-0.879847 2.425883 -0.244040
-0.867574 2.436377 -0.244453
-0.852322 2.437010 -0.243755
-0.834627 2.429117 -0.242104
-0.817391 2.422405 -0.240607
-0.802280 2.422872 -0.239941
-0.786009 2.419009 -0.238800
-0.769997 2.415813 -0.237752
-0.752871 2.408168 -0.236220
-0.735871 2.400576 -0.234710
-0.722823 2.407973 -0.234897
-0.707844 2.407836 -0.234253
-0.693000 2.408103 -0.233666
-0.678174 2.408319 -0.233088
-0.660329 2.395642 -0.231088
-0.644298 2.390126 -0.229900
-0.628326 2.384499 -0.228714
-0.613090 2.381802 -0.227867
-0.599205 2.385065 -0.227692
-0.583506 2.379802 -0.226586
-0.572055 2.394622 -0.227706
-0.555750 2.386076 -0.226262
-0.540551 2.382569 -0.225385
-0.523463 2.368977 -0.223415
-0.510428 2.376066 -0.223725
-0.497072 2.381641 -0.223878
-0.482756 2.382011 -0.223471
-0.467158 2.374909 -0.222260
-0.451642 2.367754 -0.221056
-0.436664 2.363322 -0.220160
-0.422699 2.364828 -0.219920
-0.408320 2.363616 -0.219396
-0.393366 2.358374 -0.218445
-0.377687 2.347687 -0.216917
-0.363220 2.344738 -0.216237
-0.349014 2.343364 -0.215739
-0.335756 2.348949 -0.216002
-0.321905 2.350142 -0.215800
-0.307978 2.350667 -0.215536
-0.294418 2.354210 -0.215607
-0.282733 2.374495 -0.217487
-0.274658 2.429702 -0.223124
-0.270876 2.531128 -0.233721
-0.260750 2.577891 -0.238450
-0.231253 2.582462 -0.238393
-0.216228 2.581631 -0.238047
-0.201192 2.580412 -0.237672
-0.178461 2.477398 -0.226435
-0.159808 2.418105 -0.219891
-0.143963 2.392596 -0.216971
-0.130227 2.397173 -0.217273
-0.116457 2.401756 -0.217587
-0.101779 2.389768 -0.216147
-0.087942 2.392791 -0.216318
-0.074356 2.402095 -0.217169
-0.063025 2.471527 -0.224429
-0.050079 2.512311 -0.228648
-0.036547 2.545879 -0.232111
-0.021458 2.529457 -0.230273
-0.006699 2.521646 -0.229364
0.010812 2.335079 -0.209479
0.025228 2.271225 -0.202649
0.038723 2.257907 -0.201201
0.052076 2.254661 -0.200836
0.065410 2.255095 -0.200875
0.078758 2.256565 -0.201038
0.092112 2.257092 -0.201115
0.105384 2.252005 -0.200610
0.118587 2.245686 -0.199989
0.132011 2.249989 -0.200510
0.145649 2.259780 -0.201631
0.158897 2.255583 -0.201279
0.171445 2.234459 -0.199143
0.184507 2.229132 -0.198702
0.198153 2.236560 -0.199634
0.211595 2.238645 -0.200013
0.225062 2.240614 -0.200398
0.238579 2.242846 -0.200827
0.251759 2.239540 -0.200682
0.264388 2.228770 -0.199757
0.277129 2.220549 -0.199120
0.290746 2.223804 -0.199727
0.303596 2.217553 -0.199334
0.317574 2.224157 -0.200335
0.331285 2.227077 -0.200960
0.344415 2.223687 -0.200927
0.356440 2.209831 -0.199786
0.369706 2.208266 -0.199982
0.383314 2.209593 -0.200508
0.397264 2.213454 -0.201326
0.411884 2.222209 -0.202693
0.425613 2.223159 -0.203235
0.438658 2.218684 -0.203208
0.452060 2.216882 -0.203488
0.464646 2.209266 -0.203153
0.477605 2.204456 -0.203138
0.490028 2.196228 -0.202765
0.503464 2.194734 -0.203142
0.516307 2.189471 -0.203121
0.530036 2.189622 -0.203707
0.543829 2.189945 -0.204326
0.556619 2.184398 -0.204313
0.569966 2.182039 -0.204661
0.584291 2.184889 -0.205595
0.598708 2.187916 -0.206561
0.611403 2.181877 -0.206530
0.623317 2.172121 -0.206090
0.637030 2.171440 -0.206662
0.653364 2.183102 -0.208616
0.667900 2.185823 -0.209576
0.681545 2.184315 -0.210061
0.696288 2.187683 -0.211091
0.712096 2.195481 -0.212614
0.727667 2.201935 -0.213979
0.740878 2.198326 -0.214199
0.753600 2.192902 -0.214195
0.766183 2.187193 -0.214138
0.780809 2.189775 -0.214998
0.795362 2.192079 -0.215801
0.808597 2.189464 -0.216015
0.821261 2.184987 -0.215981
0.834055 2.181324 -0.216001
0.848186 2.182767 -0.216563
0.863128 2.187241 -0.217427
0.876213 2.185420 -0.217521
0.889586 2.184924 -0.217713
0.902997 2.184878 -0.217901
0.912960 2.173830 -0.216765
0.925531 2.171918 -0.216616
0.943424 2.187425 -0.218404
0.955092 2.183300 -0.217867
0.964042 2.171273 -0.216353
0.977415 2.173536 -0.216410
0.989238 2.171500 -0.215900
0.999545 2.165455 -0.214857
1.010940 2.163222 -0.214178
1.025916 2.171907 -0.214671
1.036788 2.169084 -0.213775
1.043297 2.154438 -0.211459
1.053148 2.149971 -0.210233
1.064273 2.149608 -0.209401
1.071395 2.138758 -0.207314
-2.447228 2.605456 -0.387756
-2.397743 2.611864 -0.389345
-2.346460 2.568263 -0.382668
-2.298301 2.553582 -0.380028
-2.271508 2.568951 -0.381503
-2.276494 2.602741 -0.386032
-2.251990 2.596051 -0.384293
-2.213334 2.569489 -0.379437
-2.174994 2.543129 -0.374519
-2.163034 2.554426 -0.375195
-2.151892 2.567300 -0.376001
-2.129999 2.564835 -0.374400
-2.111691 2.567772 -0.373520
-2.096181 2.575068 -0.373203
-2.074416 2.573192 -0.371435
-2.048800 2.565511 -0.368735
-2.030968 2.569706 -0.367729
-2.014876 2.576730 -0.367074
-1.990388 2.570770 -0.364450
-1.965346 2.563819 -0.361639
-1.942231 2.559795 -0.359219
-1.917165 2.552505 -0.356293
-1.899040 2.556347 -0.354951
-1.864713 2.533471 -0.349737
-1.843564 2.532000 -0.347596
-1.890009 2.752830 -0.370846
-1.882200 2.776557 -0.372073
-1.882481 2.815043 -0.375335
-1.738329 2.863055 -0.365339
-1.718393 2.864904 -0.363608
-1.700443 2.870530 -0.362407
-1.680621 2.872275 -0.360714
-1.657887 2.867876 -0.358235
-1.638130 2.869292 -0.356560
-1.616903 2.867427 -0.354483
-1.594699 2.863210 -0.352133
-1.574744 2.863480 -0.350404
-1.552941 2.859507 -0.348156
-1.530877 2.854626 -0.345826
-1.501285 2.832633 -0.341327
-1.484577 2.838899 -0.340511
-1.467037 2.843200 -0.339471
-1.444659 2.836195 -0.337014
-1.424692 2.834433 -0.335262
-1.403856 2.830341 -0.333248
-1.378033 2.813931 -0.329711
-1.364631 2.827129 -0.329946
-1.352328 2.843183 -0.330558
-1.329910 2.834146 -0.328047
-1.300234 2.806238 -0.323219
-1.279104 2.799330 -0.321051
-1.262299 2.803305 -0.320265
-1.244555 2.804705 -0.319186
-1.226799 2.805911 -0.318107
-1.207663 2.803206 -0.316574
-1.188387 2.799839 -0.314986
-1.165246 2.785359 -0.312067
-1.145357 2.779500 -0.310233
-1.129519 2.784959 -0.309803
-1.102573 2.757882 -0.305448
-1.082722 2.750881 -0.303560
-0.961004 2.436053 -0.264557
-0.941903 2.425720 -0.262411
-0.927045 2.428113 -0.261818
-0.911372 2.427847 -0.260923
-0.896178 2.428958 -0.260212
-0.875936 2.413447 -0.257536
-0.862279 2.419152 -0.257410
-0.849225 2.426934 -0.257545
-0.830921 2.416786 -0.255568
-0.814637 2.413201 -0.254389
-0.799315 2.412767 -0.253600
-0.785450 2.417452 -0.253428
-0.768275 2.409943 -0.251838
-0.752566 2.407526 -0.250862
-0.738756 2.412148 -0.250727
-0.723264 2.410235 -0.249840
-0.705257 2.398104 -0.247777
-0.690255 2.397541 -0.247079
-0.676441 2.401740 -0.246948
-0.662307 2.404616 -0.246675
-0.645924 2.397773 -0.245289
-0.628181 2.384506 -0.243175
-0.613522 2.384412 -0.242600
-0.602240 2.399720 -0.243812
-0.588196 2.402583 -0.243599
-0.570141 2.386126 -0.241176
-0.555290 2.384552 -0.240478
-0.539265 2.376836 -0.239089
-0.523497 2.369931 -0.237807
-0.509727 2.373145 -0.237694
-0.496785 2.380895 -0.238109
-0.482470 2.381257 -0.237691
-0.467368 2.376978 -0.236756
-0.449810 2.357826 -0.234142
-0.435390 2.356496 -0.233567
-0.422048 2.361691 -0.233743
-0.407742 2.360852 -0.233246
-0.391745 2.348596 -0.231467
-0.377374 2.346556 -0.230856
-0.363811 2.349981 -0.230873
-0.349476 2.347837 -0.230272
-0.335287 2.346510 -0.229774
-0.322583 2.356644 -0.230576
-0.307855 2.350871 -0.229598
-0.295033 2.360697 -0.230383
-0.286188 2.406404 -0.235203
-0.275876 2.442361 -0.238931
-0.270249 2.526611 -0.248072
-0.258207 2.553830 -0.250826
-0.232237 2.595247 -0.254900
-0.215564 2.575743 -0.252460
-0.198577 2.549937 -0.249331
-0.180006 2.499898 -0.243517
-0.159135 2.410881 -0.233378
-0.143192 2.383392 -0.230115
-0.128747 2.375858 -0.229088
-0.115583 2.389346 -0.230412
-0.102825 2.412753 -0.232850
-0.088212 2.401900 -0.231490
-0.075123 2.423697 -0.233771
-0.063021 2.475954 -0.239445
-0.050002 2.515393 -0.243704
-0.035883 2.529744 -0.245191
-0.022267 2.569444 -0.249503
-0.007316 2.561418 -0.248532
0.010595 2.360611 -0.226197
0.025244 2.286381 -0.217919
0.038895 2.260304 -0.214995
0.052268 2.254623 -0.214346
0.065608 2.255565 -0.214446
0.078977 2.258832 -0.214818
0.092393 2.263287 -0.215335
0.105722 2.259670 -0.214973
0.119004 2.255142 -0.214524
0.132389 2.255976 -0.214685
0.159614 2.269325 -0.216350
0.171674 2.234155 -0.212561
0.184538 2.224248 -0.211591
0.198000 2.228210 -0.212178
0.211787 2.237338 -0.213356
0.225059 2.235912 -0.213377
0.238863 2.242933 -0.214356
0.252091 2.240223 -0.214269
0.264894 2.231723 -0.213554
0.277990 2.227847 -0.213370
0.291324 2.227099 -0.213553
0.304695 2.226632 -0.213786
0.317572 2.220533 -0.213406
0.331054 2.221138 -0.213794
0.344127 2.217373 -0.213711
0.355788 2.200265 -0.212147
0.369077 2.199238 -0.212404
0.383432 2.207390 -0.213712
0.397199 2.209722 -0.214385
0.410935 2.211408 -0.215004
0.424784 2.213621 -0.215702
0.438211 2.212282 -0.216016
0.451759 2.211700 -0.216434
0.464862 2.207831 -0.216496
0.477506 2.200888 -0.216224
0.491447 2.202673 -0.216960
0.503537 2.192396 -0.216338
0.517372 2.193283 -0.217002
0.531530 2.195861 -0.217875
0.545697 2.198159 -0.218731
0.557745 2.188173 -0.218190
0.569814 2.178677 -0.217712
0.583568 2.178545 -0.218321
0.598217 2.182951 -0.219463
0.611208 2.178554 -0.219596
0.623267 2.169625 -0.219208
0.637462 2.171371 -0.220059
0.654096 2.184486 -0.222238
0.668772 2.187868 -0.223286
0.674871 2.152242 -0.219775
0.696628 2.187408 -0.224532
0.711998 2.193390 -0.225873
0.727346 2.199030 -0.227165
0.741539 2.199660 -0.227855
0.753964 2.193117 -0.227682
0.766864 2.188796 -0.227747
0.780644 2.188173 -0.228224
0.796149 2.194308 -0.229473
0.809058 2.190583 -0.229521
0.821681 2.186109 -0.229442
0.833043 2.177404 -0.228818
0.846593 2.177031 -0.229141
0.859859 2.175925 -0.229329
0.873704 2.177125 -0.229741
0.888634 2.182265 -0.230568
0.902954 2.185528 -0.231113
0.913204 2.175641 -0.230025
0.926457 2.176148 -0.230115
0.941848 2.183853 -0.230998
0.953698 2.180593 -0.230501
0.966708 2.181440 -0.230424
0.976701 2.173466 -0.229220
0.988095 2.170379 -0.228527
0.997743 2.162626 -0.227204
1.010639 2.165085 -0.227023
1.023164 2.166870 -0.226686
1.033079 2.161594 -0.225436
1.045280 2.163398 -0.224951
1.055139 2.159069 -0.223668
1.064350 2.153511 -0.222170
1.087407 2.186540 -0.225133
-2.365177 2.480934 -0.384353
-2.465904 2.656754 -0.412885
-2.394453 2.586794 -0.402118
-2.373197 2.582608 -0.401601
-2.358030 2.586781 -0.402286
-2.327119 2.570123 -0.399569
-2.274922 2.550012 -0.395870
-2.272975 2.573398 -0.399114
-2.259488 2.581392 -0.399814
-2.238136 2.578748 -0.398728
-2.212062 2.569618 -0.396514
-2.156630 2.518693 -0.387655
-2.148793 2.535531 -0.389305
-2.143706 2.556854 -0.391543
-2.128803 2.564362 -0.391519
-2.111218 2.568201 -0.390828
-2.086913 2.562219 -0.388526
-2.067120 2.563040 -0.387196
-2.034005 2.543705 -0.382691
-2.021013 2.554986 -0.382823
-2.010454 2.570321 -0.383498
-1.991502 2.572850 -0.382149
-1.966198 2.565392 -0.379231
-1.941409 2.558605 -0.376375
-1.920822 2.558447 -0.374483
-1.894722 2.549243 -0.371201
-1.872128 2.545574 -0.368727
-1.851717 2.545396 -0.366753
-1.879287 2.770952 -0.389652
-1.897437 2.841146 -0.397691
-1.733944 2.853902 -0.382608
-1.717054 2.861667 -0.381676
-1.701532 2.872116 -0.381136
-1.680567 2.871592 -0.379096
-1.658880 2.869345 -0.376849
-1.634136 2.860489 -0.373729
-1.614337 2.861532 -0.372003
-1.596076 2.865628 -0.370723
-1.573588 2.860521 -0.368223
-1.551944 2.856888 -0.365959
-1.527578 2.846946 -0.362883
-1.502850 2.835715 -0.359675
-1.485055 2.839602 -0.358532
-1.470757 2.851346 -0.358463
-1.447727 2.842971 -0.355745
-1.424025 2.832580 -0.352799
-1.403128 2.828351 -0.350707
-1.379404 2.816993 -0.347712
-1.358052 2.810896 -0.345447
-1.348224 2.832873 -0.346882
-1.327375 2.827653 -0.344789
-1.304600 2.817197 -0.342050
-1.281628 2.805733 -0.339217
-1.264835 2.809856 -0.338433
-1.244036 2.803303 -0.336299
-1.225247 2.801749 -0.334838
-1.208974 2.806798 -0.334250
-1.184641 2.789557 -0.330841
-1.164171 2.782431 -0.328757
-1.144239 2.776433 -0.326845
-1.125656 2.773955 -0.325407
-1.110158 2.780247 -0.325101
-1.078664 2.739008 -0.318831
-0.978323 2.488519 -0.286328
-0.945590 2.437242 -0.278959
-0.929090 2.434724 -0.277734
-0.913096 2.433565 -0.276700
-0.890945 2.412415 -0.273198
-0.874621 2.409454 -0.271985
-0.860356 2.413088 -0.271607
-0.845839 2.415842 -0.271137
-0.827336 2.404832 -0.268985
-0.813109 2.408246 -0.268630
-0.802714 2.425279 -0.269964
-0.782798 2.408270 -0.267131
-0.770658 2.419191 -0.267740
-0.755266 2.418149 -0.266899
-0.738994 2.413549 -0.265639
-0.719926 2.397716 -0.263030
-0.704146 2.394211 -0.261939
-0.689692 2.395802 -0.261482
-0.676082 2.400822 -0.261453
-0.662724 2.406968 -0.261572
-0.649319 2.413032 -0.261692
-0.634539 2.413153 -0.261107
-0.616183 2.397036 -0.258583
-0.603818 2.407652 -0.259287
-0.589984 2.411691 -0.259211
-0.573615 2.403567 -0.257691
-0.555661 2.387104 -0.255189
-0.539836 2.380460 -0.253876
-0.524358 2.375150 -0.252737
-0.509606 2.373283 -0.252021
-0.496070 2.377813 -0.252077
-0.481717 2.377876 -0.251613
-0.466048 2.370249 -0.250249
-0.448057 2.348349 -0.247208
-0.433619 2.346639 -0.246572
-0.420799 2.354811 -0.247115
-0.406245 2.352171 -0.246391
-0.391271 2.346434 -0.245314
-0.377386 2.347665 -0.245069
-0.364629 2.356837 -0.245769
-0.350815 2.358754 -0.245625
-0.336816 2.359268 -0.245326
-0.322778 2.359371 -0.244990
-0.308729 2.359255 -0.244640
-0.294667 2.358876 -0.244269
-0.284749 2.395026 -0.248180
-0.279963 2.481565 -0.257979
-0.270752 2.533028 -0.263678
-0.260136 2.574990 -0.268272
-0.232093 2.595523 -0.270094
-0.214723 2.567835 -0.266605
-0.197495 2.538572 -0.262949
-0.178161 2.477760 -0.255645
-0.160025 2.425715 -0.249380
-0.143093 2.384390 -0.244378
-0.128442 2.373638 -0.242940
-0.115322 2.387748 -0.244397
-0.104149 2.441227 -0.250426
-0.087859 2.398204 -0.245287
-0.074719 2.418517 -0.247496
-0.063276 2.487337 -0.255330
-0.049573 2.508420 -0.257650
-0.036289 2.550171 -0.262372
-0.022277 2.577989 -0.265495
-0.007505 2.580915 -0.265754
0.011015 2.346384 -0.238582
0.025374 2.292415 -0.232299
0.039045 2.267942 -0.229440
0.052469 2.256305 -0.228078
0.065828 2.259516 -0.228447
0.079217 2.262328 -0.228784
0.092621 2.263925 -0.228995
0.105934 2.258852 -0.228451
0.119208 2.253870 -0.227932
0.132645 2.256718 -0.228333
0.146337 2.266813 -0.229589
0.160207 2.279045 -0.231109
0.185519 2.240452 -0.226900
0.199006 2.243255 -0.227378
0.212466 2.244817 -0.227729
0.225608 2.240427 -0.227407
0.239150 2.242822 -0.227889
0.252930 2.248152 -0.228729
0.266233 2.245971 -0.228716
0.279050 2.237483 -0.227987
0.293631 2.251368 -0.229878
0.306396 2.242453 -0.229135
0.318085 2.222386 -0.227108
0.331084 2.217761 -0.226897
0.341357 2.186168 -0.223553
0.354728 2.186659 -0.223972
0.370545 2.209164 -0.226986
0.384259 2.211214 -0.227628
0.397711 2.210682 -0.227985
0.410734 2.206502 -0.227932
0.424391 2.207330 -0.228486
0.438422 2.210688 -0.229355
0.452033 2.210555 -0.229832
0.464804 2.204347 -0.229608
0.477357 2.196865 -0.229248
0.490928 2.196312 -0.229722
0.505814 2.203932 -0.231184
0.518077 2.194766 -0.230666
0.531417 2.192381 -0.230967
0.547165 2.203940 -0.232945
0.560444 2.200747 -0.233176
0.570382 2.179191 -0.231217
0.583465 2.175457 -0.231397
0.597790 2.178254 -0.232369
0.610305 2.171578 -0.232208
0.623654 2.169252 -0.232574
0.639211 2.177634 -0.234236
0.654527 2.184404 -0.235708
0.667823 2.181457 -0.236002
0.681484 2.180244 -0.236501
0.696254 2.183961 -0.237593
0.711720 2.190517 -0.239023
0.726912 2.195648 -0.240269
0.740912 2.195661 -0.240874
0.754103 2.192437 -0.241061
0.765864 2.183721 -0.240549
0.779660 2.183404 -0.241040
0.795150 2.189731 -0.242319
0.809973 2.193466 -0.243246
0.822594 2.189111 -0.243135
0.834972 2.184234 -0.242916
0.847185 2.179171 -0.242626
0.858932 2.172905 -0.242136
0.872241 2.172522 -0.242320
0.888016 2.180834 -0.243527
0.903762 2.189120 -0.244671
0.919115 2.196208 -0.245603
0.926320 2.177042 -0.243208
0.936736 2.169090 -0.242138
0.956022 2.189703 -0.244542
0.969293 2.191488 -0.244535
0.979098 2.183046 -0.243187
0.987815 2.171987 -0.241442
0.995512 2.158630 -0.239340
1.007049 2.157382 -0.238662
1.019640 2.159698 -0.238348
1.039601 2.183612 -0.240614
1.053009 2.188824 -0.240497
1.060939 2.179004 -0.238463
1.065993 2.161888 -0.235471
1.069403 2.141096 -0.231972
-2.366183 2.576634 -0.417269
-2.296007 2.556042 -0.413812
-2.281440 2.561592 -0.414447
-2.248891 2.569013 -0.414765
-2.229970 2.569482 -0.414223
-2.203661 2.559750 -0.411915
-2.184117 2.559722 -0.411070
-2.154612 2.545569 -0.407837
-2.147602 2.564023 -0.409764
-2.131230 2.569274 -0.409455
-2.106596 2.562564 -0.407126
-2.085434 2.561057 -0.405545
-2.061517 2.555495 -0.403231
-2.037760 2.550172 -0.400881
-2.018833 2.552258 -0.399635
-2.004251 2.561193 -0.399402
-1.987064 2.566272 -0.398489
-1.963989 2.562159 -0.396070
-1.935796 2.549784 -0.392313
-1.915590 2.550049 -0.390496
-1.889710 2.541027 -0.387198
-1.868995 2.540292 -0.385160
-1.867735 2.571914 -0.388080
-1.887984 2.640381 -0.396591
-1.749568 2.843008 -0.401635
