ply
format ascii 1.0
comment ---
element vertex 1647
property float x
property float y
property float z
element face 0
property list uchar uint vertex_indices
end_header
-4.285987 -3.521980 0.403523
-4.292373 -3.501387 0.401245
-4.292085 -3.476264 0.396865
-4.287599 -3.448436 0.391186
-4.278422 -3.417655 0.384067
-4.271756 -3.388825 0.377773
-4.263415 -3.359123 0.370993
-4.272955 -3.341379 0.369792
-4.288072 -3.327252 0.370307
-4.253272 -3.281051 0.355451
-4.259464 -3.261451 0.353252
-4.264822 -3.241367 0.350798
-4.252892 -3.210596 0.343090
-4.240847 -3.180030 0.335389
-4.224132 -3.146896 0.326319
-4.240653 -3.134073 0.327291
-4.228818 -3.104278 0.319746
-4.220788 -3.076976 0.313374
-4.225238 -3.057139 0.310740
-4.214353 -3.028517 0.303566
-4.212394 -3.005208 0.299060
-4.208206 -2.980760 0.293912
-4.210127 -2.959852 0.290570
-4.207568 -2.936541 0.285927
-4.201268 -2.911314 0.280212
-4.200698 -2.889326 0.276176
-4.201503 -2.868155 0.272546
-4.196797 -2.844162 0.267340
-4.199085 -2.823931 0.264152
-4.196849 -2.801430 0.259679
-4.189526 -2.776459 0.253775
-4.183242 -2.752173 0.248190
-4.191741 -2.735343 0.246789
-4.196247 -2.716538 0.244258
-4.200170 -2.697476 0.241565
-4.199315 -2.676175 0.237544
-4.198054 -2.654777 0.233425
-4.200501 -2.635199 0.230345
-4.182732 -2.606431 0.221716
-4.190802 -2.589641 0.220217
-4.168674 -2.559395 0.210480
-4.145356 -2.528993 0.200487
-4.157582 -2.514400 0.200184
-2.455380 -1.746146 -0.265834
-2.455833 -1.736612 -0.267471
-7.469710 -3.720960 1.054775
-0.775953 -1.045867 -0.715155
-0.768100 -1.042730 -0.717232
-0.766688 -1.042111 -0.717614
-0.765079 -1.041435 -0.718046
-0.768330 -1.042562 -0.717217
-0.773261 -1.044264 -0.715960
-0.776701 -1.045385 -0.715095
-0.779509 -1.046118 -0.714421
-1.796418 -6.190961 0.299167
-1.812310 -6.150249 0.296213
-1.831514 -6.125582 0.296472
-1.853671 -6.114349 0.299461
-1.879627 -6.119582 0.305829
-1.903873 -6.116008 0.310486
-1.930763 -6.123059 0.317366
-1.954206 -6.114406 0.321093
-1.980362 -6.116584 0.327087
-2.003628 -6.106297 0.330544
-2.028276 -6.101312 0.335124
-2.054585 -6.102458 0.341013
-2.080247 -6.100630 0.346308
-2.105286 -6.096118 0.351057
-2.130308 -6.091351 0.355763
-2.981485 -6.100853 0.538896
-3.075081 -5.993547 0.541419
-3.087506 -5.959641 0.538631
-3.140486 -6.010764 0.557644
-3.167687 -6.007358 0.562711
-3.189742 -5.993302 0.565024
-3.210573 -5.976849 0.566698
-3.241091 -5.979749 0.573423
-3.253321 -5.946402 0.570637
-3.284807 -5.950908 0.577801
-3.303064 -5.929655 0.578156
-3.349217 -5.961498 0.592651
-3.374118 -5.952487 0.596298
-3.397524 -5.940611 0.599177
-3.407414 -5.903930 0.595343
-3.437540 -5.904443 0.601553
-3.477926 -5.923039 0.612730
-3.510724 -5.927465 0.620096
-3.536480 -5.919140 0.623990
-3.558362 -5.903963 0.625997
-3.584845 -5.896694 0.630195
-3.617717 -5.900108 0.637393
-3.683652 -5.906087 0.651676
-3.713453 -5.903292 0.657242
-3.744271 -5.901883 0.663232
-3.775121 -5.900228 0.669184
-3.808493 -5.902288 0.676237
-3.830014 -5.885301 0.677837
-3.860552 -5.882390 0.683512
-3.880242 -5.862466 0.684264
-3.934243 -5.895001 0.700353
-3.955579 -5.877164 0.701764
-3.986910 -5.874299 0.707590
-4.016540 -5.868629 0.712620
-4.020039 -5.824440 0.706193
-4.074633 -5.854904 0.722050
-4.099343 -5.841503 0.724836
-4.166835 -5.888815 0.745991
-4.189487 -5.871744 0.747766
-4.217619 -5.862290 0.751866
-4.252116 -5.861444 0.758628
-4.281259 -5.852949 0.763080
-4.307551 -5.840410 0.766305
-4.323622 -5.814089 0.765255
-4.381804 -5.843699 0.781667
-4.415066 -5.839682 0.787657
-4.441514 -5.826533 0.790805
-4.473893 -5.820902 0.796352
-4.498621 -5.805274 0.798751
-4.537900 -5.807923 0.807012
-4.608405 -5.849122 0.827747
-4.613081 -5.807793 0.821974
-4.604270 -5.750391 0.810904
-4.587224 -5.683756 0.796693
-4.572140 -5.620401 0.783404
-4.558092 -5.559142 0.770659
-4.516470 -5.338859 0.726581
-4.519375 -5.300609 0.720939
-4.498348 -5.235918 0.706236
-4.501519 -5.198989 0.700858
-4.517391 -5.176390 0.700333
-4.526476 -5.146489 0.697269
-4.476064 -5.014119 0.665701
-4.475870 -4.975779 0.659415
-4.494445 -4.957504 0.660120
-4.505445 -4.931380 0.658042
-4.499978 -4.888496 0.649963
-4.480607 -4.831942 0.636895
-4.494282 -4.773404 0.630046
-4.346083 -3.912165 0.459281
-4.335293 -3.875694 0.451117
-4.329498 -3.843528 0.444640
-4.321042 -3.809593 0.437344
-4.309793 -3.773846 0.429195
-4.309043 -3.746469 0.424486
-4.309645 -3.720321 0.420240
-4.315484 -3.698268 0.417694
-4.323956 -3.678266 0.415998
-4.319318 -3.648724 0.410147
-4.281836 -3.595618 0.393955
-4.284799 -3.572262 0.390608
-4.302019 -3.559163 0.391748
-4.308895 -3.538710 0.389637
-4.309638 -3.514050 0.385623
-4.296902 -3.480249 0.377449
-4.285293 -3.447549 0.369673
-4.274173 -3.415492 0.362094
-4.264961 -3.385012 0.355145
-4.264032 -3.360280 0.350762
-4.273539 -3.342533 0.349574
-4.274117 -3.319005 0.345673
-4.259880 -3.286099 0.337315
-4.236219 -3.247532 0.326172
-4.244576 -3.229507 0.324686
-4.242997 -3.205319 0.320231
-4.239753 -3.180243 0.315296
-4.231922 -3.152533 0.309023
-4.234617 -3.131366 0.305884
-4.230637 -3.106298 0.300789
-4.230535 -3.083666 0.296848
-4.228780 -3.060173 0.292435
-4.214884 -3.029810 0.284508
-4.205329 -3.002190 0.277878
-4.208851 -2.982142 0.275047
-4.213061 -2.962521 0.272414
-4.205274 -2.936332 0.266348
-4.207030 -2.915514 0.263026
-4.208809 -2.894770 0.259714
-4.208914 -2.873193 0.255932
-4.198299 -2.846066 0.249137
-4.191506 -2.821131 0.243446
-4.193101 -2.800658 0.240121
-4.192978 -2.779371 0.236321
-4.194220 -2.758844 0.232908
-4.192124 -2.736730 0.228579
-4.192541 -2.715945 0.224954
-4.191401 -2.694484 0.220911
-4.194341 -2.675060 0.217994
-4.195234 -2.654722 0.214526
-4.196626 -2.634692 0.211204
-4.200184 -2.615728 0.208476
-4.187751 -2.589588 0.201461
-4.178353 -2.565051 0.195302
-4.168558 -2.540557 0.189076
-4.170790 -2.521514 0.186084
-0.778438 -1.046989 -0.714610
-0.773349 -1.044865 -0.715945
-0.766273 -1.042037 -0.717780
-0.763726 -1.040998 -0.718444
-0.765527 -1.041609 -0.717996
-0.772213 -1.043895 -0.716330
-0.771175 -1.043423 -0.716608
-0.753467 -1.037080 -0.721071
-1.812445 -6.131158 0.268717
-1.836141 -6.128286 0.273266
-1.884894 -6.125378 0.283146
-1.907915 -6.116454 0.286705
-1.933768 -6.119145 0.292626
-1.960127 -6.123004 0.298844
-1.985960 -6.123784 0.304500
-2.011647 -6.123259 0.309939
-2.035025 -6.113019 0.313437
-2.058780 -6.104118 0.317222
-2.082411 -6.094617 0.320895
-2.107121 -6.089087 0.325396
-2.134238 -6.092204 0.331708
-2.306254 -6.412713 0.416663
-3.063851 -6.085698 0.526703
-3.063036 -5.961019 0.507391
-3.105353 -5.990509 0.520561
-3.136092 -5.994958 0.527508
-3.159958 -5.984916 0.530816
-3.184628 -5.976482 0.534527
-3.214422 -5.978265 0.540846
-3.232115 -5.955730 0.540948
-3.262398 -5.958125 0.547444
-3.286683 -5.948565 0.550871
-3.318884 -5.954106 0.558226
-3.339356 -5.937019 0.559702
-3.371973 -5.942773 0.567160
-3.393438 -5.927455 0.569096
-3.412526 -5.907832 0.569879
-3.434958 -5.894402 0.572290
-3.483526 -5.927769 0.587214
-3.510256 -5.921423 0.591576
-3.543219 -5.925829 0.598853
-3.554648 -5.892513 0.595939
-3.584955 -5.891962 0.601900
-3.619358 -5.898053 0.609711
-3.652314 -5.901268 0.616778
-3.682528 -5.899545 0.622522
-3.710124 -5.893234 0.627022
-3.771042 -5.889246 0.638496
-3.803432 -5.889893 0.645023
-3.836982 -5.892019 0.652009
-3.900080 -5.888974 0.664027
-3.908552 -5.851788 0.659859
-3.946169 -5.859030 0.668436
-3.980356 -5.860657 0.675447
-3.992246 -5.828929 0.672802
-4.026245 -5.829870 0.679661
-4.083478 -5.864119 0.696348
-4.150903 -5.911946 0.717181
-4.159803 -5.875351 0.713165
-4.180405 -5.855585 0.714105
-4.216119 -5.856894 0.721344
-4.250939 -5.856587 0.728149
-4.273042 -5.838584 0.729654
-4.299985 -5.827119 0.733142
-4.340849 -5.834129 0.742283
-4.373398 -5.829637 0.747969
-4.414186 -5.835666 0.756934
-4.447079 -5.830971 0.762650
-4.471568 -5.815204 0.764962
-4.501346 -5.806108 0.769366
-4.528941 -5.794075 0.772873
-4.558002 -5.783736 0.776934
-4.597278 -5.739510 0.777624
-4.544851 -5.541373 0.735930
-4.544156 -5.496888 0.728735
-4.532954 -5.398094 0.710857
-4.536881 -5.360478 0.705651
-4.526716 -5.266163 0.688675
-4.506569 -5.163086 0.668348
-4.529982 -5.148962 0.670673
-4.496879 -5.073835 0.652254
-4.491426 -5.029331 0.644104
-4.520993 -4.946500 0.636675
-4.345657 -3.912061 0.436572
-4.334114 -3.875029 0.428334
-4.331978 -3.845773 0.423164
-4.325416 -3.813322 0.416618
-4.316973 -3.779729 0.409521
-4.313447 -3.750212 0.404025
-4.320621 -3.729019 0.401933
-4.328690 -3.708579 0.400130
-4.318068 -3.674384 0.392493
-4.294644 -3.631153 0.380924
-4.285329 -3.598672 0.373806
-4.292068 -3.578027 0.371691
-4.312129 -3.566924 0.373680
-4.318319 -3.545941 0.371392
-4.315081 -3.518466 0.366231
-4.298124 -3.481737 0.356926
-4.280516 -3.444955 0.347482
-4.266515 -3.411005 0.339185
-4.267217 -3.387227 0.335358
-4.274903 -3.368203 0.333637
-4.280368 -3.347757 0.331252
-4.268688 -3.316257 0.323774
-4.239265 -3.273663 0.311083
-4.258007 -3.262166 0.312679
-4.243310 -3.229536 0.304420
-4.245717 -3.207852 0.301214
-4.228575 -3.174230 0.292313
-4.223536 -3.148309 0.286977
-4.221369 -3.124289 0.282494
-4.233402 -3.108855 0.282119
-4.231855 -3.085373 0.277828
-4.229116 -3.061315 0.273207
-4.209649 -3.027754 0.263835
-4.211157 -3.006481 0.260467
-4.207882 -2.982587 0.255752
-4.210908 -2.962330 0.252825
-4.204172 -2.936747 0.247160
-4.201209 -2.913386 0.242571
-4.206211 -2.894428 0.240213
-4.204435 -2.871884 0.235970
-4.197044 -2.846491 0.230187
-4.193979 -2.823513 0.225617
-4.188646 -2.799487 0.220438
-4.192508 -2.780263 0.217788
-4.194413 -2.760089 0.214605
-4.190562 -2.737121 0.209866
-4.188145 -2.714979 0.205530
-4.186654 -2.693393 0.201458
-4.187029 -2.672795 0.197898
-4.189320 -2.653177 0.194859
-4.194776 -2.635088 0.192668
-4.179693 -2.607612 0.185047
-4.188607 -2.591267 0.183794
-7.473957 -3.728629 0.987702
-0.779937 -1.047593 -0.714363
-0.775426 -1.045684 -0.715528
-0.768352 -1.042841 -0.717328
-0.763678 -1.040985 -0.718513
-0.764848 -1.041362 -0.718232
-7.565200 -3.545219 0.972931
-7.577481 -3.514719 0.970058
-0.766986 -1.041933 -0.717736
-0.765565 -1.041358 -0.718098
-0.793865 -1.051146 -0.711166
-1.910948 -6.112643 0.262123
-1.936420 -6.113912 0.267693
-1.963065 -6.119200 0.274110
-1.989148 -6.121202 0.279943
-2.018965 -6.137476 0.288654
-2.040067 -6.118099 0.290343
-2.061896 -6.101767 0.292636
-2.084942 -6.090204 0.295884
-2.110346 -6.087436 0.300914
-2.139688 -6.098763 0.308830
-2.788652 -6.310152 0.476716
-3.048980 -5.984613 0.481738
-3.080347 -5.991109 0.489039
-3.104788 -5.982640 0.492696
-3.123423 -5.962059 0.493361
-3.144884 -5.947510 0.495489
-3.184331 -5.969527 0.506702
-3.205779 -5.954683 0.508765
-3.242344 -5.969866 0.518358
-3.262703 -5.952688 0.519834
-3.298041 -5.964622 0.528675
-3.325486 -5.960900 0.533576
-3.350029 -5.951485 0.537032
-3.372332 -5.937805 0.539391
-3.396310 -5.927237 0.542546
-3.403490 -5.885885 0.537706
-3.486859 -5.928467 0.560636
-3.512720 -5.920614 0.564546
-3.532953 -5.902775 0.565823
-3.570357 -5.914739 0.575004
-3.588947 -5.893915 0.575491
-3.623215 -5.899781 0.583116
-3.656064 -5.902828 0.590026
-3.681345 -5.892943 0.593476
-3.704492 -5.879445 0.595950
-3.773195 -5.888316 0.610744
-3.807272 -5.891688 0.617918
-3.870063 -5.888886 0.629743
-3.871622 -5.841072 0.622722
-3.938409 -5.843431 0.636088
-3.962340 -5.829940 0.638673
-4.001459 -5.838828 0.647643
-4.046071 -5.855233 0.658831
-4.084330 -5.861759 0.667263
-4.112738 -5.853685 0.671535
-4.131728 -5.832061 0.671892
-4.224174 -5.864804 0.694850
-4.246141 -5.846763 0.696325
-4.271845 -5.833819 0.699306
-4.302182 -5.827026 0.704129
-4.332090 -5.819439 0.708743
-4.392392 -5.851846 0.725402
-4.418100 -5.837945 0.728225
-4.437737 -5.816081 0.728641
-4.465509 -5.804729 0.732251
-4.495150 -5.795609 0.736563
-4.519505 -5.779649 0.738795
-4.549526 -5.770697 0.743202
-4.584993 -5.768278 0.749667
-4.610530 -5.753397 0.752286
-4.600750 -5.695682 0.741467
-4.544754 -5.539232 0.706450
-4.529782 -5.478044 0.694086
-4.542596 -5.450034 0.692211
-4.534885 -5.314903 0.669766
-4.547741 -5.288163 0.668087
-4.476035 -5.167774 0.635615
-4.527327 -5.184493 0.648064
-4.548744 -5.128473 0.643469
-4.634604 -4.297649 0.529795
-4.642092 -4.272545 0.527241
-4.642961 -4.242126 0.522587
-4.625720 -4.197171 0.512199
-4.569664 -4.121370 0.489576
-4.346239 -3.912751 0.414239
-4.328205 -3.870602 0.404131
-4.342667 -3.854449 0.404283
-4.349073 -3.832024 0.401913
-4.318367 -3.781147 0.388008
-4.324534 -3.759036 0.385631
-4.332064 -3.738057 0.383685
-4.308374 -3.693831 0.372146
-4.288740 -3.653143 0.361928
-4.287210 -3.626188 0.357305
-4.286316 -3.599893 0.352900
-4.296046 -3.581414 0.351736
-4.300339 -3.559100 0.348930
-4.315236 -3.544355 0.349321
-4.284515 -3.497776 0.336040
-4.293045 -3.478860 0.334553
-4.282576 -3.447007 0.327421
-4.264854 -3.410547 0.318182
-4.272882 -3.391703 0.316591
-4.294817 -3.382097 0.319082
-4.285495 -3.351847 0.312394
-4.288204 -3.329660 0.309247
-4.265146 -3.291032 0.298626
-4.265596 -3.267769 0.294868
-4.259460 -3.240484 0.289224
-4.241640 -3.206136 0.280251
-4.239280 -3.181647 0.275749
-4.211127 -3.141606 0.263914
-4.218430 -3.123385 0.262212
-4.225190 -3.104851 0.260350
-4.225684 -3.082640 0.256717
-4.220948 -3.057474 0.251624
-4.220200 -3.034763 0.247663
-4.205484 -3.004196 0.239823
-4.209266 -2.984328 0.237151
-4.207690 -2.961515 0.232997
-4.198614 -2.934678 0.226789
-4.198514 -2.912925 0.223067
-4.198127 -2.891100 0.219272
-4.197175 -2.869061 0.215331
-4.201001 -2.849623 0.212691
-4.200339 -2.827884 0.208839
-4.192647 -2.802622 0.203104
-4.187557 -2.778850 0.198089
-4.192676 -2.760333 0.195812
-4.185482 -2.735738 0.190263
-4.188134 -2.716120 0.187341
-4.185695 -2.694093 0.183080
-4.186729 -2.673832 0.179746
-4.185449 -2.652554 0.175815
-4.188246 -2.633275 0.172960
-4.185458 -2.611491 0.168665
-4.185920 -2.591309 0.165230
-4.176908 -2.566990 0.159374
-4.158764 -2.538857 0.151217
-2.489460 -1.752637 -0.285093
-0.778427 -1.047008 -0.714877
-7.566890 -3.549183 0.939550
-7.581934 -3.519761 0.937407
-7.616314 -3.430282 0.929103
-1.820556 -6.131245 0.221430
-1.869845 -6.133774 0.231951
-1.891037 -6.117756 0.234087
-1.912948 -6.104512 0.236786
-1.939411 -6.110329 0.243148
-1.961236 -6.095641 0.245661
-1.987156 -6.097577 0.251391
-2.017179 -6.115227 0.260210
-2.044926 -6.122602 0.267113
-2.068230 -6.112008 0.270556
-2.087906 -6.087621 0.271298
-2.113594 -6.086041 0.276522
-2.140242 -6.087634 0.282396
-3.082908 -5.989830 0.462909
-3.106162 -5.978918 0.465946
-3.123281 -5.955288 0.465903
-3.151358 -5.954423 0.471341
-3.221919 -5.980824 0.489148
-3.232439 -5.944172 0.485859
-3.265384 -5.951955 0.493485
-3.297794 -5.958248 0.500779
-3.326787 -5.957588 0.506373
-3.356699 -5.958393 0.512354
-3.382191 -5.950636 0.516201
-3.396859 -5.922764 0.514964
-3.426589 -5.922735 0.520762
-3.461812 -5.932335 0.529043
-3.488801 -5.926713 0.533466
-3.511423 -5.913191 0.535866
-3.542800 -5.914962 0.542220
-3.568211 -5.906072 0.545832
-3.607038 -5.920012 0.555420
-3.662374 -5.908696 0.564443
-3.682797 -5.890744 0.565719
-3.710077 -5.884088 0.569992
-3.745071 -5.889756 0.577580
-3.815929 -5.901152 0.592915
-3.837742 -5.884783 0.594667
-3.854432 -5.860456 0.594242
-3.878778 -5.848078 0.597065
-3.909685 -5.845614 0.602623
-3.936406 -5.836555 0.606388
-4.010577 -5.848592 0.622386
-4.070738 -5.838519 0.632377
-4.097431 -5.828268 0.635937
-4.116453 -5.806997 0.636376
-4.164481 -5.826524 0.648468
-4.183279 -5.804689 0.648773
-4.256839 -5.858284 0.670842
-4.282801 -5.845624 0.673883
-4.311532 -5.836595 0.677994
-4.335091 -5.820480 0.680052
-4.371179 -5.820888 0.686976
-4.414913 -5.830937 0.696802
-4.436467 -5.811681 0.697996
-4.469966 -5.807770 0.703769
-4.506723 -5.807711 0.710738
-4.533773 -5.795074 0.713965
-4.556959 -5.777502 0.715712
-4.585927 -5.767042 0.719626
-4.600070 -5.738302 0.717967
-4.574482 -5.661676 0.701543
-4.566489 -5.607254 0.691805
-4.537664 -5.485376 0.667919
-4.543214 -5.406366 0.657014
-4.529717 -5.348894 0.645760
-4.528989 -5.306612 0.639218
-4.526582 -5.182268 0.619915
-4.626924 -4.291246 0.502540
-4.556455 -4.140811 0.466144
-4.345369 -3.912267 0.391502
-4.336896 -3.877733 0.384556
-4.338137 -3.851167 0.380643
-4.348903 -3.832196 0.379670
-4.334350 -3.793781 0.370977
-4.327518 -3.761670 0.364688
-4.329082 -3.736195 0.360980
-4.315197 -3.699343 0.352636
-4.292671 -3.656489 0.341751
-4.288921 -3.627904 0.336557
-4.293308 -3.605453 0.333817
-4.286633 -3.575167 0.327803
-4.301960 -3.560791 0.328330
-4.299895 -3.534119 0.323718
-4.301516 -3.510206 0.320211
-4.264584 -3.459830 0.305446
-4.271490 -3.440062 0.303547
-4.274875 -3.417965 0.300627
-4.279888 -3.397057 0.298186
-4.278045 -3.371680 0.293774
-4.288612 -3.354599 0.292939
-4.288642 -3.330674 0.289083
-4.283947 -3.303845 0.283894
-4.260376 -3.265216 0.273376
-4.247528 -3.233763 0.265948
-4.239228 -3.205428 0.259839
-4.237675 -3.181470 0.255648
-4.232868 -3.155663 0.250562
-4.227125 -3.129461 0.245234
-4.234965 -3.111532 0.243690
-4.230899 -3.086586 0.238851
-4.230028 -3.063655 0.234906
-4.224289 -3.038023 0.229637
-4.218638 -3.012609 0.224410
-4.208101 -2.984603 0.217873
-4.209349 -2.963387 0.214555
-4.201175 -2.937049 0.208698
-4.198747 -2.914027 0.204408
-4.197814 -2.891922 0.200528
-4.201448 -2.872340 0.197872
-4.204020 -2.852232 0.194932
-4.205274 -2.831486 0.191643
-4.196367 -2.805582 0.185681
-4.191126 -2.781726 0.180705
-4.180757 -2.755440 0.174406
-4.184329 -2.736262 0.171763
-4.187898 -2.717118 0.169119
-4.186813 -2.695762 0.165275
-4.185829 -2.674550 0.161468
-4.187386 -2.654631 0.158325
-4.193552 -2.636927 0.156365
-4.197436 -2.618193 0.153827
-4.194757 -2.596536 0.149634
-4.181421 -2.570249 0.142779
-4.157552 -2.539579 0.133327
-7.489723 -3.703507 0.917278
-7.513922 -3.676152 0.916942
-0.765672 -1.041824 -0.718136
-0.774269 -1.044454 -0.716172
-0.773750 -1.044165 -0.716311
-1.827058 -6.143126 0.199966
-1.851324 -6.143244 0.204915
-1.871471 -6.123352 0.206301
-1.893266 -6.110475 0.209015
-1.916234 -6.102189 0.212622
-1.939482 -6.094493 0.216389
-1.963154 -6.088025 0.220430
-1.990082 -6.094358 0.226911
-2.018620 -6.106190 0.234491
-2.046593 -6.114721 0.241514
-2.069618 -6.103338 0.244795
-2.092634 -6.091869 0.248069
-2.116422 -6.083266 0.251898
-2.144061 -6.088578 0.258432
-3.060537 -5.995884 0.432963
-3.087767 -5.993487 0.437982
-3.112118 -5.984867 0.441544
-3.133929 -5.970940 0.443847
-3.161775 -5.969442 0.449082
-3.198934 -5.986562 0.458766
-3.224547 -5.979933 0.462816
-3.229764 -5.932880 0.457137
-3.263770 -5.942879 0.465165
-3.301325 -5.959229 0.474778
-3.326171 -5.950666 0.478364
-3.361254 -5.961337 0.486669
-3.388034 -5.955986 0.491071
-3.411135 -5.943672 0.493757
-3.440379 -5.942552 0.499222
-3.469022 -5.940074 0.504369
-3.494762 -5.932170 0.508170
-3.523125 -5.928766 0.513114
-3.558121 -5.936717 0.520954
-3.584432 -5.929183 0.524895
-3.612296 -5.924154 0.529487
-3.646264 -5.929239 0.536695
-3.664469 -5.907534 0.537024
-3.691868 -5.901185 0.541316
-3.718601 -5.893560 0.545291
-3.757659 -5.905739 0.554467
-3.800699 -5.923723 0.565234
-3.823222 -5.908454 0.567284
-3.836895 -5.879279 0.565633
-3.857841 -5.861676 0.567034
-3.888821 -5.859532 0.572574
-3.940744 -5.839258 0.579416
-3.979590 -5.848137 0.588029
-4.012396 -5.847585 0.594125
-4.039574 -5.838481 0.597910
-4.059068 -5.818110 0.598599
-4.217782 -5.849380 0.632963
-4.251030 -5.847107 0.638861
-4.292683 -5.855965 0.647961
-4.315839 -5.839365 0.649863
-4.336595 -5.819532 0.650837
-4.364621 -5.809339 0.654583
-4.399822 -5.808374 0.661021
-4.437741 -5.810590 0.668431
-4.461255 -5.793926 0.670374
-4.520258 -5.822299 0.685558
-4.549597 -5.812447 0.689584
-4.566725 -5.787215 0.689065
-4.584228 -5.762568 0.688700
-4.586464 -5.719387 0.682757
-4.569801 -5.653819 0.669993
-4.561601 -5.599291 0.660429
-4.540315 -5.529934 0.646240
-4.550945 -5.413499 0.631034
-4.535224 -5.353487 0.619249
-4.725129 -4.674335 0.553432
-4.725268 -4.639874 0.548293
-4.663715 -4.550302 0.523561
-4.661097 -4.514524 0.517710
-4.659379 -4.479881 0.512188
-4.618546 -4.347290 0.484748
-4.605678 -4.304721 0.475972
-4.619080 -4.253562 0.470682
-4.504710 -4.069248 0.421899
-4.343227 -3.910754 0.368442
-4.328701 -3.871468 0.359820
-4.328223 -3.843646 0.355489
-4.335180 -3.821821 0.353415
-4.332032 -3.792315 0.348329
-4.323600 -3.759030 0.341703
-4.321850 -3.731110 0.337099
-4.323196 -3.705721 0.333437
-4.297717 -3.660646 0.321900
-4.303232 -3.638838 0.319526
-4.304565 -3.614092 0.315939
-4.306874 -3.590202 0.312651
-4.301961 -3.561313 0.307285
-4.305646 -3.538711 0.304429
-4.273597 -3.491310 0.291305
-4.266098 -3.461457 0.285301
-4.264479 -3.435877 0.281007
-4.281468 -3.423049 0.282022
-4.277711 -3.396246 0.277138
-4.277711 -3.372124 0.273335
-4.284818 -3.352799 0.271543
-4.277011 -3.323834 0.265572
-4.263211 -3.291254 0.257957
-4.245231 -3.256329 0.249221
-4.240805 -3.230288 0.244285
-4.258560 -3.218225 0.245484
-4.244336 -3.186355 0.237871
-4.237055 -3.159012 0.232195
-4.236272 -3.135787 0.228314
-4.243801 -3.117631 0.226699
-4.250633 -3.099068 0.224886
-4.239545 -3.070067 0.218237
-4.232619 -3.043704 0.212735
-4.219869 -3.014202 0.205695
-4.211045 -2.987166 0.199732
-4.206555 -2.962748 0.194943
-4.203664 -2.939352 0.190590
-4.204172 -2.917928 0.187142
-4.205079 -2.896796 0.183802
-4.210439 -2.878102 0.181627
-4.206248 -2.854395 0.176962
-4.204115 -2.831888 0.172843
-4.198870 -2.807887 0.167931
-4.185105 -2.779701 0.160844
-4.184163 -2.758193 0.157074
-4.184094 -2.737208 0.153535
-4.187900 -2.718198 0.150986
-4.188389 -2.697620 0.147599
-4.193251 -2.679206 0.145322
-4.192847 -2.658338 0.141723
-4.194836 -2.638677 0.138735
-4.199040 -2.620103 0.136307
-4.199275 -2.599779 0.132902
-4.166556 -2.564806 0.121380
-4.171717 -2.547061 0.119254
-7.471143 -3.736043 0.885139
-7.496144 -3.708919 0.884928
-7.516142 -3.679965 0.883580
-7.538482 -3.652125 0.882855
-7.547742 -3.619531 0.879123
-7.556828 -3.587257 0.875455
-7.580485 -3.525979 0.869743
-0.774840 -1.044667 -0.716148
-0.772843 -1.043860 -0.716625
-1.810096 -6.157394 0.174065
-1.831757 -6.146518 0.176931
-1.853156 -6.133504 0.179493
-1.900157 -6.124056 0.187765
-1.921452 -6.108421 0.190043
-1.945607 -6.104629 0.194498
-1.970221 -6.102028 0.199224
-1.997533 -6.109754 0.205887
-2.022755 -6.108126 0.210898
-2.046357 -6.099605 0.214675
-2.069266 -6.088202 0.217936
-2.093499 -6.081733 0.222129
-2.120955 -6.086956 0.228538
-2.151093 -6.101312 0.236709
-3.069407 -6.008217 0.410063
-3.087858 -5.987090 0.410751
-3.110490 -5.974978 0.413475
-3.143394 -5.984161 0.421102
-3.169280 -5.978522 0.425322
-3.195802 -5.974042 0.429814
-3.222135 -5.969027 0.434185
-3.256384 -5.979486 0.442202
-3.275828 -5.960547 0.443306
-3.290756 -5.933056 0.442351
-3.339800 -5.970968 0.456971
-3.367503 -5.967507 0.461768
-3.389484 -5.953170 0.463954
-3.415420 -5.946155 0.467903
-3.444005 -5.943833 0.472999
-3.472177 -5.940519 0.477869
-3.499584 -5.935619 0.482364
-3.529764 -5.935413 0.488031
-3.562773 -5.939844 0.494872
-3.579311 -5.915447 0.494565
-3.609454 -5.914491 0.500096
-3.644615 -5.921719 0.507711
-3.678556 -5.926437 0.514738
-3.697315 -5.905641 0.515323
-3.722248 -5.895061 0.518496
-3.765153 -5.913473 0.529107
-3.796567 -5.912770 0.534870
-3.817856 -5.895706 0.536429
-3.840955 -5.881505 0.538722
-3.874583 -5.883614 0.545277
-3.915017 -5.895802 0.554518
-3.925035 -5.861158 0.551469
-3.948830 -5.847619 0.553963
-3.987373 -5.855989 0.562296
-4.021664 -5.857581 0.568874
-4.046320 -5.844737 0.571611
-4.060220 -5.816270 0.570133
-4.244382 -5.883057 0.613644
-4.255935 -5.850679 0.611154
-4.290384 -5.849736 0.617365
-4.334929 -5.814371 0.620510
-4.381758 -5.829102 0.631227
-4.413039 -5.822858 0.636082
-4.432596 -5.801200 0.636575
-4.467937 -5.799839 0.642868
-4.530107 -5.832201 0.658913
-4.558618 -5.821259 0.662573
-4.574948 -5.795003 0.661801
-4.578867 -5.753591 0.656578
-4.581436 -5.665697 0.644428
-4.557495 -5.548300 0.623177
-4.537602 -5.313111 0.585690
-4.693722 -4.714709 0.527323
-4.715741 -4.665382 0.524089
-4.718796 -4.633692 0.520003
-4.688084 -4.571929 0.505424
-4.645424 -4.467410 0.482416
-4.610070 -4.308434 0.452669
-4.329411 -3.899882 0.341988
-4.331648 -3.874021 0.338534
-4.332993 -3.847637 0.334836
-4.329415 -3.817615 0.329714
-4.323512 -3.786060 0.323943
-4.310821 -3.749618 0.316228
-4.313999 -3.725540 0.313172
-4.310996 -3.696985 0.308343
-4.314792 -3.673691 0.305500
-4.306021 -3.641313 0.299060
-4.310325 -3.618728 0.296397
-4.314632 -3.596256 0.293745
-4.305195 -3.564115 0.287199
-4.285895 -3.525327 0.277901
-4.280961 -3.496987 0.272707
-4.271532 -3.465770 0.266278
-4.273094 -3.442346 0.262956
-4.271676 -3.417032 0.258814
-4.272414 -3.393325 0.255287
-4.287775 -3.379437 0.255812
-4.275773 -3.347531 0.248782
-4.263750 -3.315907 0.241783
-4.252182 -3.284866 0.234944
-4.232861 -3.249176 0.226028
-4.253556 -3.239035 0.228013
-4.260224 -3.220007 0.226173
-4.262017 -3.198003 0.223017
-4.214360 -3.145960 0.206609
-4.237097 -3.137075 0.209102
-4.205713 -3.095730 0.197161
-4.218347 -3.080852 0.196951
-4.237141 -3.069502 0.198348
-4.225194 -3.040271 0.191629
-4.211750 -3.010432 0.184547
-4.211012 -2.988022 0.180812
-4.200910 -2.960485 0.174649
-4.197073 -2.936618 0.170132
-4.205565 -2.919603 0.168805
-4.211613 -2.901247 0.166837
-4.211753 -2.879748 0.163349
-4.203520 -2.853918 0.157732
-4.196397 -2.828846 0.152418
-4.192945 -2.805827 0.148050
-4.187072 -2.781698 0.143084
-4.184737 -2.759494 0.139022
-4.190536 -2.741430 0.137001
-4.187010 -2.718808 0.132657
-4.195447 -2.702097 0.131289
-4.201668 -2.684309 0.129367
-4.201739 -2.663632 0.125932
-4.198341 -2.641429 0.121659
-4.198212 -2.620864 0.118203
-4.179692 -2.592054 0.110299
-4.158785 -2.562498 0.101872
-4.160129 -2.543135 0.098861
-4.219300 -2.549101 0.109732
-4.122287 -2.487279 0.083224
-4.145490 -2.477766 0.085516
-0.782351 -1.048931 -0.714303
-7.498546 -3.712690 0.851628
-7.521674 -3.685029 0.851019
-7.540934 -3.656054 0.849581
-7.553389 -3.624742 0.846655
-7.564156 -3.593154 0.843443
-0.783361 -1.047555 -0.714350
-1.786865 -6.139326 0.142803
-1.832628 -6.131968 0.150822
-1.857138 -6.133883 0.155932
-1.879671 -6.125502 0.159354
-1.907307 -6.138836 0.166624
-1.929046 -6.125037 0.169248
-1.952074 -6.116297 0.172805
-1.977977 -6.118964 0.178428
-2.003102 -6.117575 0.183392
-2.024873 -6.102182 0.185896
-2.045528 -6.082418 0.187626
-2.068491 -6.071694 0.190992
-2.095572 -6.076333 0.197170
-2.124511 -6.087193 0.204529
-2.153596 -6.097781 0.211886
-3.076208 -6.016146 0.386087
-3.092650 -5.990716 0.385860
-3.115559 -5.979176 0.388706
-3.147511 -5.986349 0.395762
-3.176376 -5.986794 0.401319
-3.202138 -5.980711 0.405401
-3.228964 -5.976628 0.409942
-3.256364 -5.973506 0.414710
-3.282431 -5.967587 0.418838
-3.316857 -5.977634 0.426680
-3.356662 -5.997423 0.436835
-3.377177 -5.980155 0.438359
-3.395248 -5.958435 0.438813
-3.419793 -5.948831 0.442108
-3.446743 -5.943529 0.446424
-3.479671 -5.948816 0.453282
-3.507538 -5.944674 0.457909
-3.531359 -5.933193 0.460778
-3.556625 -5.924175 0.464240
-3.583352 -5.917566 0.468294
-3.603123 -5.898925 0.469411
-3.635523 -5.901681 0.475775
-3.680729 -5.925445 0.487367
-3.701289 -5.907681 0.488727
-3.715953 -5.880337 0.487681
-3.736796 -5.863238 0.489169
-3.774308 -5.872849 0.497378
-3.810208 -5.879386 0.504862
-3.844889 -5.883553 0.511790
-3.883701 -5.893711 0.520293
-3.929505 -5.914062 0.531472
-3.934577 -5.871775 0.526569
-3.952552 -5.849420 0.526765
-3.990621 -5.857094 0.534766
-4.026944 -5.861704 0.542021
-4.059098 -5.859798 0.547610
-4.080302 -5.841782 0.548973
-4.101065 -5.823152 0.550166
-4.123272 -5.806597 0.551904
-4.204521 -5.824528 0.569129
-4.260742 -5.806354 0.576789
-4.336775 -5.813907 0.591594
-4.376837 -5.819744 0.599648
-4.420309 -5.829565 0.608868
-4.441862 -5.810477 0.610099
-4.476628 -5.808330 0.616073
-4.553158 -5.811877 0.630365
-4.569527 -5.785817 0.629674
-4.579806 -5.706708 0.620466
-4.577221 -5.658422 0.613246
-4.583123 -5.620859 0.609049
-4.535359 -5.476905 0.580303
-4.527331 -5.424893 0.571570
-4.518361 -5.372446 0.562605
-4.549968 -5.325461 0.561678
-4.546436 -5.280496 0.554729
-4.712695 -4.986567 0.542980
-4.735951 -4.972114 0.545072
-4.752440 -4.913884 0.539747
-4.715198 -4.841404 0.522841
-4.701196 -4.756472 0.508281
-4.632206 -4.455580 0.453110
-4.637125 -4.331356 0.436120
-4.618030 -4.283853 0.425915
-4.331815 -3.901980 0.320477
-4.336699 -3.878228 0.317870
-4.343722 -3.856294 0.315895
-4.333755 -3.821250 0.309039
-4.309612 -3.775646 0.298165
-4.312802 -3.751443 0.295168
-4.301919 -3.716760 0.288183
-4.325813 -3.708429 0.291095
-4.318915 -3.677135 0.285283
-4.297534 -3.635507 0.275433
-4.304090 -3.614642 0.273471
-4.311682 -3.594599 0.271801
-4.277895 -3.545175 0.258629
-4.287198 -3.526747 0.257476
-4.284481 -3.499965 0.253003
-4.288129 -3.477771 0.250298
-4.282294 -3.449197 0.245003
-4.267372 -3.414703 0.237255
-4.266788 -3.390159 0.233445
-4.274126 -3.371015 0.231792
-4.273658 -3.346783 0.228030
-4.262308 -3.315627 0.221356
-4.273031 -3.298933 0.220620
-4.253731 -3.263131 0.211870
-4.241673 -3.232263 0.205089
-4.254848 -3.217382 0.205015
-4.229255 -3.178560 0.194707
-4.243308 -3.164347 0.194862
-4.221787 -3.128608 0.185695
-4.206427 -3.096927 0.178181
-4.206505 -3.074655 0.174708
-4.213435 -3.056476 0.173010
-4.198544 -3.025710 0.165685
-4.205916 -3.007933 0.164103
-4.206177 -2.986138 0.160693
-4.208102 -2.965356 0.157710
-4.201111 -2.939715 0.152466
-4.207210 -2.921386 0.150544
-4.208004 -2.900201 0.147278
-4.209783 -2.879613 0.144261
-4.192560 -2.849071 0.136505
-4.192017 -2.827504 0.132929
-4.191799 -2.806190 0.129439
-4.190788 -2.784553 0.125758
-4.190922 -2.763581 0.122365
-4.184713 -2.739539 0.117426
-4.188245 -2.720427 0.114877
-4.197438 -2.704093 0.113701
-4.201981 -2.685510 0.111392
-4.201322 -2.664505 0.107833
-4.192216 -2.639663 0.102264
-4.187537 -2.617061 0.097782
-4.174984 -2.591039 0.091455
-4.138261 -2.554437 0.079452
-4.141124 -2.535890 0.076864
-4.137688 -2.514678 0.072815
-4.142555 -2.497210 0.070738
-4.152698 -2.482064 0.069906
-4.169919 -2.469917 0.070728
-4.176021 -2.453131 0.068986
-7.548751 -3.662015 0.817552
-7.557178 -3.629213 0.813768
-0.779318 -1.046153 -0.715394
-1.791223 -6.140935 0.119658
-1.817327 -6.153669 0.126283
-1.839108 -6.143995 0.129303
-1.860423 -6.131186 0.131880
-1.886373 -6.138475 0.137910
-1.911767 -6.141814 0.143372
-1.934970 -6.134494 0.147102
-1.957573 -6.123960 0.150341
-2.006116 -6.115154 0.159069
-2.028465 -6.102277 0.162025
-2.049811 -6.085375 0.164294
-2.074149 -6.079974 0.168599
-2.099285 -6.077260 0.173405
-2.127835 -6.086732 0.180412
-2.156950 -6.097490 0.187697
-3.074695 -6.006324 0.358205
-3.097170 -5.993816 0.360848
-3.133667 -6.010653 0.369911
-3.150826 -5.986931 0.370078
-3.185167 -5.998558 0.378036
-3.205581 -5.981583 0.379662
-3.234167 -5.981020 0.384937
-3.249734 -5.954571 0.384402
-3.275898 -5.949089 0.388562
-3.324984 -5.987566 0.402705
-3.365067 -6.007772 0.412780
-3.374166 -5.968952 0.409384
-3.397798 -5.957750 0.412283
-3.419768 -5.943452 0.414458
-3.449769 -5.943788 0.420024
-3.480493 -5.945125 0.425845
-3.506912 -5.938478 0.429815
-3.528318 -5.922850 0.431672
-3.562443 -5.929405 0.438777
-3.591323 -5.926479 0.443661
-3.610402 -5.906609 0.444506
-3.639025 -5.902942 0.449228
-3.706123 -5.911164 0.462503
-3.716992 -5.877642 0.460011
-3.735060 -5.856132 0.460416
-3.815518 -5.883624 0.478616
-3.844727 -5.879205 0.483291
-3.878185 -5.881133 0.489574
-3.915327 -5.888342 0.497221
-3.955217 -5.899245 0.505850
-3.963449 -5.862021 0.502334
-3.993526 -5.857708 0.507149
-4.033371 -5.867527 0.515607
-4.069931 -5.872020 0.522755
-4.094868 -5.859313 0.525504
-4.118906 -5.845234 0.527902
-4.146376 -5.835948 0.531555
-4.169103 -5.819861 0.533439
-4.203399 -5.772299 0.533126
-4.310427 -5.823066 0.559034
-4.344705 -5.821558 0.564923
-4.379071 -5.819843 0.570795
-4.410355 -5.813781 0.575526
-4.453320 -5.822587 0.584343
-4.484908 -5.816295 0.589089
-4.521138 -5.815650 0.595421
-4.551922 -5.807817 0.599808
-4.572366 -5.786918 0.600585
-4.582033 -5.752787 0.597652
-4.567272 -5.644231 0.580263
-4.576907 -5.611331 0.577481
-4.574815 -5.564813 0.570769
-4.560809 -5.504854 0.560118
-4.550256 -5.449704 0.550729
-4.528193 -5.382012 0.537596
-4.540826 -5.354813 0.536104
-4.556835 -5.331598 0.535748
-4.740818 -4.976139 0.519174
-4.761544 -4.959141 0.520443
-4.727331 -4.852434 0.499714
-4.708367 -4.798304 0.488911
-4.713094 -4.731862 0.480513
-4.696970 -4.647465 0.465977
-4.694454 -4.610978 0.460458
-4.666894 -4.420708 0.429087
-4.617796 -4.252647 0.396982
-4.322071 -3.894341 0.295524
-4.321902 -3.866688 0.291561
-4.326254 -3.842799 0.288899
-4.308184 -3.801614 0.279935
-4.319472 -3.783511 0.279267
-4.313593 -3.752346 0.273797
-4.322441 -3.732581 0.272460
-4.320978 -3.705164 0.268263
-4.313445 -3.673459 0.262409
-4.292205 -3.631997 0.252818
-4.301134 -3.612916 0.251558
-4.315904 -3.598078 0.251891
-4.306087 -3.565699 0.245519
-4.292673 -3.531089 0.238206
-4.294292 -3.507313 0.234994
-4.294802 -3.482905 0.231494
-4.287891 -3.453567 0.226016
-4.262744 -3.412133 0.215697
-4.265429 -3.389830 0.212840
-4.272695 -3.370664 0.211201
-4.277858 -3.350157 0.209003
-4.279641 -3.327516 0.205915
-4.267036 -3.295731 0.199064
-4.281791 -3.281642 0.199383
-4.248681 -3.237351 0.187242
-4.233167 -3.204575 0.179728
-4.251909 -3.193226 0.181085
-4.230580 -3.157311 0.172118
-4.233181 -3.136215 0.169320
-4.226821 -3.109842 0.164239
-4.216150 -3.081107 0.158079
-4.222707 -3.062665 0.156302
-4.223615 -3.040971 0.153092
-4.210557 -3.011384 0.146379
-4.207497 -2.987698 0.142193
-4.215812 -2.970489 0.140848
-4.221316 -2.951709 0.138792
-4.194415 -2.915258 0.128724
-4.190863 -2.891822 0.124456
-4.190450 -2.870186 0.120966
-4.186200 -2.846611 0.116542
-4.189918 -2.827317 0.114067
-4.197397 -2.809992 0.112498
-4.199305 -2.789819 0.109574
-4.182433 -2.760265 0.102143
-4.177970 -2.737156 0.097717
-4.184618 -2.719628 0.095950
-4.195400 -2.704105 0.095159
-4.194705 -2.683049 0.091644
-4.188900 -2.659675 0.086938
-4.185512 -2.637589 0.082821
-4.187669 -2.618194 0.080017
-4.192992 -2.600312 0.077959
-4.147564 -2.559710 0.064167
-4.127136 -2.530821 0.056241
-4.143604 -2.518411 0.056843
-4.148048 -2.500755 0.054692
-4.138800 -2.477360 0.049444
-4.134879 -2.456453 0.045452
-4.143651 -2.441005 0.044369
-0.772956 -1.045116 -0.716720
-7.517995 -3.725920 0.788381
-0.762312 -1.040495 -0.719156
-7.570769 -3.601833 0.777608
-7.590520 -3.574128 0.776615
-7.646580 -3.458943 0.768883
-1.842731 -6.142680 0.105542
-1.864869 -6.133947 0.108770
-1.885874 -6.119203 0.111091
-1.910504 -6.119801 0.116000
-1.937626 -6.129989 0.122580
-1.959190 -6.115387 0.125121
-1.981638 -6.104128 0.128262
-2.006091 -6.100625 0.132749
-2.034110 -6.110655 0.139579
-2.058925 -6.107211 0.144177
-2.085531 -6.110143 0.149906
-2.104289 -6.083152 0.150507
-2.129287 -6.079575 0.155154
-2.159405 -6.094121 0.162990
-3.073905 -5.998133 0.330801
-3.112583 -6.019968 0.340748
-3.133337 -6.003648 0.342577
-3.162357 -6.004502 0.348077
-3.182367 -5.986733 0.349559
-3.216360 -5.997273 0.357169
-3.220071 -5.947054 0.351537
-3.256735 -5.962541 0.360237
-3.279504 -5.950390 0.362884
-3.312478 -5.957860 0.369871
-3.376110 -5.967127 0.382666
-3.387024 -5.932349 0.380235
-3.423371 -5.944788 0.388422
-3.450313 -5.939574 0.392643
-3.484136 -5.946550 0.399654
-3.508506 -5.936274 0.402744
-3.530282 -5.921363 0.404762
-3.570407 -5.938388 0.414167
-3.623473 -5.924170 0.421868
-3.647275 -5.912226 0.424594
-3.679425 -5.914133 0.430589
-3.708099 -5.909956 0.435171
-3.729133 -5.893088 0.436742
-3.751615 -5.878590 0.438870
-3.794433 -5.896561 0.448810
-3.826065 -5.896155 0.454375
-3.851917 -5.886388 0.457692
-3.879416 -5.879045 0.461609
-3.921324 -5.893608 0.470917
-3.959870 -5.902441 0.478878
-3.980072 -5.883217 0.479939
-3.999037 -5.862210 0.480543
-4.031966 -5.861835 0.486294
-4.069184 -5.867375 0.493567
-4.091598 -5.851121 0.495382
-4.127295 -5.853813 0.502004
-4.160127 -5.852057 0.507535
-4.175882 -5.826104 0.506894
-4.208894 -5.776761 0.506196
-4.303018 -5.857686 0.533295
-4.357752 -5.836023 0.540007
-4.381005 -5.819559 0.541896
-4.445230 -5.809428 0.551757
-4.500605 -5.833750 0.564611
-4.534577 -5.830116 0.570044
-4.552239 -5.805719 0.569892
-4.567776 -5.778792 0.569032
-4.583554 -5.752320 0.568269
-4.559286 -5.677184 0.554107
-4.558096 -5.630994 0.547781
-4.562099 -5.591542 0.543244
-4.562407 -5.461985 0.526100
-4.552977 -5.408774 0.517396
-4.553279 -5.367321 0.511935
-4.526291 -5.295516 0.497715
-4.734738 -5.044768 0.500089
-4.748507 -4.945653 0.489119
-4.747186 -4.907439 0.483744
-4.731162 -4.819404 0.469126
-4.712440 -4.695855 0.449215
-4.653910 -4.441697 0.404689
-4.660122 -4.414732 0.402053
-4.663771 -4.353874 0.394328
-4.568448 -4.151194 0.350353
-4.293921 -3.871953 0.265610
-4.294487 -3.845129 0.261977
-4.299917 -3.822323 0.259710
-4.322433 -3.812926 0.262159
-4.326441 -3.789136 0.259500
-4.326570 -3.762525 0.255792
-4.321006 -3.731807 0.250552
-4.321587 -3.705954 0.247008
-4.297764 -3.662205 0.236884
-4.297649 -3.636367 0.233209
-4.311477 -3.620828 0.233289
-4.330910 -3.609291 0.234853
-4.332081 -3.584647 0.231531
-4.307163 -3.541766 0.221302
-4.299782 -3.511630 0.215768
-4.299096 -3.486377 0.212023
-4.288021 -3.454181 0.205567
-4.262671 -3.412623 0.195416
-4.265493 -3.390430 0.192655
-4.276745 -3.373927 0.192082
-4.278185 -3.350965 0.188963
-4.265016 -3.318627 0.182091
-4.270038 -3.298287 0.179913
-4.268929 -3.274104 0.176168
-4.262102 -3.246456 0.170977
-4.250852 -3.216259 0.164686
-4.249460 -3.192401 0.160908
-4.231490 -3.158561 0.152972
-4.235961 -3.138602 0.150693
-4.236931 -3.116599 0.147536
-4.229578 -3.089769 0.142313
-4.234470 -3.070283 0.140136
-4.239393 -3.050847 0.137961
-4.215379 -3.014911 0.128675
-4.205266 -2.987223 0.122837
-4.208564 -2.967241 0.120286
-4.207494 -2.944890 0.116671
-4.195508 -2.916676 0.110423
-4.194292 -2.894507 0.106791
-4.192903 -2.872341 0.103122
-4.186493 -2.847624 0.098259
-4.193532 -2.830074 0.096608
-4.201399 -2.812942 0.095142
-4.189811 -2.785892 0.089077
-4.192511 -2.766246 0.086393
-4.189635 -2.743877 0.082405
-4.192888 -2.724632 0.079855
-4.196360 -2.705537 0.077356
-4.190288 -2.681918 0.072655
-4.183373 -2.658063 0.067781
-4.180529 -2.636284 0.063863
-4.191435 -2.620968 0.063101
-4.191103 -2.600517 0.059781
-4.148496 -2.561201 0.046915
-4.142523 -2.538728 0.042402
-4.145497 -2.520360 0.039931
-4.144629 -2.500429 0.036621
-4.123644 -2.472082 0.028865
-4.128004 -2.454770 0.026797
-4.145297 -2.442927 0.027612
-7.577502 -3.607419 0.745464
-7.595167 -3.579005 0.744049
-5.870156 -2.912293 0.370845
-5.892602 -2.895016 0.371944
-7.627625 -3.455844 0.731577
-1.799822 -6.143832 0.073371
-1.821975 -6.138108 0.076841
-1.847999 -6.149154 0.083049
-1.871744 -6.147900 0.087433
-1.911100 -6.106185 0.090203
-1.936944 -6.111351 0.095847
-1.965060 -6.124846 0.102927
-1.985830 -6.106699 0.104944
-2.009013 -6.098193 0.108569
-2.036899 -6.107856 0.115230
-2.065088 -6.117661 0.121983
-2.089989 -6.114026 0.126556
-2.111221 -6.096346 0.128799
-2.133569 -6.082940 0.131761
-2.922369 -6.227230 0.303619
-3.071894 -5.987419 0.302987
-3.098521 -5.983958 0.307479
-3.138590 -6.008347 0.317791
-3.164791 -6.003358 0.321992
-3.181573 -5.979074 0.322116
-3.197267 -5.952913 0.321801
-3.238440 -5.977736 0.332313
-3.268815 -5.980516 0.338164
-3.289460 -5.964068 0.339893
-3.311846 -5.951066 0.342344
-3.357148 -5.926111 0.347436
-3.412067 -5.918799 0.356376
-3.454554 -5.942118 0.366843
-3.485887 -5.944611 0.372737
-3.507594 -5.929663 0.374747
-3.569496 -5.931964 0.386013
-3.605330 -5.941024 0.393479
-3.626360 -5.924406 0.395122
-3.649122 -5.910747 0.397430
-3.678911 -5.908765 0.402425
-3.710752 -5.909895 0.408161
-3.736180 -5.900231 0.411410
-3.762980 -5.892664 0.415155
-3.792587 -5.889416 0.419926
-3.860609 -5.895931 0.432617
-3.874771 -5.867890 0.431549
-3.924578 -5.894683 0.443595
-3.981649 -5.881828 0.451880
-4.002768 -5.864081 0.453294
-4.037533 -5.866420 0.459609
-4.071651 -5.867432 0.465639
-4.099796 -5.859482 0.469492
-4.137170 -5.864513 0.476582
-4.166332 -5.857505 0.480719
-4.190224 -5.842925 0.482978
-4.212708 -5.826340 0.484734
-4.250996 -5.831396 0.491964
-4.277961 -5.820642 0.495224
-4.330511 -5.844124 0.507246
-4.359015 -5.834806 0.510944
-4.387468 -5.825251 0.514599
-4.411756 -5.810094 0.516818
-4.460953 -5.827055 0.527412
-4.484907 -5.811040 0.529455
-4.525427 -5.815962 0.537013
-4.544423 -5.793429 0.537363
-4.555584 -5.761240 0.535130
-4.555458 -5.715426 0.529216
-4.589540 -5.711812 0.534560
-4.557905 -5.628615 0.518455
-4.561646 -5.545230 0.508340
-4.573387 -5.515773 0.506534
-4.563724 -5.461679 0.497905
-4.532859 -5.260707 0.466666
-4.719829 -5.028866 0.468075
-4.743846 -5.015108 0.470315
-4.745308 -4.941788 0.460956
-4.731067 -4.854766 0.447144
-4.686636 -4.706233 0.420155
-4.745295 -4.656393 0.423358
-4.694596 -4.509945 0.395488
-4.680058 -4.464344 0.387005
-4.649667 -4.310401 0.361397
-4.560622 -4.115129 0.320435
-4.335943 -3.905729 0.255212
-4.312994 -3.859964 0.245243
-4.312935 -3.832735 0.241531
-4.322692 -3.813344 0.240484
-4.324348 -3.787768 0.237261
-4.330949 -3.766135 0.235375
-4.320702 -3.731870 0.229005
-4.309805 -3.697459 0.222500
-4.310092 -3.671674 0.218989
-4.297729 -3.636787 0.212162
-4.319398 -3.626966 0.214301
-4.327320 -3.607119 0.212818
-4.302961 -3.564347 0.202929
-4.296026 -3.534364 0.197619
-4.300270 -3.512437 0.195222
-4.288089 -3.479259 0.188601
-4.284210 -3.452077 0.184142
-4.288982 -3.430951 0.181910
-4.260270 -3.387465 0.171159
-4.272253 -3.371502 0.170786
-4.268370 -3.345093 0.166391
-4.259299 -3.315498 0.160706
-4.255024 -3.289235 0.156247
-4.232705 -3.251668 0.147299
-4.244026 -3.235703 0.146762
-4.250766 -3.216850 0.145074
-4.266732 -3.203710 0.145653
-4.235332 -3.161574 0.134566
-4.221190 -3.130371 0.127767
-4.224451 -3.109844 0.125240
-4.228122 -3.089618 0.122810
-4.231147 -3.069065 0.120219
-4.232631 -3.047677 0.117252
-4.227007 -3.022301 0.112579
-4.204614 -2.987609 0.103908
-4.201155 -2.963869 0.099790
-4.202214 -2.942754 0.096750
-4.205700 -2.923034 0.094283
-4.212564 -2.905177 0.092606
-4.202240 -2.878140 0.086889
-4.195116 -2.853001 0.081940
-4.195407 -2.831894 0.078729
-4.198228 -2.812166 0.076106
-4.196118 -2.789973 0.072344
-4.184061 -2.762881 0.066306
-4.193769 -2.746831 0.065271
-4.196628 -2.727384 0.062663
-4.199188 -2.707842 0.059989
-4.193330 -2.684325 0.055417
-4.188953 -2.661668 0.051199
-4.187642 -2.640590 0.047687
-4.188502 -2.620626 0.044674
-4.180073 -2.596529 0.039614
-4.156911 -2.566022 0.031329
-4.152849 -2.544372 0.027313
-4.148057 -2.522572 0.023167
-4.138755 -2.499012 0.018072
-4.131798 -2.476699 0.013533
-4.131436 -2.457389 0.010467
-4.135542 -2.440096 0.008403
-5.870090 -2.940425 0.349547
-5.877979 -2.917575 0.347501
-5.919719 -2.882214 0.349105
-5.669861 -2.769517 0.294143
-1.777723 -6.128279 0.043531
-1.824115 -6.129683 0.052176
-1.849489 -6.138122 0.057851
-1.872938 -6.136017 0.062027
-1.944397 -6.127695 0.074783
-1.969097 -6.126717 0.079473
-1.991848 -6.116880 0.082829
-2.012297 -6.097368 0.084689
-2.038163 -6.099215 0.089991
-2.066978 -6.111712 0.097065
-2.091689 -6.107600 0.101514
-2.112852 -6.089934 0.103781
-2.135822 -6.079041 0.107158
-3.091835 -6.023588 0.284770
-3.099808 -5.980426 0.281197
-3.131645 -5.987711 0.287822
-3.179153 -6.026799 0.300985
-3.194230 -5.998818 0.300427
-3.206371 -5.965338 0.298680
-3.241609 -5.978225 0.306517
-3.282689 -6.002018 0.316672
-3.301228 -5.981275 0.317530
-3.318879 -5.959031 0.318040
-3.345145 -5.953349 0.322030
-3.374916 -5.899336 0.320874
-3.410624 -5.910985 0.328559
-3.457423 -5.942206 0.340521
-3.489026 -5.945201 0.346427
-3.571972 -5.931468 0.359276
-3.602066 -5.930689 0.364422
-3.624307 -5.916280 0.366548
-3.653710 -5.913910 0.371362
-3.684782 -5.914057 0.376760
-3.718175 -5.917707 0.382974
-3.742938 -5.906917 0.385938
-3.789154 -5.879777 0.390592
-3.823916 -5.884542 0.397143
-3.850701 -5.876428 0.400746
-3.896024 -5.847107 0.404916
-3.945142 -5.872476 0.416413
-3.977067 -5.871226 0.421706
-4.028795 -5.850002 0.427905
-4.077509 -5.872440 0.438946
-4.112504 -5.874338 0.445121
-4.144934 -5.872204 0.450357
-4.173640 -5.864515 0.454271
-4.193400 -5.844139 0.455097
-4.232993 -5.851254 0.462671
-4.265636 -5.848366 0.467828
-4.292466 -5.837303 0.470985
-4.319310 -5.826127 0.474125
-4.356637 -5.828760 0.480740
-4.387619 -5.822638 0.485194
-4.428206 -5.828802 0.492787
-4.453065 -5.814189 0.495146
-4.477204 -5.798584 0.497256
-4.499238 -5.780261 0.498670
-4.537037 -5.735822 0.499459
-4.603238 -5.771873 0.515048
-4.563625 -5.678015 0.496684
-4.569878 -5.640916 0.493088
-4.574020 -5.557888 0.483379
-4.584807 -5.527244 0.481336
-4.554869 -5.407444 0.461305
-4.563661 -5.375781 0.458789
-4.520403 -5.285683 0.440256
-4.534086 -5.260550 0.439368
-4.739259 -5.009687 0.441583
-4.756471 -4.951962 0.437061
-4.744295 -4.903265 0.428841
-4.694281 -4.712879 0.396253
-4.644719 -4.401143 0.347905
-4.655658 -4.346868 0.342608
-4.368355 -3.931800 0.241783
-4.337941 -3.879894 0.230035
-4.328013 -3.844751 0.223783
-4.304739 -3.799583 0.214054
-4.319096 -3.783950 0.214262
-4.325159 -3.761971 0.212289
-4.328598 -3.738112 0.209638
-4.318449 -3.704225 0.203472
-4.306763 -3.669531 0.196943
-4.305233 -3.642634 0.193065
-4.304897 -3.616802 0.189509
-4.307062 -3.592942 0.186606
-4.293892 -3.558298 0.179808
-4.294907 -3.534001 0.176642
-4.283745 -3.501350 0.170411
-4.273582 -3.469698 0.164461
-4.270774 -3.443367 0.160384
-4.251428 -3.406023 0.152192
-4.263398 -3.390074 0.151832
-4.279960 -3.377146 0.152595
-4.266833 -3.344630 0.146006
-4.260566 -3.316882 0.141135
-4.251644 -3.287636 0.135631
-4.240993 -3.257531 0.129726
-4.249166 -3.239544 0.128421
-4.251213 -3.217747 0.125621
-4.245849 -3.191465 0.121034
-4.200193 -3.140774 0.106782
-4.208103 -3.123123 0.105434
-4.227810 -3.112518 0.106885
-4.228101 -3.090287 0.103691
-4.228136 -3.067999 0.100438
-4.237803 -3.051373 0.099454
-4.234811 -3.027480 0.095483
-4.225800 -3.000311 0.090112
-4.211277 -2.970264 0.083477
-4.204782 -2.944922 0.078729
-4.202405 -2.921996 0.074944
-4.199710 -2.899009 0.071092
-4.213328 -2.884849 0.070979
-4.200757 -2.856776 0.064871
-4.201267 -2.835762 0.061758
-4.200130 -2.813972 0.058273
-4.195224 -2.790356 0.053944
-4.190690 -2.767067 0.049711
-4.189392 -2.745523 0.046214
-4.194403 -2.727176 0.044126
-4.200224 -2.709247 0.042216
-4.200657 -2.688754 0.039114
-4.194203 -2.665088 0.034508
-4.190683 -2.642966 0.030567
-4.185403 -2.620174 0.026263
-4.161227 -2.588944 0.017886
-4.153656 -2.565574 0.013158
-4.152507 -2.545258 0.009845
-4.150980 -2.524916 0.006477
-4.145988 -2.503228 0.002399
-4.138072 -2.480493 -0.002260
-4.132821 -2.459122 -0.006308
-4.127238 -2.437835 -0.010379
-5.903502 -2.903949 0.324235
-5.907815 -2.880535 0.321733
-1.828107 -6.130170 0.028932
-1.852602 -6.134779 0.033924
-1.874545 -6.126188 0.037065
-1.899940 -6.131959 0.042444
-1.948087 -6.128041 0.051163
-1.975946 -6.140433 0.057832
-1.999150 -6.132379 0.061456
-2.019690 -6.113142 0.063402
-2.042140 -6.101410 0.066538
-2.067453 -6.100485 0.071395
-2.091713 -6.095019 0.075581
-2.112713 -6.077140 0.077828
-2.140560 -6.084342 0.084077
-2.406886 -6.348037 0.164401
-3.093265 -6.020317 0.258453
-3.110749 -5.997268 0.259004
-3.128056 -5.974157 0.259501
-3.161126 -5.983720 0.266480
-3.205947 -6.016662 0.278178
-3.220465 -5.987798 0.277483
-3.251263 -5.991621 0.283364
-3.276655 -5.984502 0.287032
-3.298132 -5.969692 0.289120
-3.318503 -5.952831 0.290766
-3.338423 -5.935222 0.292234
-3.357428 -5.916019 0.293346
-3.380502 -5.904504 0.296038
-3.424298 -5.930917 0.306687
-3.459202 -5.940359 0.313824
-3.479232 -5.922658 0.315238
-3.501503 -5.909019 0.317497
-3.540964 -5.925521 0.326203
-3.574637 -5.931332 0.332660
-3.606776 -5.934089 0.338488
-3.629827 -5.921057 0.340908
-3.660664 -5.921069 0.346172
-3.692291 -5.922090 0.351679
-3.722478 -5.920407 0.356614
-3.744885 -5.905789 0.358698
-3.768699 -5.893425 0.361278
-3.795156 -5.885211 0.364784
-3.820884 -5.875698 0.368006
-3.850514 -5.872151 0.372582
-3.869662 -5.852160 0.373439
-3.900307 -5.849835 0.378314
-3.949916 -5.875929 0.389738
-3.970863 -5.858230 0.391146
-4.002405 -5.856269 0.396193
-4.032368 -5.851698 0.400657
-4.105363 -5.860635 0.413905
-4.150962 -5.877429 0.423509
-4.167829 -5.853033 0.423396
-4.191552 -5.838351 0.425580
