ply
format ascii 1.0
comment ---
element vertex 1649
property float x
property float y
property float z
element face 0
property list uchar uint vertex_indices
end_header
-3.054050 -1.919306 0.949943
-3.058098 -1.910478 0.951984
-3.064999 -1.901902 0.955315
-3.061737 -1.892325 0.954120
-3.051337 -1.882168 0.949746
-3.056227 -1.873393 0.952223
-3.052413 -1.863904 0.950820
-3.034292 -1.853424 0.943026
-3.035969 -1.844475 0.944105
-3.048067 -1.836170 0.949869
-3.048892 -1.827104 0.950598
-3.042593 -1.817663 0.948145
-3.047284 -1.808814 0.950636
-3.049921 -1.799838 0.952220
-3.049520 -1.790727 0.952453
-3.045724 -1.781515 0.951175
-3.044589 -1.772419 0.951105
-3.036600 -1.763184 0.947964
-3.035228 -1.754148 0.947809
-3.042629 -1.745237 0.951619
-3.047429 -1.736235 0.954273
-3.022538 -1.727116 0.943555
-3.043473 -1.718126 0.953511
-3.047455 -1.709056 0.955838
-3.034835 -1.700156 0.950679
-3.023683 -1.691355 0.946189
-3.024951 -1.682384 0.947323
-3.027936 -1.673350 0.949247
-3.025589 -1.664458 0.948770
-3.031191 -1.655287 0.951907
-3.028089 -1.646428 0.951110
-3.035659 -1.637087 0.955169
-3.041636 -1.627749 0.958522
-3.039409 -1.618820 0.958160
-3.022630 -1.610821 0.951183
-3.018308 -1.602140 0.949882
-3.014172 -1.593482 0.948673
-3.008859 -1.584950 0.946936
-3.004194 -1.576411 0.945503
-3.001204 -1.567763 0.944843
-3.003701 -1.558627 0.946702
-3.010932 -1.548993 0.950743
-3.008004 -1.540323 0.950146
-2.983955 -1.533957 0.939867
-2.990488 -1.524362 0.943624
-2.990548 -1.515455 0.944422
-2.992847 -1.506261 0.946263
-2.979032 -1.499101 0.940696
-2.972422 -1.491108 0.938450
-3.012498 -1.476697 0.957755
-2.997826 -1.469733 0.951818
-2.974161 -1.464244 0.941721
-2.968482 -1.456213 0.939940
-2.960474 -1.448597 0.937086
-2.972642 -1.437734 0.943596
-2.973515 -1.428643 0.944886
-2.970620 -1.420185 0.944437
-2.976361 -1.410188 0.948018
-2.982252 -1.400086 0.951689
-2.970887 -1.393186 0.947328
-2.978065 -1.382764 0.951629
-2.976695 -1.373962 0.951955
-2.975187 -1.365184 0.952228
-2.951624 -1.361054 0.942176
-2.954722 -1.351385 0.944623
-2.952209 -1.342906 0.944451
-2.965561 -1.330834 0.951756
-2.969942 -1.320679 0.954866
-2.958989 -1.314095 0.950762
-2.940168 -1.309512 0.942943
-2.927845 -1.303493 0.938190
-2.943699 -1.290444 0.946782
-2.950659 -1.279499 0.951192
-2.949067 -1.270712 0.951566
-2.935895 -1.265034 0.946447
-2.934385 -1.256266 0.946881
-2.930255 -1.248219 0.946081
-2.926155 -1.240180 0.945306
-2.921457 -1.232329 0.944257
-2.910894 -1.226238 0.940408
-2.911486 -1.216862 0.941915
-2.907902 -1.208732 0.941434
-2.910485 -1.198677 0.943935
-2.901078 -1.192380 0.940678
-2.887974 -1.187354 0.935639
-2.929311 -1.164478 0.956930
-2.907607 -1.162253 0.947766
-2.896852 -1.156500 0.943899
-2.891249 -1.149043 0.942538
-2.897614 -1.137393 0.947016
-2.890879 -1.130323 0.945135
-2.885792 -1.122690 0.944068
-2.881207 -1.114889 0.943258
-2.875635 -1.107469 0.941976
-2.870764 -1.099804 0.941049
-2.865350 -1.092363 0.939866
-2.864540 -1.083132 0.940963
-2.861990 -1.074560 0.941220
-2.873447 -1.060303 0.948425
-2.857770 -1.057009 0.942215
-2.850938 -1.050170 0.940389
-2.855348 -1.038615 0.944166
-2.850100 -1.031099 0.943152
-2.848367 -1.022072 0.943904
-2.851483 -1.010881 0.947098
-2.853709 -1.000002 0.949869
-2.841553 -0.995566 0.945427
-2.823254 -0.994053 0.937881
-2.817257 -0.986995 0.936522
-2.818472 -0.976563 0.938813
-2.822844 -0.964560 0.942721
-2.811923 -0.959867 0.938875
-2.813242 -0.949261 0.941249
-2.815810 -0.937977 0.944271
-2.805736 -0.932984 0.940836
-2.810838 -0.920345 0.945162
-2.796647 -0.917563 0.939590
-2.800583 -0.905455 0.943317
-2.795566 -0.898003 0.942430
-2.781671 -0.895343 0.936937
-2.785676 -0.883134 0.940676
-2.790117 -0.870613 0.944638
-2.791790 -0.859552 0.947155
-2.795003 -0.847592 0.950459
-2.783124 -0.844155 0.945866
-2.775260 -0.838562 0.943325
-2.785213 -0.822715 0.950079
-2.761673 -0.826430 0.939230
-2.787650 -0.801033 0.954354
-2.772768 -0.799865 0.947951
-2.757270 -0.799285 0.941153
-2.774572 -0.778798 0.951629
-2.760629 -0.777503 0.945535
-2.753234 -0.772321 0.942840
-2.755850 -0.760937 0.945398
-2.767302 -0.743919 0.952603
-2.761909 -0.737689 0.950791
-2.753452 -0.733585 0.947275
-2.741989 -0.731631 0.942079
-2.744575 -0.720549 0.944314
-2.744512 -0.711285 0.945068
-2.743664 -0.702631 0.945334
-2.747202 -0.691071 0.947880
-2.752390 -0.678415 0.951245
-2.749599 -0.671332 0.950261
-2.734550 -0.672963 0.942623
-2.729375 -0.667885 0.940211
-2.736872 -0.653931 0.944539
-2.731410 -0.649296 0.941833
-2.724763 -0.645679 0.938421
-2.738811 -0.627138 0.946070
-3.105385 -2.510924 0.941167
-3.098732 -2.500387 0.939697
-3.094460 -2.490772 0.939193
-3.092695 -2.482103 0.939714
-3.088005 -2.472148 0.938914
-3.105563 -2.471027 0.947689
-3.118058 -2.467630 0.954235
-3.111286 -2.456469 0.952371
-3.109726 -2.447273 0.952709
-3.109602 -2.438532 0.953614
-3.102694 -2.427125 0.951503
-3.102216 -2.418077 0.952135
-3.097787 -2.407480 0.950983
-3.094442 -2.397224 0.950245
-3.086467 -2.385251 0.947424
-3.086698 -2.376168 0.948136
-3.080353 -2.364711 0.945915
-3.081351 -2.355759 0.946857
-3.086622 -2.348169 0.949625
-3.092718 -2.340733 0.952710
-3.093452 -2.331414 0.953397
-3.089145 -2.320403 0.951828
-3.076784 -2.306831 0.946678
-3.058031 -2.291346 0.938677
-3.077117 -2.287628 0.947270
-3.082055 -2.279406 0.949614
-3.083375 -2.270030 0.950337
-3.080707 -2.259452 0.949279
-3.082568 -2.250176 0.950189
-3.076164 -2.238546 0.947441
-3.076116 -2.228720 0.947470
-3.078178 -2.219454 0.948410
-3.081303 -2.210442 0.949804
-3.081969 -2.200758 0.950104
-3.084408 -2.191519 0.951175
-3.084290 -2.181622 0.951113
-3.081223 -2.171018 0.949749
-3.078143 -2.160452 0.948376
-3.074799 -2.149870 0.946885
-3.077608 -2.140733 0.948101
-3.085927 -2.132802 0.951743
-3.087672 -2.123377 0.952497
-3.087708 -2.113590 0.952503
-3.090867 -2.104464 0.953889
-3.084647 -2.093443 0.951156
-3.074937 -2.081826 0.946896
-3.089040 -2.074856 0.953120
-3.091191 -2.065551 0.954096
-3.093380 -2.056250 0.955099
-3.089469 -2.045885 0.953430
-3.082953 -2.035140 0.950626
-3.076568 -2.024505 0.947891
-3.077345 -2.015095 0.948321
-3.075100 -2.005232 0.947433
-3.072585 -1.995372 0.946439
-3.078840 -1.986814 0.949320
-3.077222 -1.977122 0.948749
-3.082241 -1.968349 0.951114
-3.081845 -1.958850 0.951110
-3.087741 -1.950144 0.953891
-3.083523 -1.940205 0.952231
-3.072607 -1.929571 0.947632
-3.075395 -1.920537 0.949087
-3.083613 -1.912044 0.952953
-3.090952 -1.903398 0.956447
-3.092571 -1.894162 0.957434
-3.088499 -1.884426 0.955922
-3.087783 -1.875020 0.955906
-3.076148 -1.864790 0.951079
-3.064082 -1.854656 0.946072
-3.073499 -1.846094 0.950575
-3.071857 -1.836761 0.950202
-3.072956 -1.827609 0.951056
-3.072853 -1.818392 0.951392
-3.071306 -1.809114 0.951102
-3.073073 -1.799998 0.952293
-3.076931 -1.790947 0.954426
-3.069542 -1.781503 0.951584
-3.062720 -1.772152 0.949003
-3.062735 -1.763024 0.949468
-3.055746 -1.753780 0.946833
-3.061293 -1.744758 0.949783
-3.060124 -1.735636 0.949760
-3.064365 -1.726538 0.952158
-3.058674 -1.717428 0.950144
-3.054390 -1.708364 0.948768
-3.043504 -1.699428 0.944455
-3.039732 -1.690471 0.943324
-3.041366 -1.681427 0.944618
-3.042935 -1.672366 0.945897
-3.054586 -1.662954 0.951699
-3.057185 -1.653766 0.953467
-3.055046 -1.644753 0.953126
-3.061286 -1.635354 0.956552
-3.069764 -1.625769 0.961000
-3.062344 -1.617017 0.958324
-3.049478 -1.608675 0.953206
-3.029787 -1.600922 0.945019
-3.028765 -1.591995 0.945236
-3.027793 -1.583067 0.945486
-3.026608 -1.574160 0.945651
-3.023354 -1.565438 0.944892
-3.025013 -1.556283 0.946361
-3.041183 -1.545677 0.954407
-3.037182 -1.536981 0.953346
-3.024311 -1.529276 0.948274
-3.004932 -1.522428 0.940251
-3.012663 -1.512555 0.944530
-3.009287 -1.503964 0.943781
-3.033153 -1.491893 0.955432
-3.035334 -1.482465 0.957242
-3.024289 -1.474837 0.953038
-3.014605 -1.467112 0.949457
-3.006153 -1.459289 0.946441
-3.018392 -1.448350 0.952889
-3.026311 -1.437958 0.957385
-3.010888 -1.431306 0.951205
-2.993016 -1.425211 0.943900
-2.963320 -1.421348 0.931159
-2.994224 -1.406880 0.946259
-3.006720 -1.395480 0.952933
-3.013060 -1.385103 0.956796
-3.001616 -1.378116 0.952475
-2.997685 -1.369722 0.951625
-2.995210 -1.361049 0.951457
-2.991160 -1.352714 0.950572
-2.980649 -1.345798 0.946701
-2.974831 -1.337931 0.945010
-2.987844 -1.325834 0.952078
-2.995713 -1.314771 0.956782
-2.969618 -1.311660 0.945687
-2.965091 -1.303570 0.944636
-2.965040 -1.294393 0.945686
-2.978590 -1.281748 0.953115
-2.974254 -1.273557 0.952198
-2.952296 -1.270037 0.943026
-2.966084 -1.257098 0.950632
-2.957630 -1.250093 0.947810
-2.945736 -1.244115 0.943373
-2.945856 -1.234805 0.944605
-2.945941 -1.225473 0.945837
-2.934909 -1.219406 0.941828
-2.931308 -1.211184 0.941341
-2.938689 -1.199594 0.946080
-2.942691 -1.188945 0.949241
-2.923333 -1.185659 0.941305
-2.933640 -1.172939 0.947506
-2.935597 -1.162821 0.949753
-2.932223 -1.154431 0.949471
-2.919550 -1.149212 0.944748
-2.911230 -1.142589 0.942113
-2.906366 -1.134803 0.941147
-2.909879 -1.124035 0.944228
-2.904511 -1.116416 0.943049
-2.899245 -1.108779 0.941931
-2.897542 -1.099824 0.942550
-2.883302 -1.095621 0.937104
-2.890599 -1.083211 0.942121
-2.889331 -1.074033 0.943000
-2.901373 -1.059522 0.950391
-2.874836 -1.060423 0.938969
-2.877110 -1.049770 0.941625
-2.872739 -1.041809 0.941047
-2.873895 -1.031519 0.943196
-2.872624 -1.022208 0.944171
-2.863503 -1.016273 0.941288
-2.866997 -1.004843 0.944645
-2.870350 -0.993386 0.947956
-2.866043 -0.985307 0.947488
-2.864775 -0.975837 0.948539
-2.848275 -0.973418 0.942006
-2.842130 -0.966276 0.940629
-2.840469 -0.957023 0.941497
-2.856075 -0.939391 0.951039
-2.821929 -0.945901 0.935602
-2.843549 -0.925113 0.948209
-2.835236 -0.919060 0.945748
-2.827727 -0.912663 0.943682
-2.830109 -0.901222 0.946621
-2.830517 -0.890745 0.948561
-2.825170 -0.883270 0.947569
-2.822010 -0.874663 0.947676
-2.823036 -0.863801 0.949912
-2.809106 -0.861099 0.944472
-2.813367 -0.848469 0.948335
-2.810986 -0.839493 0.948770
-2.809205 -0.830195 0.949491
-2.807380 -0.820938 0.950162
-2.767887 -0.833578 0.931295
-2.803123 -0.802849 0.951095
-2.796100 -0.796761 0.948962
-2.772724 -0.800596 0.938261
-2.766251 -0.794496 0.936296
-2.788663 -0.770785 0.949371
-2.778206 -0.767189 0.945232
-2.766587 -0.764491 0.940416
-2.765469 -0.755339 0.941043
-2.765626 -0.745433 0.942282
-2.767399 -0.734534 0.944314
-2.763606 -0.727298 0.943352
-2.761852 -0.718831 0.943399
-2.759795 -0.710654 0.943219
-2.761893 -0.699789 0.945168
-2.758074 -0.692980 0.943917
-2.760109 -0.682299 0.945697
-2.759396 -0.673572 0.945951
-2.758153 -0.665310 0.945853
-2.750449 -0.661683 0.942251
-2.755598 -0.649155 0.945405
-2.755919 -0.640104 0.945924
-2.748819 -0.636478 0.942426
-2.753508 -0.624497 0.945129
-2.760232 -0.611080 0.948846
-2.765743 -0.598582 0.951852
-3.145355 -2.535523 0.947400
-3.127821 -2.520271 0.941380
-3.118661 -2.508538 0.938847
-3.127404 -2.504161 0.943876
-3.157038 -2.508132 0.957780
-3.121220 -2.485247 0.943693
-3.121961 -2.477188 0.945153
-3.137048 -2.474680 0.952706
-3.129788 -2.463182 0.950628
-3.131793 -2.455219 0.952466
-3.134861 -2.447533 0.954706
-3.124467 -2.434635 0.951093
-3.115042 -2.422093 0.947831
-3.120341 -2.414952 0.950857
-3.120489 -2.405796 0.951607
-3.109413 -2.392535 0.947451
-3.112020 -2.384121 0.949151
-3.107556 -2.373142 0.947741
-3.106355 -2.363249 0.947691
-3.115515 -2.356793 0.952079
-3.113737 -2.346543 0.951685
-3.107963 -2.334944 0.949513
-3.106402 -2.324706 0.949124
-3.090904 -2.310022 0.942649
-3.096097 -2.301899 0.945113
-3.093284 -2.291233 0.944069
-3.096379 -2.282341 0.945559
-3.098177 -2.273004 0.946458
-3.102858 -2.264462 0.948583
-3.099463 -2.253551 0.947178
-3.095533 -2.242512 0.945522
-3.096636 -2.232886 0.946033
-3.099998 -2.223849 0.947510
-3.105628 -2.215371 0.949960
-3.109220 -2.206307 0.951515
-3.106716 -2.195669 0.950415
-3.103664 -2.184928 0.949071
-3.102116 -2.174593 0.948376
-3.099053 -2.163927 0.947022
-3.098380 -2.153860 0.946705
-3.103786 -2.145191 0.949030
-3.108774 -2.136388 0.951176
-3.110158 -2.126774 0.951762
-3.111250 -2.117103 0.952226
-3.110071 -2.106974 0.951711
-3.116546 -2.098407 0.954528
-3.114110 -2.088060 0.953484
-3.117275 -2.078820 0.954882
-3.115511 -2.068662 0.954150
-3.113479 -2.058496 0.953313
-3.111244 -2.048337 0.952399
-3.102258 -2.037087 0.948565
-3.107780 -2.028320 0.951044
-3.107261 -2.018561 0.950913
-3.106862 -2.008847 0.950848
-3.102565 -1.998582 0.949102
-3.103994 -1.989197 0.949858
-3.107808 -1.980145 0.951665
-3.087143 -1.967832 0.942844
-3.097125 -1.959649 0.947361
-3.098756 -1.950361 0.948262
-3.102740 -1.941349 0.950202
-3.103088 -1.931906 0.950574
-3.097928 -1.921885 0.948564
-3.107154 -1.913397 0.952831
-3.116384 -1.904830 0.957117
-3.117671 -1.895455 0.957959
-3.115937 -1.885817 0.957498
-3.114810 -1.876259 0.957316
-3.112573 -1.866638 0.956665
-3.110194 -1.857041 0.955964
-3.105039 -1.847292 0.954064
-3.104460 -1.837886 0.954175
-3.097024 -1.828106 0.951304
-3.101228 -1.819009 0.953532
-3.100378 -1.809641 0.953564
-3.100291 -1.800319 0.953944
-3.109069 -1.791329 0.958219
-3.103388 -1.781799 0.956176
-3.100850 -1.772414 0.955521
-3.087242 -1.762819 0.950023
-3.091824 -1.753664 0.952513
-3.097600 -1.744481 0.955543
-3.093353 -1.735175 0.954184
-3.086454 -1.725908 0.951670
-3.079551 -1.716711 0.949161
-3.060506 -1.707683 0.941315
-3.054187 -1.698676 0.939077
-3.059196 -1.689523 0.941841
-3.064318 -1.680315 0.944670
-3.066996 -1.671124 0.946435
-3.078634 -1.661605 0.952172
-3.076436 -1.652495 0.951811
-3.076924 -1.643288 0.952648
-3.080583 -1.633918 0.954901
-3.085886 -1.624420 0.957897
-3.082771 -1.615353 0.957174
-3.071978 -1.606797 0.953053
-3.068342 -1.597855 0.952114
-3.067966 -1.588703 0.952633
-3.060988 -1.580064 0.950226
-3.053667 -1.571516 0.947671
-3.048411 -1.562851 0.946043
-3.069226 -1.551796 0.956056
-3.070331 -1.542461 0.957293
-3.055882 -1.534715 0.951589
-3.042381 -1.527001 0.946308
-3.047930 -1.517250 0.949560
-3.039480 -1.509092 0.946553
-3.049387 -1.498738 0.951787
-3.056667 -1.488610 0.955861
-3.055707 -1.479497 0.956249
-3.046762 -1.471491 0.953052
-3.035288 -1.463925 0.948720
-3.034351 -1.454892 0.949142
-3.039431 -1.444927 0.952292
-3.054265 -1.433340 0.959868
-3.044409 -1.425646 0.956298
-3.036790 -1.417657 0.953743
-3.043098 -1.407297 0.957511
-3.033745 -1.399672 0.954186
-3.024614 -1.392085 0.950965
-3.029292 -1.381947 0.954033
-3.028139 -1.372881 0.954461
-3.019795 -1.365251 0.951622
-3.019074 -1.356118 0.952268
-3.021507 -1.346308 0.954368
-3.015003 -1.338383 0.952395
-3.008892 -1.330418 0.950608
-3.022307 -1.318068 0.957790
-3.020547 -1.309075 0.958028
-3.023828 -1.298880 0.960599
-3.015317 -1.291486 0.957755
-3.003012 -1.285098 0.953167
-3.007785 -1.274491 0.956468
-3.000230 -1.266995 0.954088
-3.007240 -1.255709 0.958461
-2.996639 -1.249061 0.954690
-2.988210 -1.241903 0.951931
-2.979334 -1.234932 0.948969
-2.969989 -1.228160 0.945795
-2.967891 -1.219352 0.946006
-2.966808 -1.210236 0.946705
-2.969643 -1.199916 0.949254
-2.969426 -1.190471 0.950395
-2.964922 -1.182335 0.949541
-2.954411 -1.176126 0.945875
-2.956026 -1.166072 0.947922
-2.952620 -1.157617 0.947623
-2.948700 -1.149336 0.947095
-2.951603 -1.138736 0.949810
-2.947029 -1.130655 0.949004
-2.948243 -1.120548 0.950959
-2.931510 -1.116805 0.944400
-2.930771 -1.107401 0.945455
-2.929005 -1.098342 0.946039
-2.915726 -1.093576 0.941134
-2.927860 -1.079247 0.948402
-2.924305 -1.070796 0.948182
-2.925078 -1.060643 0.950058
-2.939408 -1.045038 0.958486
-2.906466 -1.048314 0.944147
-2.886984 -1.046414 0.936277
-2.901500 -1.030560 0.944861
-2.894296 -1.023647 0.942950
-2.887185 -1.016731 0.941090
-2.894122 -1.003757 0.946083
-2.894399 -0.993580 0.947855
-2.882892 -0.988605 0.943880
-2.886331 -0.976962 0.947230
-2.881131 -0.969187 0.946358
-2.873775 -0.962428 0.944430
-2.868634 -0.954668 0.943595
-2.874930 -0.941468 0.948420
-2.875860 -0.930734 0.950612
-2.862792 -0.926794 0.945866
-2.858629 -0.918556 0.945534
-2.858546 -0.908278 0.947236
-2.851471 -0.901513 0.945450
-2.854306 -0.889694 0.948617
-2.848765 -0.882167 0.947589
-2.845567 -0.873437 0.947727
-2.844047 -0.863818 0.948702
-2.837905 -0.856688 0.947333
-2.833944 -0.848415 0.947047
-2.823303 -0.843872 0.943352
-2.825566 -0.832215 0.946181
-2.825309 -0.821940 0.947715
-2.827134 -0.810464 0.950289
-2.816788 -0.806020 0.946617
-2.808489 -0.800509 0.943945
-2.806643 -0.791282 0.944540
-2.799357 -0.785353 0.942297
-2.791486 -0.779889 0.939701
-2.802952 -0.762695 0.947033
-2.820719 -0.741475 0.957600
-2.806546 -0.740052 0.951600
-2.785061 -0.743478 0.941730
-2.781089 -0.736036 0.940872
-2.777242 -0.728614 0.940017
-2.779467 -0.717340 0.942259
-2.786600 -0.702869 0.947004
-2.786699 -0.693048 0.948019
-2.777510 -0.689527 0.944109
-2.772758 -0.683193 0.942444
-2.775276 -0.672033 0.944515
-2.773037 -0.664205 0.944023
-2.776118 -0.652795 0.946251
-2.782594 -0.639059 0.950193
-2.781905 -0.630408 0.950302
-2.780495 -0.622376 0.949960
-2.773249 -0.618656 0.946476
-2.769112 -0.612868 0.944555
-2.765979 -0.606499 0.943091
-2.768135 -0.596379 0.944342
-3.177666 -2.549173 0.951441
-3.171587 -2.538561 0.950293
-3.163692 -2.527117 0.948321
-3.168634 -2.520919 0.951688
-3.177600 -2.516199 0.956705
-3.205479 -2.518925 0.969662
-3.195325 -2.506073 0.966512
-3.149463 -2.479074 0.948172
-3.150658 -2.470765 0.949674
-3.155117 -2.463590 0.952505
-3.150841 -2.452931 0.951569
-3.146272 -2.442095 0.950448
-3.131596 -2.427441 0.944962
-3.152795 -2.425993 0.954694
-3.139606 -2.411793 0.949720
-3.131679 -2.399511 0.946929
-3.132883 -2.390438 0.947979
-3.157947 -2.389551 0.959172
-3.154790 -2.378685 0.958263
-3.133785 -2.361770 0.949670
-3.132601 -2.351581 0.949505
-3.131427 -2.341348 0.949300
-3.127703 -2.330256 0.947964
-3.118494 -2.317423 0.944239
-3.113618 -2.305992 0.942333
-3.113750 -2.296107 0.942541
-3.106778 -2.284058 0.939674
-3.127413 -2.280195 0.948614
-3.128018 -2.270294 0.948945
-3.117852 -2.257313 0.944638
-3.117460 -2.247152 0.944503
-3.118409 -2.237355 0.944926
-3.122300 -2.228333 0.946598
-3.127506 -2.219615 0.948823
-3.128130 -2.209666 0.949075
-3.130894 -2.200255 0.950238
-3.122921 -2.188176 0.946794
-3.116157 -2.176485 0.943867
-3.123012 -2.168093 0.946776
-3.122788 -2.158011 0.946653
-3.133542 -2.150423 0.951238
-3.141073 -2.142029 0.954444
-3.134797 -2.130609 0.951739
-3.130947 -2.119785 0.950081
-3.136002 -2.110841 0.952246
-3.133950 -2.100452 0.951375
-3.141092 -2.091887 0.954453
-3.141061 -2.081918 0.954468
-3.141598 -2.072077 0.954737
-3.139145 -2.061720 0.953737
-3.142332 -2.052386 0.955166
-3.137260 -2.041656 0.953067
-3.128804 -2.030451 0.949530
-3.132288 -2.021234 0.951126
-3.133683 -2.011685 0.951840
-3.136085 -2.002290 0.953000
-3.132695 -1.992069 0.951690
-3.126304 -1.981491 0.949105
-3.124700 -1.971628 0.948589
-3.127286 -1.962331 0.949885
-3.125259 -1.952465 0.949216
-3.122200 -1.942516 0.948118
-3.129613 -1.933781 0.951532
-3.131934 -1.924445 0.952775
-3.131308 -1.914802 0.952765
-3.136564 -1.905746 0.955300
-3.137393 -1.896246 0.955946
-3.138044 -1.886736 0.956530
-3.137284 -1.877116 0.956522
-3.136004 -1.867477 0.956303
-3.133840 -1.857797 0.955718
-3.130079 -1.848044 0.954456
-3.124979 -1.838255 0.952630
-3.127230 -1.828939 0.953987
-3.127596 -1.819511 0.954545
-3.127516 -1.810065 0.954924
-3.131630 -1.800800 0.957129
-3.124286 -1.791085 0.954394
-3.130192 -1.781860 0.957401
-3.120523 -1.772173 0.953683
-3.120734 -1.762796 0.954251
-3.121972 -1.753436 0.955277
-3.121353 -1.744045 0.955511
-3.115261 -1.734628 0.953383
-3.114155 -1.725279 0.953428
-3.117509 -1.715925 0.955423
-3.118781 -1.706555 0.956526
-3.108690 -1.697327 0.952698
-3.090389 -1.688351 0.945303
-3.098978 -1.678921 0.949622
-3.100260 -1.669612 0.950773
-3.099243 -1.660364 0.950933
-3.096735 -1.651180 0.950452
-3.096395 -1.641923 0.950930
-3.098081 -1.632566 0.952303
-3.104299 -1.622945 0.955673
-3.102612 -1.613719 0.955596
-3.098967 -1.604628 0.954671
-3.095943 -1.595525 0.954027
-3.094822 -1.586304 0.954227
-3.084765 -1.577789 0.950510
-3.077856 -1.569104 0.948181
-3.081938 -1.559507 0.950697
-3.085025 -1.549953 0.952789
-3.094538 -1.539724 0.957729
-3.079807 -1.531903 0.951984
-3.073759 -1.523275 0.950076
-3.078297 -1.513495 0.952855
-3.081454 -1.503821 0.955039
-3.078213 -1.494896 0.954401
-3.074481 -1.486054 0.953553
-3.075084 -1.476658 0.954639
-3.070960 -1.467898 0.953636
-3.069615 -1.458767 0.953877
-3.072206 -1.449048 0.955882
-3.080669 -1.438382 0.960519
-3.078989 -1.429231 0.960648
-3.077765 -1.420006 0.960992
-3.074052 -1.411200 0.960234
-3.067468 -1.402917 0.958198
-3.061702 -1.394537 0.956535
-3.051502 -1.387019 0.952888
-3.051754 -1.377600 0.953940
-3.054481 -1.367676 0.956120
-3.047575 -1.359637 0.953976
-3.044957 -1.350767 0.953772
-3.050290 -1.340226 0.957168
-3.049738 -1.330881 0.957924
-3.045666 -1.322299 0.957099
-3.041134 -1.313842 0.956075
-3.044786 -1.303511 0.958775
-3.041003 -1.294882 0.958115
-3.034632 -1.286896 0.956288
-3.032706 -1.277851 0.956493
-3.030415 -1.268893 0.956546
-3.029636 -1.259542 0.957301
-3.024940 -1.251206 0.956279
-3.019660 -1.243049 0.955000
-3.008156 -1.236629 0.950876
-2.996604 -1.230317 0.946731
-2.998040 -1.220395 0.948562
-2.992153 -1.212555 0.947039
-2.991600 -1.203169 0.947986
-2.998155 -1.191613 0.952234
-2.991398 -1.184040 0.950349
-2.979581 -1.178088 0.946127
-2.980033 -1.168330 0.947602
-2.977587 -1.159469 0.947748
-2.982759 -1.148091 0.951459
-2.975593 -1.140749 0.949441
-2.974977 -1.131219 0.950491
-2.974894 -1.121473 0.951810
-2.968959 -1.113745 0.950406
-2.963995 -1.105696 0.949468
-2.962982 -1.096228 0.950402
-2.967344 -1.084747 0.953887
-2.961425 -1.077022 0.952547
-2.955794 -1.069212 0.951354
-2.952422 -1.060549 0.951243
-2.955844 -1.049217 0.954372
-2.950928 -1.041114 0.953563
-2.945741 -1.033130 0.952637
-2.949437 -1.021522 0.955964
-2.938157 -1.016042 0.952154
-2.922467 -1.012504 0.946232
-2.934995 -0.997045 0.953851
-2.925339 -0.990999 0.950839
-2.917360 -0.984281 0.948637
-2.910873 -0.976944 0.947161
-2.914091 -0.965252 0.950388
-2.894457 -0.963930 0.942553
-2.889346 -0.956061 0.941756
-2.892513 -0.944313 0.944999
-2.896046 -0.932300 0.948442
-2.895351 -0.922234 0.949837
-2.892427 -0.913217 0.950152
-2.882721 -0.907547 0.947139
-2.878142 -0.899382 0.946640
-2.875757 -0.890114 0.947222
-2.872189 -0.881442 0.947221
-2.875958 -0.868952 0.950853
-2.871116 -0.860915 0.950217
-2.860841 -0.855803 0.946866
-2.853550 -0.849180 0.944978
-2.847640 -0.841864 0.943759
-2.846861 -0.831759 0.945090
-2.836860 -0.826806 0.941776
-2.849615 -0.809072 0.949877
-2.843835 -0.801779 0.948640
-2.836347 -0.795543 0.946506
-2.826930 -0.790531 0.943355
-2.824065 -0.781761 0.943479
-2.819616 -0.773983 0.942760
-2.814868 -0.766457 0.941844
-2.825917 -0.749335 0.948938
-2.833634 -0.734156 0.954305
-2.823894 -0.729828 0.950703
-2.813392 -0.726145 0.946643
-2.805499 -0.720974 0.943852
-2.799291 -0.714867 0.941859
-2.808798 -0.698657 0.947890
-2.809806 -0.687976 0.949491
-2.804194 -0.681746 0.947611
-2.794855 -0.678155 0.943731
-2.785837 -0.674542 0.939938
-2.793182 -0.659945 0.944543
-2.784241 -0.656565 0.940641
-2.789782 -0.643316 0.944175
-2.792825 -0.631843 0.946345
-2.800355 -0.617259 0.950776
-2.798971 -0.609040 0.950504
-2.791765 -0.605123 0.947132
-2.792590 -0.595575 0.947864
-2.783286 -0.593520 0.943253
-3.172879 -2.554945 0.938371
-3.193222 -2.555643 0.948196
-3.200361 -2.550480 0.952523
-3.201491 -2.542622 0.954310
-3.213590 -2.539156 0.960607
-3.221454 -2.533728 0.965098
-3.219886 -2.524293 0.965605
-3.208144 -2.510681 0.961802
-3.195362 -2.496643 0.957492
-3.170106 -2.477733 0.947886
-3.169601 -2.468490 0.948574
-3.165641 -2.457824 0.947752
-3.163343 -2.447713 0.947567
-3.174580 -2.442546 0.953013
-3.163707 -2.429068 0.949107
-3.172543 -2.422726 0.953437
-3.156559 -2.407358 0.947259
-3.197731 -2.412153 0.965118
-3.166092 -2.391232 0.952230
-3.167375 -2.381793 0.953173
-3.160934 -2.369677 0.950809
-3.151066 -2.356431 0.946951
-3.164402 -2.350790 0.952853
-3.151553 -2.336568 0.947652
-3.136853 -2.321853 0.941629
-3.146268 -2.314728 0.945767
-3.165614 -2.310496 0.954077
-3.153639 -2.296656 0.949112
-3.160629 -2.288496 0.952145
-3.165311 -2.279578 0.954179
-3.161964 -2.268323 0.952797
-3.159425 -2.257319 0.951741
-3.151372 -2.244835 0.948337
-3.152280 -2.234831 0.948713
-3.149013 -2.223726 0.947313
-3.156086 -2.215315 0.950282
-3.161402 -2.206396 0.952502
-3.160905 -2.196002 0.952260
-3.155310 -2.184401 0.949861
-3.144267 -2.171593 0.945158
-3.156765 -2.164332 0.950415
-3.162434 -2.155423 0.952787
-3.162099 -2.145158 0.952625
-3.157906 -2.134091 0.950838
-3.156609 -2.123695 0.950283
-3.159014 -2.114089 0.951303
-3.168009 -2.105786 0.955119
-3.166133 -2.095315 0.954348
-3.163367 -2.084720 0.953211
-3.165046 -2.074988 0.953966
-3.169493 -2.065754 0.955905
-3.167864 -2.055450 0.955286
-3.161538 -2.044403 0.952692
-3.154809 -2.033378 0.949941
-3.153044 -2.023222 0.949305
-3.156209 -2.013854 0.950768
-3.160746 -2.004675 0.952827
-3.156118 -1.994175 0.951020
-3.151091 -1.983688 0.949058
-3.149792 -1.973761 0.948689
-3.157567 -1.965009 0.952179
-3.167480 -1.956455 0.956591
-3.169585 -1.946913 0.957710
-3.161832 -1.936273 0.954664
-3.156209 -1.925953 0.952534
-3.163961 -1.917053 0.956094
-3.154637 -1.906454 0.952421
-3.157786 -1.897094 0.954056
-3.156328 -1.887320 0.953749
-3.155882 -1.877654 0.953887
-3.151412 -1.867700 0.952327
-3.151587 -1.858129 0.952755
-3.150719 -1.848498 0.952754
-3.154159 -1.839145 0.954600
-3.148153 -1.829241 0.952438
-3.150048 -1.819804 0.953653
-3.157432 -1.810606 0.957223
-3.161620 -1.801211 0.959446
-3.162001 -1.791643 0.960059
-3.147841 -1.781630 0.954476
-3.140956 -1.771949 0.952007
-3.141594 -1.762496 0.952763
-3.143528 -1.753060 0.954087
-3.143756 -1.743589 0.954694
-3.135124 -1.734064 0.951518
-3.139822 -1.724639 0.954063
-3.139530 -1.715187 0.954483
-3.142888 -1.705705 0.956480
-3.145876 -1.696194 0.958333
-3.129739 -1.687014 0.951979
-3.118731 -1.677870 0.947832
-3.134562 -1.668057 0.955243
-3.130520 -1.658757 0.954115
-3.122329 -1.649655 0.951206
-3.116168 -1.640540 0.949179
-3.121047 -1.630944 0.951927
-3.122424 -1.621483 0.953175
-3.126344 -1.611852 0.955535
-3.127948 -1.602324 0.956906
-3.131773 -1.592621 0.959252
-3.129625 -1.583312 0.959022
-3.110361 -1.575365 0.951373
-3.103821 -1.566537 0.949247
-3.111231 -1.556528 0.953192
-3.115499 -1.546730 0.955786
-3.118701 -1.536985 0.957930
-3.111767 -1.528250 0.955669
-3.105108 -1.519544 0.953534
-3.105208 -1.510125 0.954355
-3.114781 -1.499567 0.959330
-3.116524 -1.489871 0.960897
-3.104398 -1.481934 0.956402
-3.087468 -1.474751 0.949801
-3.088311 -1.465253 0.950997
-3.096617 -1.454657 0.955485
-3.103822 -1.444126 0.959506
-3.100504 -1.435132 0.958914
-3.098370 -1.425967 0.958851
-3.099764 -1.416228 0.960355
-3.097950 -1.407003 0.960456
-3.093834 -1.398181 0.959548
-3.084093 -1.390397 0.956158
-3.076819 -1.382239 0.953865
-3.077465 -1.372630 0.955091
-3.075700 -1.363467 0.955260
-3.072931 -1.354504 0.954992
-3.068835 -1.345823 0.954144
-3.074240 -1.335159 0.957541
-3.071956 -1.326080 0.957525
-3.067833 -1.317410 0.956698
-3.064002 -1.308694 0.956011
-3.063936 -1.299123 0.957021
-3.063852 -1.289533 0.958037
-3.054431 -1.282183 0.954873
-3.051005 -1.273422 0.954410
-3.049660 -1.264146 0.954894
-3.045919 -1.255476 0.954313
-3.045336 -1.245986 0.955167
-3.043611 -1.236782 0.955521
-3.021106 -1.233270 0.946477
-3.037195 -1.219173 0.954926
-3.035099 -1.210058 0.955152
-3.022612 -1.203954 0.950666
-3.024370 -1.193738 0.952669
-3.011268 -1.187949 0.947913
-3.017104 -1.176459 0.951809
-3.016856 -1.166770 0.952948
-3.012430 -1.158378 0.952190
-3.011866 -1.148750 0.953217
-3.004260 -1.141408 0.951024
-3.003631 -1.131778 0.952052
-3.007175 -1.120698 0.955024
-3.000237 -1.113163 0.953178
-2.984761 -1.108665 0.947390
-2.980299 -1.100368 0.946703
-2.980633 -1.090341 0.948258
-2.982730 -1.079618 0.950654
-2.978549 -1.071176 0.950148
-2.978989 -1.060981 0.951814
-2.978434 -1.051119 0.953036
-2.973279 -1.043018 0.952123
-2.969774 -1.034274 0.951997
-2.972064 -1.023186 0.954612
-2.970896 -1.013436 0.955623
-2.967678 -1.004501 0.955685
-2.949096 -1.002021 0.948493
-2.942600 -0.994552 0.947018
-2.947999 -0.981959 0.951201
-2.941027 -0.974681 0.949526
-2.940665 -0.964492 0.951010
-2.937870 -0.955353 0.951351
-2.938868 -0.944460 0.953521
-2.911104 -0.946833 0.941908
-2.916173 -0.934076 0.946047
-2.918748 -0.922391 0.949011
-2.916763 -0.912820 0.949793
-2.913099 -0.904043 0.949772
-2.907797 -0.896072 0.948962
-2.903606 -0.887563 0.948692
-2.898647 -0.879448 0.948049
-2.894168 -0.871104 0.947637
-2.895017 -0.860001 0.949829
-2.891249 -0.851276 0.949763
-2.880051 -0.846523 0.946037
-2.872880 -0.839705 0.944270
-2.871487 -0.829790 0.945336
-2.867840 -0.821109 0.945278
-2.868620 -0.809973 0.947397
-2.867834 -0.799691 0.948727
-2.862926 -0.791761 0.947986
-2.855213 -0.785507 0.945816
-2.851992 -0.776716 0.945852
-2.849967 -0.767257 0.946455
-2.842301 -0.761205 0.944191
-2.839212 -0.752493 0.944181
-2.841837 -0.740338 0.947005
-2.841863 -0.729779 0.948481
-2.838787 -0.721185 0.948343
-2.828090 -0.717480 0.944291
-2.825286 -0.708918 0.944174
-2.826884 -0.697600 0.946233
-2.831596 -0.684285 0.949822
-2.829372 -0.675530 0.949822
-2.821662 -0.670512 0.946956
-2.825489 -0.657928 0.949909
-2.820040 -0.651647 0.948054
-2.815822 -0.644675 0.946754
-2.811103 -0.638185 0.945122
-2.792802 -0.641282 0.936449
-2.799773 -0.626977 0.940660
-2.810033 -0.610358 0.946495
-2.814779 -0.597649 0.949429
-2.819167 -0.585244 0.952110
-2.809561 -0.583036 0.947519
-2.801199 -0.580137 0.943493
-2.795178 -0.575720 0.940598
-2.786114 -0.573737 0.936065
-2.781235 -0.568837 0.933619
-3.243808 -2.593459 0.956228
-3.221591 -2.575736 0.948617
-3.201133 -2.558813 0.941643
-3.211202 -2.554792 0.947092
-3.232389 -2.555193 0.957062
-3.238317 -2.548984 0.960733
-3.249665 -2.544806 0.966582
-3.232999 -2.529086 0.960844
-3.227948 -2.518027 0.959820
-3.221771 -2.506446 0.958266
-3.200098 -2.488757 0.950237
-3.187440 -2.474628 0.945862
-3.192745 -2.467344 0.948861
-3.189125 -2.456547 0.948104
-3.189752 -2.447256 0.949050
-3.228921 -2.451963 0.965952
-3.190838 -2.428301 0.950704
-3.199341 -2.421512 0.954761
-3.181432 -2.405285 0.947776
-3.190857 -2.398615 0.952117
-3.189071 -2.387957 0.951742
-3.180274 -2.374899 0.948399
-3.177860 -2.363981 0.947671
-3.181001 -2.354840 0.949220
-3.182510 -2.345096 0.950051
-3.169182 -2.330629 0.944656
-3.177396 -2.322927 0.948218
-3.184427 -2.314749 0.951258
-3.184407 -2.304365 0.951330
-3.179955 -2.292664 0.949529
-3.181070 -2.282597 0.950030
-3.182839 -2.272693 0.950788
-3.184480 -2.262729 0.951477
-3.185068 -2.252459 0.951714
-3.184896 -2.241982 0.951624
-3.187951 -2.232355 0.952874
-3.186153 -2.221463 0.952092
-3.182033 -2.210019 0.950338
-3.182446 -2.199744 0.950475
-3.180503 -2.188915 0.949628
-3.179744 -2.178402 0.949278
-3.182169 -2.168645 0.950260
-3.185171 -2.159013 0.951489
-3.178544 -2.147265 0.948704
-3.183074 -2.137990 0.950583
-3.181272 -2.127373 0.949829
-3.187559 -2.118439 0.952459
-3.189384 -2.108581 0.953238
-3.191742 -2.098832 0.954250
-3.187197 -2.087790 0.952392
-3.186736 -2.077564 0.952251
-3.194170 -2.068761 0.955419
-3.190875 -2.058065 0.954121
-3.183469 -2.046743 0.951120
-3.179371 -2.036054 0.949513
-3.178868 -2.025991 0.949422
-3.184954 -2.016950 0.952097
-3.184587 -2.006927 0.952091
-3.180125 -1.996352 0.950389
-3.175020 -1.985756 0.948431
-3.174872 -1.975879 0.948560
-3.181126 -1.966826 0.951380
-3.192844 -1.958384 0.956502
-3.198324 -1.949123 0.959031
-3.197045 -1.939077 0.958748
-3.189770 -1.928429 0.955969
-3.181658 -1.917786 0.952852
-3.195230 -1.909303 0.958832
-3.185111 -1.898561 0.954901
-3.178639 -1.888243 0.952510
-3.180308 -1.878656 0.953546
-3.179081 -1.868844 0.953382
-3.172024 -1.858647 0.950783
-3.179262 -1.849461 0.954199
-3.177051 -1.839644 0.953661
-3.172806 -1.829744 0.952281
-3.175738 -1.820254 0.953931
-3.177314 -1.810681 0.955024
-3.181217 -1.801192 0.957112
-3.184200 -1.791636 0.958827
-3.181576 -1.781886 0.958192
-3.171994 -1.771989 0.954633
-3.165165 -1.762247 0.952244
-3.166623 -1.752703 0.953364
-3.170697 -1.743174 0.955602
-3.166164 -1.733558 0.954215
-3.165797 -1.723991 0.954600
-3.164798 -1.714430 0.954729
-3.165288 -1.704864 0.955500
-3.163435 -1.695326 0.955290
-3.168584 -1.685670 0.958061
-3.161180 -1.676265 0.955516
-3.163492 -1.666647 0.957106
-3.160975 -1.657168 0.956656
-3.155035 -1.647844 0.954759
-3.157125 -1.638220 0.956288
-3.144706 -1.629282 0.951646
-3.147854 -1.619622 0.953646
-3.152429 -1.609841 0.956270
-3.152904 -1.600269 0.957155
-3.154530 -1.590607 0.958544
-3.150835 -1.581315 0.957667
-3.143471 -1.572341 0.955226
-3.130469 -1.563906 0.950372
-3.132730 -1.554234 0.952071
-3.144571 -1.543631 0.957897
-3.140512 -1.534473 0.956906
-3.131291 -1.525882 0.953701
-3.126918 -1.516844 0.952588
-3.128377 -1.507175 0.953997
-3.137841 -1.496526 0.958873
-3.142264 -1.486395 0.961590
-3.127551 -1.478679 0.956046
-3.107975 -1.471751 0.948395
-3.114048 -1.461435 0.951852
-3.113518 -1.451997 0.952463
-3.119464 -1.441583 0.955895
-3.128189 -1.430664 0.960553
-3.120227 -1.422304 0.957968
-3.119790 -1.412769 0.958666
-3.119546 -1.403190 0.959460
-3.113830 -1.394554 0.957875
-3.112184 -1.385226 0.958077
-3.099867 -1.377873 0.953618
-3.096680 -1.368890 0.953161
-3.100156 -1.358619 0.955634
-3.098054 -1.349412 0.955675
-3.091956 -1.341028 0.953969
-3.090173 -1.331777 0.954169
-3.090405 -1.322088 0.955268
-3.091457 -1.312192 0.956744
-3.092706 -1.302219 0.958321
-3.091609 -1.292753 0.958875
-3.084545 -1.284690 0.956800
-3.076287 -1.276966 0.954200
-3.073467 -1.267957 0.954021
-3.065511 -1.260251 0.951570
-3.065587 -1.250529 0.952701
-3.068925 -1.239919 0.955302
-3.072695 -1.229130 0.958116
-3.063407 -1.221853 0.955111
-3.066800 -1.211100 0.957789
-3.058581 -1.203590 0.955281
-3.046711 -1.197198 0.951139
-3.040892 -1.189112 0.949721
-3.049429 -1.176732 0.954778
-3.048986 -1.166981 0.955813
-3.046057 -1.157975 0.955743
-3.043303 -1.148911 0.955766
-3.042342 -1.139261 0.956617
-3.034649 -1.131798 0.954429
-3.036458 -1.121207 0.956569
-3.032202 -1.112617 0.955970
-3.023346 -1.105624 0.953285
-3.010660 -1.100034 0.948858
-2.997826 -1.094599 0.944363
-2.999122 -1.084146 0.946346
-3.001090 -1.073389 0.948661
-3.002829 -1.062649 0.950895
-3.000031 -1.053567 0.951061
-2.993944 -1.045738 0.949725
-2.991729 -1.036419 0.950191
-2.993097 -1.025654 0.952336
-2.992774 -1.015507 0.953719
-2.993990 -1.004684 0.955840
-2.991474 -0.995343 0.956245
-2.985575 -0.987403 0.955086
-2.964775 -0.985836 0.946966
-2.961325 -0.976963 0.946963
-2.966207 -0.964424 0.950889
-2.964213 -0.954830 0.951608
-2.961365 -0.945592 0.951940
-2.957374 -0.936855 0.951746
-2.951486 -0.928992 0.950664
-2.938510 -0.924473 0.946224
-2.935549 -0.915300 0.946539
-2.934759 -0.905065 0.947900
-2.930480 -0.896489 0.947608
-2.925560 -0.888232 0.947014
-2.925822 -0.877392 0.948910
-2.921107 -0.869021 0.948422
-2.917664 -0.860009 0.948548
-2.915002 -0.850588 0.949052
-2.909899 -0.842442 0.948372
-2.904459 -0.834498 0.947523
-2.906116 -0.822759 0.950113
-2.904730 -0.812621 0.951222
-2.890245 -0.809702 0.945925
-2.887383 -0.800449 0.946279
-2.887351 -0.789607 0.948005
-2.883176 -0.781115 0.947680
-2.873281 -0.775970 0.944512
-2.871395 -0.766258 0.945255
-2.871605 -0.755324 0.947007
-2.867754 -0.746818 0.946718
-2.861649 -0.739732 0.945270
-2.861702 -0.728971 0.946839
-2.855895 -0.721851 0.945447
-2.856946 -0.710547 0.947426
-2.854347 -0.701565 0.947534
-2.848571 -0.694680 0.945995
-2.851301 -0.682434 0.948663
-2.852107 -0.671456 0.950310
-2.847671 -0.663970 0.949260
-2.855633 -0.648376 0.954391
-2.850610 -0.641450 0.952912
-2.845592 -0.634660 0.951363
-2.843295 -0.626156 0.951115
-2.838660 -0.619377 0.949610
-2.822358 -0.620853 0.942113
-2.817743 -0.614429 0.940459
-2.821233 -0.602427 0.942845
-2.833489 -0.584233 0.949614
-2.829805 -0.577459 0.948213
-2.826911 -0.570264 0.947138
-2.809613 -0.564777 0.938908
-2.799791 -0.563219 0.934085
-2.798742 -0.555326 0.933658
-3.274327 -2.606563 0.958539
-3.248828 -2.578860 0.951054
-3.245196 -2.568808 0.950894
-3.242433 -2.559015 0.951026
-3.263635 -2.559000 0.960823
-3.256837 -2.547240 0.959207
-3.262273 -2.540348 0.962502
-3.247124 -2.525064 0.957357
-3.237873 -2.512121 0.954542
-3.230268 -2.499784 0.952331
-3.247371 -2.496913 0.960153
-3.213803 -2.474501 0.947197
-3.224597 -2.468953 0.952324
-3.224549 -2.459180 0.952957
-3.216309 -2.446314 0.950174
-3.243389 -2.446166 0.961827
-3.221446 -2.428234 0.953308
-3.221357 -2.418097 0.953707
-3.237758 -2.413576 0.960834
-3.231324 -2.401052 0.958530
-3.205590 -2.382069 0.948239
-3.189746 -2.366555 0.941970
-3.201852 -2.360221 0.947163
-3.201814 -2.349841 0.947323
-3.206165 -2.340799 0.949257
-3.212219 -2.332203 0.951863
-3.206554 -2.319963 0.949615
-3.207207 -2.309644 0.949946
-3.202058 -2.297603 0.947864
-3.193798 -2.284713 0.944483
-3.200544 -2.276132 0.947268
-3.212328 -2.268868 0.952115
-3.211389 -2.258030 0.951709
-3.210648 -2.247260 0.951378
-3.214669 -2.237745 0.953001
-3.214830 -2.227213 0.953031
-3.204099 -2.213975 0.948573
-3.201118 -2.202759 0.947307
-3.199071 -2.191816 0.946427
-3.208622 -2.183624 0.950327
-3.208336 -2.173105 0.950180
-3.204376 -2.161792 0.948527
-3.205599 -2.151672 0.949015
-3.208338 -2.141886 0.950135
-3.216348 -2.133187 0.953435
-3.201408 -2.119793 0.947295
-3.212185 -2.111642 0.951756
-3.218738 -2.102593 0.954488
-3.217984 -2.092141 0.954224
-3.216997 -2.081679 0.953877
-3.213897 -2.070880 0.952673
-3.222358 -2.062114 0.956244
-3.221434 -2.051729 0.955963
-3.202294 -2.038453 0.948191
-3.213963 -2.030185 0.953127
-3.224550 -2.021658 0.957634
-3.214167 -2.010000 0.953511
-3.202850 -1.998338 0.949017
-3.196572 -1.987493 0.946613
-3.195214 -1.977370 0.946253
-3.208334 -1.969088 0.951881
-3.216085 -1.960048 0.955311
-3.221728 -1.950705 0.957888
-3.217825 -1.940275 0.956538
-3.210855 -1.929579 0.953934
-3.211337 -1.919712 0.954423
-3.213270 -1.909991 0.955526
-3.211976 -1.899975 0.955310
-3.209744 -1.889905 0.954719
-3.216287 -1.880569 0.957774
-3.209891 -1.870212 0.955487
-3.206221 -1.860120 0.954341
-3.208025 -1.850428 0.955476
-3.195133 -1.839849 0.950530
-3.200474 -1.830404 0.953159
-3.205517 -1.820899 0.955678
-3.197973 -1.810787 0.952985
-3.198685 -1.801084 0.953732
-3.208838 -1.791709 0.958419
-3.209963 -1.781967 0.959367
-3.200863 -1.771963 0.956070
-3.193529 -1.762087 0.953517
-3.194914 -1.752418 0.954607
-3.197432 -1.742748 0.956183
-3.192960 -1.733019 0.954854
-3.191252 -1.723334 0.954688
-3.194350 -1.713645 0.956543
-3.183506 -1.704058 0.952579
-3.183368 -1.694422 0.953101
-3.188862 -1.684674 0.955993
-3.191365 -1.674943 0.957646
-3.186443 -1.665404 0.956198
-3.184359 -1.655812 0.955948
-3.178143 -1.646399 0.953972
-3.183141 -1.636547 0.956719
-3.183304 -1.626878 0.957444
-3.176311 -1.617590 0.955167
-3.178125 -1.607844 0.956607
-3.173354 -1.598497 0.955282
-3.172334 -1.588930 0.955548
-3.172235 -1.579298 0.956212
-3.162731 -1.570403 0.952909
-3.153350 -1.561584 0.949662
-3.157411 -1.551652 0.952113
-3.169316 -1.540931 0.957904
-3.165929 -1.531597 0.957225
-3.157443 -1.522819 0.954386
-3.152765 -1.513698 0.953171
-3.157638 -1.503523 0.956028
-3.157475 -1.493888 0.956754
-3.160461 -1.483850 0.958834
-3.164410 -1.473646 0.961338
-3.152402 -1.465532 0.957036
-3.159902 -1.454806 0.961082
-3.140192 -1.447922 0.953491
-3.145317 -1.437509 0.956540
-3.149048 -1.427244 0.959008
-3.146928 -1.417860 0.958977
-3.144668 -1.408505 0.958894
-3.140727 -1.399442 0.958097
-3.135700 -1.390593 0.956841
-3.134583 -1.381073 0.957277
-3.131370 -1.371934 0.956820
-3.119471 -1.364464 0.952615
-3.123846 -1.353915 0.955457
-3.122656 -1.344418 0.955903
-3.113523 -1.336548 0.952913
-3.111964 -1.327154 0.953217
-3.112624 -1.317275 0.954499
-3.112817 -1.307470 0.955591
-3.115724 -1.297026 0.957880
-3.113861 -1.287634 0.958103
-3.107743 -1.279247 0.956477
-3.101719 -1.270876 0.954900
-3.100260 -1.261414 0.955331
-3.090313 -1.254087 0.952050
-3.084744 -1.245709 0.950696
-3.096134 -1.232894 0.956816
-3.087408 -1.225338 0.954097
-3.081686 -1.217022 0.952710
-3.079718 -1.207689 0.952991
-3.075437 -1.199005 0.952262
-3.066720 -1.191625 0.949578
-3.064979 -1.182244 0.949996
-3.065673 -1.172116 0.951512
-3.071867 -1.160260 0.955496
-3.067009 -1.151752 0.954577
-3.063679 -1.142776 0.954351
-3.062836 -1.132997 0.955252
-3.062966 -1.122870 0.956607
-3.055940 -1.115094 0.954769
-3.051289 -1.106551 0.954009
-3.046781 -1.097970 0.953325
-3.049389 -1.086902 0.955864
-3.054307 -1.074940 0.959471
-3.043495 -1.068574 0.955987
-3.035280 -1.061333 0.953684
-3.032906 -1.051958 0.954043
-3.025148 -1.044607 0.951969
-3.011765 -1.039463 0.947339
-3.019246 -1.026274 0.952236
-3.021823 -1.014894 0.954924
-3.020904 -1.004841 0.956035
-3.014524 -0.996978 0.954660
-3.011515 -0.987743 0.954845
-3.003153 -0.980740 0.952580
-2.989712 -0.975948 0.947976
-2.983931 -0.967954 0.946913
-2.985281 -0.956851 0.949168
-2.989232 -0.944523 0.952654
-2.984955 -0.935795 0.952338
-2.977398 -0.928562 0.950504
-2.970104 -0.921243 0.948797
-2.964442 -0.913195 0.947860
-2.958966 -0.905073 0.947017
-2.951318 -0.898009 0.945158
-2.946508 -0.889603 0.944638
-2.945807 -0.879175 0.946066
-2.945430 -0.868541 0.947660
-2.945141 -0.857815 0.949307
-2.939780 -0.849643 0.948551
-2.936060 -0.840638 0.948575
-2.932496 -0.831551 0.948673
-2.928037 -0.822942 0.948340
-2.927119 -0.812440 0.949700
-2.927593 -0.801153 0.951727
-2.914896 -0.797087 0.947403
-2.912625 -0.787337 0.948084
-2.914329 -0.775341 0.950676
-2.903920 -0.770220 0.947382
-2.898189 -0.762512 0.946326
-2.893690 -0.754146 0.945840
-2.894786 -0.742521 0.948055
-2.887086 -0.736137 0.945941
-2.883941 -0.727103 0.946016
-2.884425 -0.715902 0.947834
-2.885004 -0.704651 0.949662
-2.880322 -0.696697 0.948856
-2.884951 -0.682960 0.952596
-2.879710 -0.675488 0.951411
-2.870861 -0.670451 0.948375
-2.865799 -0.663113 0.947150
-2.867478 -0.651469 0.949211
-2.865505 -0.642286 0.949395
-2.869230 -0.629380 0.952352
-2.864695 -0.622086 0.951124
-2.863042 -0.612962 0.951262
-2.856437 -0.607355 0.948849
-2.855597 -0.597914 0.949246
-2.847924 -0.593368 0.946142
-2.853174 -0.579877 0.949444
-2.865370 -0.561472 0.956164
-2.847466 -0.564670 0.947692
-2.838697 -0.561567 0.943727
-2.840978 -0.550603 0.945243
-2.831105 -0.548677 0.940571
-2.820259 -0.547700 0.935334
-2.825573 -0.534877 0.938160
-2.839249 -0.515814 0.945127
-3.319668 -2.634510 0.964942
-3.300511 -2.591743 0.962848
-3.288253 -2.577695 0.959181
-3.276137 -2.563675 0.955497
-3.279744 -2.556041 0.958050
-3.274926 -2.544846 0.957162
-3.277208 -2.536395 0.959065
-3.261102 -2.520551 0.953504
-3.273807 -2.515951 0.959483
-3.249026 -2.496697 0.950285
-3.245943 -2.485807 0.949774
-3.245933 -2.475988 0.950444
-3.259064 -2.470926 0.956372
-3.268449 -2.464267 0.960734
-3.269510 -2.454424 0.961676
-3.282584 -2.448744 0.967433
-3.274555 -2.435469 0.964588
-3.253655 -2.417767 0.956469
-3.251345 -2.406520 0.955841
-3.256069 -2.397585 0.958025
-3.257775 -2.387553 0.958944
-3.225615 -2.366495 0.946071
-3.235375 -2.359077 0.950188
-3.229028 -2.346479 0.947730
-3.254239 -2.343627 0.958066
-3.257061 -2.333713 0.959281
-3.240572 -2.318015 0.952625
-3.239665 -2.307024 0.952281
-3.235642 -2.295141 0.950655
-3.239563 -2.285528 0.952243
-3.241444 -2.275312 0.952990
-3.234676 -2.262742 0.950213
-3.237422 -2.252771 0.951295
-3.237879 -2.242186 0.951443
-3.238976 -2.231773 0.951849
-3.238642 -2.221008 0.951672
-3.220855 -2.206014 0.944406
-3.237936 -2.199533 0.951309
-3.240233 -2.189450 0.952210
-3.230627 -2.176656 0.948280
-3.229863 -2.165952 0.947950
-3.227679 -2.154973 0.947051
-3.236933 -2.146464 0.950808
-3.242392 -2.137100 0.953032
-3.253964 -2.128935 0.957751
-3.262563 -2.120093 0.961274
-3.251202 -2.107378 0.956701
-3.241973 -2.095203 0.953005
-3.242167 -2.084851 0.953152
-3.247000 -2.075336 0.955196
-3.257982 -2.066843 0.959755
-3.256038 -2.056128 0.959074
-3.248128 -2.044504 0.955983
-3.247313 -2.034083 0.955790
-3.252924 -2.024655 0.958224
-3.262572 -2.015776 0.962317
-3.238097 -2.002062 0.952544
-3.217767 -1.989173 0.944467
-3.230986 -1.980850 0.950058
-3.250097 -1.973145 0.958065
-3.251346 -1.963136 0.958816
-3.253500 -1.953235 0.959952
-3.245461 -1.942217 0.956948
-3.234087 -1.930948 0.952598
-3.233145 -1.920842 0.952513
-3.238070 -1.911313 0.954836
-3.238208 -1.901321 0.955221
-3.245096 -1.891909 0.958377
-3.245842 -1.881954 0.959039
-3.250339 -1.872281 0.961249
-3.241636 -1.861659 0.958077
-3.237993 -1.851459 0.956986
-3.247450 -1.842081 0.961268
-3.233870 -1.831365 0.956134
-3.228898 -1.821216 0.954533
-3.235762 -1.811649 0.957796
-3.226780 -1.801394 0.954575
-3.223361 -1.791425 0.953645
-3.227615 -1.781721 0.955878
-3.225787 -1.771829 0.955625
-3.219667 -1.761873 0.953619
-3.225360 -1.752155 0.956482
-3.228865 -1.742360 0.958459
-3.213589 -1.732441 0.952712
-3.223706 -1.722670 0.957437
-3.227346 -1.712832 0.959507
-3.200711 -1.703260 0.949092
-3.212034 -1.693383 0.954355
-3.218384 -1.683490 0.957578
-3.216650 -1.673734 0.957473
-3.207793 -1.664203 0.954428
-3.203693 -1.654591 0.953359
-3.204074 -1.644838 0.954156
-3.200990 -1.635231 0.953527
-3.216224 -1.624741 0.960514
-3.210196 -1.615254 0.958684
-3.197207 -1.606235 0.953964
-3.192777 -1.596786 0.952809
-3.194853 -1.586922 0.954373
-3.201026 -1.576726 0.957657
-3.197050 -1.567265 0.956720
-3.180623 -1.558886 0.950586
-3.196344 -1.547789 0.957897
-3.193582 -1.538269 0.957493
-3.193950 -1.528456 0.958407
-3.192769 -1.518791 0.958683
-3.193679 -1.508898 0.959846
-3.181091 -1.500528 0.955349
-3.179582 -1.490949 0.955511
-3.178021 -1.481380 0.955661
-3.178674 -1.471528 0.956753
-3.194916 -1.459559 0.964433
-3.184462 -1.451137 0.960863
-3.179782 -1.441972 0.959736
-3.183585 -1.431570 0.962206
-3.175319 -1.422982 0.959578
-3.167752 -1.414350 0.957249
-3.166281 -1.404774 0.957512
-3.163500 -1.395418 0.957229
-3.154800 -1.387111 0.954436
-3.153988 -1.377453 0.955007
-3.155115 -1.367426 0.956415
-3.157541 -1.357122 0.958391
-3.164212 -1.345944 0.962196
-3.136125 -1.341653 0.951145
-3.142327 -1.330572 0.954769
-3.148236 -1.319469 0.958286
-3.143432 -1.310599 0.957222
-3.138153 -1.301862 0.955961
-3.138515 -1.291879 0.957137
-3.136095 -1.282514 0.957126
-3.135481 -1.272722 0.957907
-3.128183 -1.264531 0.955812
-3.122715 -1.255939 0.954515
-3.112007 -1.248704 0.950955
-3.117157 -1.237461 0.954279
-3.114536 -1.228184 0.954247
-3.104587 -1.220876 0.951039
-3.098203 -1.212667 0.949388
-3.098237 -1.202705 0.950545
-3.096562 -1.193198 0.950971
-3.093564 -1.184063 0.950833
-3.087526 -1.175826 0.949376
-3.095210 -1.163491 0.953950
-3.091820 -1.154433 0.953684
-3.090560 -1.144713 0.954368
-3.085951 -1.136034 0.953592
-3.086442 -1.125722 0.955081
-3.082947 -1.116677 0.954826
-3.075969 -1.108794 0.953042
-3.069255 -1.100861 0.951384
-3.070062 -1.090366 0.953079
-3.071688 -1.079535 0.955159
-3.069649 -1.069949 0.955627
-3.066396 -1.060782 0.955570
-3.063551 -1.051457 0.955713
-3.054763 -1.044338 0.953207
-3.045823 -1.037329 0.950641
-3.039492 -1.029374 0.949255
-3.043665 -1.017341 0.952614
-3.049175 -1.004682 0.956605
-3.046268 -0.995292 0.956821
-3.035404 -0.989132 0.953447
-3.030847 -0.980437 0.952940
-3.026755 -0.971548 0.952659
-3.011709 -0.967316 0.947399
-3.007375 -0.958586 0.947027
-3.013157 -0.945427 0.951298
-3.014664 -0.934039 0.953641
-3.010411 -0.925167 0.953361
-3.003027 -0.917717 0.951652
-2.990735 -0.912569 0.947684
-2.985135 -0.904382 0.946806
-2.982162 -0.894962 0.947155
-2.983754 -0.883328 0.949635
-2.974181 -0.877053 0.946939
-2.967525 -0.869405 0.945601
-2.968966 -0.857741 0.948049
-2.966575 -0.847943 0.948719
-2.960084 -0.840222 0.947471
-2.953635 -0.832511 0.946240
-2.952220 -0.822191 0.947378
-2.948654 -0.812984 0.947502
-2.944337 -0.804183 0.947267
-2.941768 -0.794442 0.947856
-2.940207 -0.784141 0.948918
-2.932849 -0.777057 0.947208
-2.935821 -0.764209 0.950414
-2.933879 -0.754098 0.951263
-2.919192 -0.751349 0.945976
-2.918554 -0.740571 0.947400
-2.910743 -0.734026 0.945346
-2.907098 -0.725088 0.945265
-2.908608 -0.713084 0.947644
-2.910288 -0.700961 0.950078
-2.907175 -0.691786 0.950149
-2.908775 -0.679730 0.952471
-2.904280 -0.671520 0.951778
-2.898360 -0.664309 0.950335
-2.884187 -0.662528 0.944790
