ply
format ascii 1.0
comment ---
element vertex 1685
property float x
property float y
property float z
element face 0
property list uchar uint vertex_indices
end_header
0.564090 2.172554 -0.012480
0.575443 2.165503 -0.011794
0.588273 2.167044 -0.010933
0.603509 2.181628 -0.009802
0.615820 2.179626 -0.008962
0.629627 2.185423 -0.007950
0.642706 2.187084 -0.006997
0.654906 2.184142 -0.006116
0.665502 2.173387 -0.005379
0.677720 2.170706 -0.004461
0.690948 2.172717 -0.003425
0.705150 2.178939 -0.002277
0.724523 2.207810 -0.000603
0.737106 2.205711 0.000411
0.747176 2.192825 0.001194
0.760468 2.193823 0.002308
0.773938 2.195384 0.003451
0.787188 2.195871 0.004585
0.798402 2.188185 0.005532
0.809725 2.181093 0.006501
0.822615 2.180101 0.007631
0.835576 2.179298 0.008776
0.848362 2.177771 0.009911
0.862099 2.179615 0.011142
0.874148 2.175329 0.012215
0.883915 2.163167 0.013069
0.899960 2.172768 0.014528
0.915043 2.178733 0.015893
0.923263 2.161755 0.016595
0.933499 2.151809 0.017486
0.949068 2.159169 0.018879
0.963298 2.162026 0.020133
0.973747 2.153030 0.021014
0.985054 2.146889 0.021961
0.994839 2.136328 0.022747
1.006902 2.132801 0.023729
1.020167 2.132869 0.024801
1.036351 2.141329 0.026123
1.053628 2.152650 0.027516
1.062099 2.139064 0.028049
1.068894 2.121263 0.028391
1.073040 2.096787 0.028453
1.087848 2.101609 0.029470
1.111038 2.128542 0.031217
1.132009 2.149050 0.032704
1.141533 2.139599 0.033086
1.153693 2.137189 0.033659
1.167799 2.139835 0.034353
1.177739 2.132181 0.034614
1.183175 2.113783 0.034418
1.192945 2.106459 0.034553
1.206331 2.108113 0.034947
1.219068 2.108338 0.035219
1.232965 2.111430 0.035524
1.245932 2.112463 0.035680
1.259374 2.114730 0.035806
1.272066 2.115424 0.035799
1.311679 2.095640 0.034173
-1.372178 2.839111 -0.004100
-1.350240 2.821771 -0.003055
-1.338924 2.828734 -0.001683
-1.322485 2.824288 -0.000604
-1.285518 2.806368 0.001098
-1.279640 2.827676 0.002373
-1.263134 2.824083 0.003086
-1.227683 2.811503 0.004119
-1.205930 2.795363 0.004296
-1.167851 2.776604 0.004632
-1.153352 2.779010 0.004898
-1.134905 2.771373 0.004875
-1.116742 2.764528 0.004782
-1.097232 2.754101 0.004533
-0.999175 2.529827 -0.000073
-0.954677 2.447488 -0.001899
-0.941355 2.450226 -0.002090
-0.918953 2.427453 -0.002850
-0.905145 2.428875 -0.003191
-0.891028 2.429556 -0.003605
-0.870122 2.410290 -0.004458
-0.865611 2.439739 -0.004422
-0.858444 2.462063 -0.004579
-0.839023 2.447248 -0.005486
-0.819052 2.430300 -0.006465
-0.807735 2.440457 -0.006977
-0.792019 2.436710 -0.007778
-0.773338 2.423088 -0.008781
-0.758952 2.423394 -0.009558
-0.746770 2.431201 -0.010229
-0.729994 2.423347 -0.011188
-0.710834 2.406785 -0.012304
-0.698084 2.412567 -0.013056
-0.683119 2.410420 -0.013949
-0.658622 2.372712 -0.015409
-0.649178 2.390495 -0.015992
-0.634677 2.389365 -0.016874
-0.617620 2.378058 -0.017907
-0.606669 2.390675 -0.018583
-0.592343 2.389895 -0.019452
-0.574157 2.372873 -0.020542
-0.560112 2.372652 -0.021384
-0.546953 2.376152 -0.022166
-0.533156 2.376836 -0.022977
-0.515311 2.359054 -0.024013
-0.500828 2.355933 -0.024842
-0.486863 2.354983 -0.025628
-0.474589 2.362059 -0.026301
-0.460072 2.358172 -0.027092
-0.445137 2.351817 -0.027892
-0.429652 2.342123 -0.028709
-0.415632 2.339618 -0.029425
-0.402440 2.341371 -0.030074
-0.388450 2.338563 -0.030754
-0.373610 2.330517 -0.031467
-0.360678 2.333219 -0.032048
-0.349131 2.344406 -0.032527
-0.335202 2.341062 -0.033131
-0.319924 2.328580 -0.033801
-0.306238 2.325820 -0.034354
-0.295772 2.345015 -0.034685
-0.285814 2.368958 -0.034959
-0.277680 2.407881 -0.035089
-0.276437 2.502239 -0.034729
-0.266575 2.534889 -0.034901
-0.254285 2.549821 -0.035210
-0.241345 2.560177 -0.035538
-0.230198 2.587233 -0.035711
-0.216334 2.591118 -0.036054
-0.201051 2.581350 -0.036483
-0.186569 2.578642 -0.036833
-0.174042 2.596401 -0.037003
-0.159723 2.595662 -0.037295
-0.144929 2.589010 -0.037609
-0.130134 2.581393 -0.037907
-0.115086 2.569297 -0.038216
-0.100523 2.562305 -0.038464
-0.085371 2.545250 -0.038763
-0.070422 2.528761 -0.039035
-0.056878 2.534155 -0.039129
-0.044524 2.563076 -0.039035
-0.029788 2.547392 -0.039238
-0.015564 2.540083 -0.039360
-0.000247 2.502527 -0.039674
0.019440 2.326455 -0.040938
0.033920 2.272315 -0.041326
0.046899 2.258338 -0.041415
0.059294 2.266541 -0.041329
0.071948 2.262952 -0.041309
0.084457 2.268933 -0.041202
0.097099 2.263014 -0.041161
0.109683 2.258085 -0.041096
0.122220 2.252963 -0.041014
0.134749 2.253416 -0.040875
0.147261 2.252012 -0.040730
0.159593 2.240104 -0.040646
0.172081 2.241012 -0.040450
0.184144 2.224522 -0.040366
0.197152 2.244960 -0.039987
0.209798 2.249266 -0.039711
0.222006 2.241125 -0.039512
0.234169 2.233549 -0.039292
0.247008 2.241460 -0.038932
0.259752 2.246082 -0.038579
0.271562 2.233415 -0.038348
0.280391 2.173971 -0.038492
0.295123 2.212101 -0.037808
0.308901 2.231668 -0.037255
0.321786 2.236834 -0.036803
0.333541 2.227107 -0.036464
0.345164 2.216753 -0.036115
0.357484 2.215184 -0.035669
0.371353 2.230228 -0.035049
0.382335 2.214278 -0.034701
0.395796 2.223793 -0.034092
0.403545 2.179076 -0.034000
0.429010 2.185507 -0.032818
0.441443 2.185693 -0.032228
0.453041 2.179086 -0.031692
0.465509 2.179498 -0.031062
0.478280 2.181992 -0.030388
0.491209 2.185326 -0.029683
0.503096 2.181088 -0.029046
0.515712 2.181871 -0.028331
0.527920 2.179821 -0.027630
0.540351 2.179163 -0.026892
0.553574 2.183275 -0.026072
0.566539 2.185479 -0.025256
0.578608 2.182222 -0.024490
0.591267 2.182342 -0.023660
0.602400 2.173909 -0.022931
0.613777 2.167081 -0.022163
0.627320 2.171788 -0.021208
0.643049 2.187293 -0.020067
0.656242 2.189285 -0.019104
0.666208 2.175328 -0.018372
0.676633 2.164049 -0.017587
0.688997 2.162164 -0.016636
0.709073 2.195331 -0.015073
0.724124 2.204562 -0.013881
0.737425 2.205633 -0.012807
0.747879 2.194369 -0.011937
0.758374 2.183599 -0.011050
0.776954 2.206286 -0.009522
0.788865 2.201144 -0.008498
0.798761 2.188125 -0.007617
0.809007 2.176825 -0.006699
0.822650 2.178726 -0.005505
0.834157 2.172478 -0.004469
0.847926 2.174622 -0.003247
0.861611 2.176274 -0.002025
0.874399 2.174599 -0.000868
0.887399 2.173615 0.000310
0.902541 2.179875 0.001660
0.919815 2.192993 0.003181
0.930635 2.184293 0.004187
0.933635 2.150403 0.004565
0.940879 2.131085 0.005272
0.954192 2.131397 0.006457
0.970790 2.141814 0.007896
0.982944 2.138320 0.008965
0.999088 2.146869 0.010340
1.014911 2.154184 0.011671
1.024186 2.142181 0.012453
1.037325 2.141611 0.013522
1.052609 2.147129 0.014737
1.068620 2.154532 0.015980
1.072887 2.129420 0.016244
1.082626 2.119881 0.016914
1.093467 2.113592 0.017634
1.115341 2.136681 0.019195
1.130222 2.140991 0.020150
1.141396 2.135716 0.020760
1.153419 2.132819 0.021387
1.172517 2.147854 0.022519
1.184481 2.144935 0.023030
1.180451 2.103022 0.022236
1.200945 2.121595 0.023297
1.211864 2.116964 0.023550
1.220009 2.106022 0.023528
1.231292 2.102817 0.023684
1.250497 2.118159 0.024368
1.263801 2.119840 0.024534
1.270139 2.105902 0.024117
1.275069 2.089288 0.023536
1.286128 2.086780 0.023338
1.308796 2.109960 0.023894
1.316662 2.100749 0.023322
1.326623 2.096419 0.022831
1.341843 2.103564 0.022631
1.357543 2.111791 0.022386
1.384515 2.143603 0.022804
-1.384414 2.826982 -0.019340
-1.378729 2.846107 -0.017737
-1.354203 2.823265 -0.016767
-1.338330 2.820061 -0.015638
-1.295890 2.789432 -0.014012
-1.270403 2.799123 -0.012204
-1.259205 2.808292 -0.011374
-1.224947 2.798888 -0.010412
-1.199280 2.773158 -0.010398
-1.183436 2.771862 -0.010104
-1.169371 2.775325 -0.009826
-1.158777 2.788088 -0.009492
-1.147161 2.798729 -0.009278
-1.128578 2.791411 -0.009429
-1.109194 2.781964 -0.009695
-0.992079 2.506804 -0.014154
-0.967593 2.479629 -0.014825
-0.937947 2.437465 -0.015785
-0.919022 2.424620 -0.016354
-0.908020 2.434288 -0.016639
-0.896746 2.443546 -0.016989
-0.876559 2.426845 -0.017774
-0.857514 2.413154 -0.018558
-0.847997 2.428115 -0.018971
-0.829371 2.415447 -0.019819
-0.814558 2.414389 -0.020539
-0.798328 2.408807 -0.021351
-0.787504 2.420571 -0.021960
-0.779861 2.443188 -0.022460
-0.760842 2.428481 -0.023470
-0.746223 2.428228 -0.024311
-0.729865 2.421911 -0.025242
-0.712031 2.410131 -0.026247
-0.699880 2.418242 -0.027025
-0.681683 2.404520 -0.028061
-0.662597 2.386922 -0.029135
-0.651369 2.398312 -0.029892
-0.637097 2.398313 -0.030773
-0.616258 2.372397 -0.031912
-0.603503 2.377758 -0.032727
-0.592617 2.390854 -0.033465
-0.574847 2.375655 -0.034462
-0.557801 2.362783 -0.035420
-0.544613 2.366006 -0.036222
-0.530218 2.363874 -0.037058
-0.514014 2.353300 -0.037947
-0.499668 2.350729 -0.038754
-0.485264 2.347622 -0.039548
-0.473167 2.355423 -0.040245
-0.459641 2.356338 -0.040978
-0.445470 2.353865 -0.041717
-0.430622 2.347569 -0.042460
-0.417551 2.350313 -0.043126
-0.405471 2.358480 -0.043742
-0.391618 2.356924 -0.044398
-0.378352 2.358519 -0.045015
-0.360439 2.332360 -0.045761
-0.346964 2.331728 -0.046345
-0.333944 2.333763 -0.046896
-0.320696 2.334273 -0.047434
-0.306920 2.331106 -0.047969
-0.295288 2.342415 -0.048419
-0.284473 2.360157 -0.048824
-0.276071 2.396828 -0.049140
-0.273135 2.477851 -0.049274
-0.268190 2.548726 -0.049448
-0.255142 2.557952 -0.049842
-0.242206 2.568689 -0.050210
-0.229925 2.585995 -0.050537
-0.216092 2.590134 -0.050889
-0.200917 2.581391 -0.051259
-0.186762 2.582053 -0.051577
-0.172447 2.580870 -0.051879
-0.157681 2.574314 -0.052173
-0.143565 2.574581 -0.052427
-0.129881 2.580109 -0.052646
-0.114187 2.559360 -0.052912
-0.098015 2.528938 -0.053178
-0.085087 2.543338 -0.053310
-0.074006 2.589788 -0.053345
-0.059852 2.589401 -0.053475
-0.044276 2.561546 -0.053648
-0.030776 2.571695 -0.053712
-0.015405 2.540419 -0.053850
-0.000356 2.509880 -0.053965
0.019634 2.325679 -0.054406
0.034720 2.250837 -0.054580
0.047319 2.248314 -0.054574
0.059668 2.256734 -0.054524
0.071724 2.288320 -0.054404
0.084489 2.282106 -0.054352
0.097265 2.265655 -0.054306
0.109895 2.246714 -0.054249
0.122369 2.235408 -0.054158
0.134857 2.241042 -0.054009
0.147389 2.245984 -0.053843
0.159870 2.244907 -0.053674
0.172275 2.240521 -0.053497
0.184762 2.240923 -0.053290
0.197235 2.240644 -0.053068
0.209800 2.243015 -0.052820
0.222125 2.238569 -0.052574
0.234726 2.241306 -0.052289
0.247385 2.244639 -0.051985
0.259967 2.245799 -0.051668
0.269627 2.195357 -0.051511
0.282461 2.203882 -0.051139
0.296504 2.229433 -0.050683
0.309611 2.238289 -0.050267
0.321473 2.229402 -0.049901
0.333460 2.222991 -0.049508
0.345629 2.219303 -0.049088
0.358147 2.219793 -0.048632
0.369163 2.204056 -0.048232
0.383292 2.221395 -0.047660
0.396577 2.228847 -0.047112
0.410007 2.236880 -0.046539
0.466513 2.185092 -0.043911
0.478368 2.180591 -0.043302
0.490548 2.178587 -0.042660
0.503922 2.184858 -0.041940
0.515392 2.177813 -0.041294
0.527743 2.176801 -0.040586
0.540513 2.178363 -0.039839
0.555357 2.192429 -0.038969
0.567529 2.189634 -0.038212
0.581187 2.195473 -0.037362
0.591891 2.184177 -0.036641
0.603073 2.175961 -0.035878
0.611694 2.154287 -0.035229
0.625346 2.159864 -0.034303
0.642206 2.181406 -0.033189
0.655947 2.186250 -0.032218
0.664844 2.167152 -0.031485
0.676374 2.161304 -0.030596
0.693139 2.179932 -0.029405
0.710786 2.201625 -0.028144
0.723522 2.200381 -0.027132
0.735477 2.195652 -0.026147
0.746480 2.186918 -0.025200
0.762733 2.200361 -0.023939
0.776900 2.204583 -0.022780
0.788317 2.197458 -0.021764
0.797332 2.181005 -0.020876
0.811344 2.184375 -0.019683
0.823992 2.182314 -0.018559
0.835794 2.177058 -0.017475
0.847138 2.170198 -0.016410
0.858860 2.164824 -0.015314
0.871275 2.161974 -0.014170
0.885078 2.163930 -0.012934
0.902295 2.177365 -0.011479
0.917302 2.182842 -0.010157
0.925593 2.165895 -0.009259
0.937747 2.161947 -0.008121
0.943934 2.138994 -0.007371
0.951977 2.122530 -0.006512
0.966371 2.126159 -0.005250
0.985241 2.143258 -0.003704
1.002532 2.155056 -0.002271
1.019313 2.164956 -0.000885
1.028867 2.153491 0.000003
1.036937 2.138079 0.000768
1.053719 2.147739 0.002090
1.071522 2.159977 0.003454
1.080719 2.148219 0.004210
1.082744 2.117354 0.004446
1.100486 2.129407 0.005705
1.117180 2.138416 0.006852
1.127737 2.131255 0.007543
1.140327 2.129572 0.008323
1.157379 2.139340 0.009355
1.165456 2.126450 0.009731
1.176086 2.120301 0.010224
1.192774 2.129230 0.011064
1.206128 2.130007 0.011621
1.219212 2.130251 0.012096
1.226422 2.116764 0.012121
1.238784 2.115756 0.012420
1.255363 2.124660 0.012924
1.266803 2.121805 0.013024
1.272815 2.106929 0.012710
1.277845 2.090356 0.012271
1.309759 2.106601 0.012549
1.317593 2.097174 0.012078
1.327379 2.092320 0.011657
1.348032 2.110832 0.011808
1.358109 2.106958 0.011257
-1.372349 2.824281 -0.031812
-1.324476 2.781316 -0.029932
-1.310847 2.783401 -0.028925
-1.302101 2.797207 -0.027894
-1.284733 2.791313 -0.027153
-1.269614 2.790939 -0.026453
-1.246073 2.770596 -0.026059
-1.234486 2.779155 -0.025456
-1.222144 2.786326 -0.024960
-1.206340 2.785323 -0.024645
-1.203010 2.815967 -0.024073
-1.175797 2.786736 -0.024254
-1.160248 2.787124 -0.024195
-1.149399 2.800024 -0.024083
-1.139288 2.815426 -0.024029
-1.102154 2.759016 -0.024849
-1.013014 2.560105 -0.027295
-0.967470 2.475983 -0.028530
-0.947424 2.460827 -0.029072
-0.918592 2.420538 -0.029935
-0.918064 2.460402 -0.030010
-0.897153 2.442212 -0.030744
-0.875706 2.421995 -0.031540
-0.859036 2.415561 -0.032238
-0.842651 2.409860 -0.032968
-0.826937 2.406098 -0.033714
-0.808038 2.392261 -0.034584
-0.792934 2.390093 -0.035373
-0.781309 2.399116 -0.036093
-0.766774 2.398855 -0.036916
-0.752358 2.398958 -0.037756
-0.737491 2.397500 -0.038625
-0.724630 2.402888 -0.039455
-0.713028 2.412836 -0.040267
-0.703344 2.429949 -0.041044
-0.688347 2.428221 -0.041957
-0.664288 2.392689 -0.043078
-0.651662 2.398992 -0.043934
-0.636293 2.394858 -0.044849
-0.616224 2.371987 -0.045855
-0.601391 2.369085 -0.046742
-0.588949 2.375716 -0.047577
-0.575072 2.376506 -0.048430
-0.557311 2.360667 -0.049340
-0.541054 2.350557 -0.050207
-0.527219 2.350628 -0.051019
-0.515404 2.359725 -0.051789
-0.500846 2.356356 -0.052585
-0.485562 2.349237 -0.053372
-0.473574 2.357642 -0.054102
-0.461672 2.366716 -0.054817
-0.446910 2.361511 -0.055545
-0.431393 2.351947 -0.056259
-0.417638 2.351160 -0.056936
-0.406078 2.362231 -0.057580
-0.395572 2.379673 -0.058204
-0.375439 2.342120 -0.058853
-0.361347 2.338284 -0.059449
-0.347337 2.334556 -0.060023
-0.333985 2.334594 -0.060575
-0.321365 2.339230 -0.061107
-0.307266 2.334070 -0.061617
-0.294621 2.338479 -0.062109
-0.283109 2.351124 -0.062587
-0.276961 2.404197 -0.063080
-0.271430 2.465623 -0.063577
-0.267402 2.543373 -0.064087
-0.259095 2.591566 -0.064561
-0.245574 2.598647 -0.064971
-0.230722 2.594223 -0.065343
-0.216154 2.591891 -0.065695
-0.201349 2.586858 -0.066021
-0.186681 2.582559 -0.066325
-0.171878 2.576213 -0.066602
-0.157252 2.571021 -0.066860
-0.142245 2.560553 -0.067085
-0.125785 2.530450 -0.067245
-0.110567 2.513027 -0.067408
-0.085818 2.556700 -0.067849
-0.072146 2.561982 -0.068003
-0.059791 2.591129 -0.068194
-0.044724 2.573221 -0.068254
-0.030925 2.578293 -0.068348
-0.015774 2.552866 -0.068347
-0.000380 2.514916 -0.068294
0.021257 2.282660 -0.067737
0.034626 2.259542 -0.067682
0.047521 2.246841 -0.067635
0.059543 2.271219 -0.067663
0.071721 2.299597 -0.067682
0.084449 2.301653 -0.067618
0.097438 2.266982 -0.067449
0.110092 2.240622 -0.067284
0.122552 2.233641 -0.067149
0.135105 2.249051 -0.067048
0.147508 2.239297 -0.066873
0.160020 2.241776 -0.066708
0.172805 2.256358 -0.066551
0.185511 2.262428 -0.066357
0.197436 2.240280 -0.066091
0.209796 2.236622 -0.065845
0.222307 2.237592 -0.065591
0.234531 2.231653 -0.065308
0.247103 2.233985 -0.065022
0.259452 2.231576 -0.064711
0.271449 2.223253 -0.064376
0.283866 2.222872 -0.064034
0.298012 2.248568 -0.063702
0.310162 2.242608 -0.063317
0.320398 2.211817 -0.062896
0.332633 2.209469 -0.062485
0.345347 2.212936 -0.062059
0.356451 2.197832 -0.061608
0.369065 2.200217 -0.061146
0.382189 2.207459 -0.060665
0.395504 2.215783 -0.060163
0.410060 2.234818 -0.059634
0.422323 2.231699 -0.059093
0.464707 2.169079 -0.056825
0.478459 2.179155 -0.056183
0.490680 2.177479 -0.055540
0.503010 2.176525 -0.054877
0.515296 2.175208 -0.054195
0.527624 2.174107 -0.053494
0.541909 2.185304 -0.052736
0.554955 2.188116 -0.051980
0.567217 2.185959 -0.051220
0.578207 2.176412 -0.050468
0.592480 2.185765 -0.049624
0.604594 2.182622 -0.048809
0.614643 2.168437 -0.048029
0.628395 2.174166 -0.047135
0.642907 2.183358 -0.046198
0.656046 2.185140 -0.045278
0.666725 2.174731 -0.044410
0.678150 2.168203 -0.043504
0.695076 2.187394 -0.042407
0.711808 2.204729 -0.041290
0.722928 2.196213 -0.040335
0.734274 2.188902 -0.039358
0.747134 2.188208 -0.038312
0.762959 2.199804 -0.037140
0.776682 2.202190 -0.036025
0.787995 2.194664 -0.034985
0.799875 2.189529 -0.033910
0.812775 2.188406 -0.032782
0.825659 2.187128 -0.031640
0.836465 2.178037 -0.030574
0.846755 2.167265 -0.029521
0.857430 2.158138 -0.028445
0.870597 2.158007 -0.027254
0.884660 2.160877 -0.026014
0.897241 2.158491 -0.024834
0.908914 2.153042 -0.023693
0.923876 2.158512 -0.022395
0.939583 2.166134 -0.021057
0.952737 2.165278 -0.019841
0.958537 2.141279 -0.018994
0.969689 2.134500 -0.017893
0.988908 2.152423 -0.016392
1.004796 2.159760 -0.015066
1.017476 2.157357 -0.013917
1.029285 2.152454 -0.012831
1.038783 2.141040 -0.011888
1.056722 2.153787 -0.010519
1.068272 2.148368 -0.009516
1.081571 2.147905 -0.008447
1.091768 2.139066 -0.007580
1.107345 2.144866 -0.006454
1.118299 2.138361 -0.005620
1.127587 2.127733 -0.004920
1.135923 2.114999 -0.004319
1.150274 2.117910 -0.003433
1.165015 2.121806 -0.002576
1.174949 2.113810 -0.002039
1.192389 2.124447 -0.001143
1.208182 2.130969 -0.000398
1.218234 2.123772 -0.000032
1.233263 2.128605 0.000544
1.243658 2.122678 0.000800
1.254762 2.118670 0.001027
1.269798 2.123873 0.001397
1.281593 2.121827 0.001520
1.294242 2.121908 0.001617
1.306500 2.121309 0.001620
1.317716 2.118640 0.001494
1.314658 2.085374 0.000565
1.323677 2.078811 0.000192
1.339853 2.087738 0.000106
1.350562 2.085230 -0.000329
1.355818 2.071646 -0.001097
-1.387761 2.819185 -0.046959
-1.375849 2.824742 -0.045730
-1.348313 2.795508 -0.044760
-1.320463 2.765285 -0.043908
-1.309235 2.772988 -0.042962
-1.303270 2.793386 -0.042035
-1.320568 2.869163 -0.040867
-1.273377 2.793760 -0.040689
-1.259012 2.795791 -0.040148
-1.242561 2.793090 -0.039732
-1.235927 2.814713 -0.039254
-1.237046 2.856372 -0.038735
-1.215363 2.841957 -0.038674
-1.189456 2.816697 -0.038778
-1.165890 2.797085 -0.038934
-1.148950 2.794487 -0.039061
-1.127761 2.780808 -0.039342
-1.110896 2.778540 -0.039628
-0.962000 2.457803 -0.042384
-0.959500 2.491538 -0.042619
-0.939740 2.477573 -0.043204
-0.909522 2.433350 -0.044011
-0.891660 2.423864 -0.044660
-0.877116 2.423957 -0.045300
-0.861234 2.420114 -0.046002
-0.845706 2.417277 -0.046737
-0.829337 2.411790 -0.047516
-0.810961 2.399860 -0.048351
-0.794027 2.392147 -0.049190
-0.779107 2.390694 -0.050024
-0.767286 2.399364 -0.050843
-0.750836 2.392814 -0.051731
-0.732747 2.380428 -0.052646
-0.720602 2.388114 -0.053513
-0.714552 2.417458 -0.054344
-0.699746 2.416406 -0.055256
-0.681315 2.402013 -0.056191
-0.663929 2.390876 -0.057113
-0.648864 2.388006 -0.058017
-0.634911 2.389201 -0.058913
-0.616374 2.372315 -0.059810
-0.602493 2.373302 -0.060687
-0.590525 2.382016 -0.061558
-0.574471 2.373915 -0.062413
-0.557347 2.360784 -0.063247
-0.539859 2.345372 -0.064057
-0.526930 2.349397 -0.064872
-0.515022 2.358090 -0.065681
-0.502075 2.362192 -0.066470
-0.485729 2.350204 -0.067208
-0.473177 2.355922 -0.067965
-0.463418 2.375642 -0.068747
-0.448420 2.369477 -0.069441
-0.432610 2.358601 -0.070098
-0.417082 2.348518 -0.070732
-0.403935 2.350819 -0.071388
-0.389665 2.346751 -0.071999
-0.376133 2.346563 -0.072605
-0.361041 2.336907 -0.073148
-0.347993 2.339054 -0.073721
-0.334669 2.339415 -0.074266
-0.321855 2.342955 -0.074806
-0.308288 2.341499 -0.075300
-0.295000 2.341707 -0.075783
-0.286703 2.377502 -0.076438
-0.278706 2.417820 -0.077108
-0.271215 2.464725 -0.077807
-0.265666 2.530379 -0.078609
-0.258869 2.590589 -0.079374
-0.245874 2.602171 -0.079834
-0.232637 2.612361 -0.080267
-0.218157 2.611656 -0.080611
-0.202026 2.594603 -0.080827
-0.186518 2.582126 -0.081048
-0.171303 2.571372 -0.081257
-0.155858 2.556734 -0.081417
-0.140637 2.542977 -0.081560
-0.097520 2.525941 -0.082025
-0.085072 2.547544 -0.082332
-0.071946 2.561109 -0.082563
-0.058126 2.564436 -0.082702
-0.044960 2.580709 -0.082914
-0.030431 2.571261 -0.082924
-0.015731 2.555634 -0.082868
-0.000640 2.525946 -0.082690
0.022217 2.258896 -0.080777
0.034414 2.272154 -0.080872
0.047262 2.263804 -0.080793
0.059742 2.269638 -0.080800
0.072099 2.286553 -0.080869
0.084735 2.291921 -0.080837
0.097678 2.257767 -0.080506
0.110258 2.248399 -0.080336
0.122768 2.245641 -0.080197
0.135290 2.248160 -0.080078
0.147684 2.237699 -0.079852
0.160190 2.239944 -0.079697
0.172854 2.248803 -0.079571
0.185658 2.259962 -0.079443
0.197707 2.242262 -0.079104
0.210011 2.236586 -0.078829
0.222220 2.229680 -0.078531
0.234477 2.225234 -0.078234
0.246693 2.220667 -0.077919
0.259234 2.222982 -0.077631
0.271933 2.227590 -0.077339
0.284978 2.237000 -0.077058
0.297188 2.232395 -0.076675
0.309369 2.227861 -0.076277
0.320942 2.215687 -0.075821
0.330761 2.182858 -0.075240
0.344275 2.197174 -0.074897
0.357411 2.205665 -0.074503
0.369234 2.199183 -0.074015
0.382344 2.206278 -0.073575
0.394838 2.206640 -0.073084
0.406713 2.201073 -0.072550
0.420423 2.212214 -0.072068
0.433879 2.220173 -0.071551
0.444461 2.203713 -0.070920
0.466387 2.179732 -0.069653
0.478653 2.178426 -0.069032
0.490934 2.177177 -0.068392
0.503008 2.174448 -0.067730
0.514962 2.170948 -0.067048
0.527833 2.173497 -0.066361
0.541720 2.182169 -0.065664
0.555354 2.188656 -0.064938
0.566515 2.179914 -0.064170
0.580197 2.186125 -0.063401
0.593657 2.190612 -0.062607
0.605969 2.188421 -0.061788
0.617181 2.180309 -0.060948
0.630934 2.185736 -0.060090
0.642825 2.181265 -0.059214
0.655977 2.183146 -0.058314
0.666235 2.170728 -0.057410
0.679224 2.171707 -0.056473
0.695069 2.185777 -0.055489
0.711091 2.199891 -0.054474
0.723595 2.197618 -0.053474
0.735069 2.190820 -0.052468
0.749226 2.195597 -0.051409
0.761618 2.192671 -0.050356
0.775148 2.194382 -0.049266
0.786427 2.186852 -0.048200
0.798562 2.182847 -0.047105
0.811497 2.181947 -0.045978
0.823833 2.178684 -0.044850
0.835959 2.174626 -0.043715
0.848213 2.171056 -0.042565
0.860154 2.166370 -0.041412
0.873668 2.167269 -0.040209
0.886144 2.164428 -0.039024
0.895993 2.152622 -0.037909
0.907501 2.146658 -0.036744
0.923257 2.154783 -0.035444
0.939312 2.163519 -0.034126
0.952783 2.163639 -0.032887
0.965560 2.161496 -0.031673
0.974240 2.146684 -0.030606
0.989817 2.153234 -0.029305
1.002903 2.152060 -0.028100
1.016874 2.153479 -0.026872
1.029907 2.152083 -0.025693
1.046302 2.160322 -0.024399
1.052260 2.138828 -0.023536
1.070565 2.152294 -0.022206
1.084450 2.153248 -0.021078
1.103619 2.168478 -0.019758
1.112350 2.155446 -0.018904
1.120578 2.141463 -0.018112
1.121770 2.109600 -0.017665
1.142100 2.127715 -0.016443
1.157703 2.133456 -0.015467
1.157869 2.100522 -0.015214
1.172061 2.103134 -0.014402
1.193645 2.123806 -0.013319
1.207821 2.126233 -0.012620
1.217857 2.118865 -0.012164
1.230507 2.117952 -0.011656
1.239564 2.108840 -0.011372
1.251178 2.105967 -0.011042
1.266555 2.111870 -0.010618
1.283686 2.121757 -0.010190
1.301247 2.132562 -0.009820
1.308779 2.121243 -0.009955
1.317916 2.113844 -0.010093
1.321521 2.094864 -0.010535
1.323843 2.073725 -0.011096
1.351793 2.082077 -0.011478
-1.429152 2.839658 -0.063459
-1.418874 2.848472 -0.062141
-1.395031 2.860266 -0.059766
-1.351603 2.795956 -0.058760
-1.334095 2.789559 -0.057835
-1.321768 2.795234 -0.056996
-1.305375 2.791904 -0.056263
-1.292052 2.796007 -0.055617
-1.293087 2.834529 -0.055006
-1.268530 2.812865 -0.054594
-1.255540 2.819034 -0.054228
-1.245923 2.833890 -0.053939
-1.228110 2.829034 -0.053782
-1.210619 2.825127 -0.053717
-1.188455 2.809496 -0.053766
-1.170056 2.803394 -0.053881
-1.150800 2.795124 -0.054085
-1.124917 2.769360 -0.054402
-1.113998 2.783112 -0.054718
-0.964530 2.461774 -0.056125
-0.952455 2.469105 -0.056612
-0.929882 2.447119 -0.057193
-0.904964 2.417887 -0.057824
-0.889416 2.415110 -0.058469
-0.878046 2.424629 -0.059149
-0.860718 2.416659 -0.059878
-0.844957 2.413240 -0.060639
-0.828947 2.408973 -0.061429
-0.810023 2.395450 -0.062240
-0.793047 2.387692 -0.063072
-0.779322 2.390176 -0.063931
-0.775787 2.426212 -0.064855
-0.764906 2.438853 -0.065776
-0.737492 2.395676 -0.066604
-0.722829 2.395032 -0.067511
-0.710188 2.401405 -0.068441
-0.694317 2.396352 -0.069345
-0.677010 2.385788 -0.070227
-0.663914 2.390372 -0.071155
-0.652224 2.400333 -0.072102
-0.630384 2.371437 -0.072886
-0.615538 2.368778 -0.073763
-0.603004 2.375150 -0.074671
-0.589910 2.379358 -0.075562
-0.574805 2.375209 -0.076398
-0.557938 2.363250 -0.077172
-0.543117 2.359528 -0.077975
-0.528117 2.354701 -0.078753
-0.514223 2.354529 -0.079543
-0.499024 2.348139 -0.080272
-0.485288 2.348244 -0.081027
-0.472088 2.350799 -0.081781
-0.460060 2.359137 -0.082562
-0.447976 2.367439 -0.083326
-0.433594 2.363990 -0.083981
-0.416865 2.347630 -0.084506
-0.401952 2.340230 -0.085080
-0.388210 2.338871 -0.085683
-0.376203 2.347323 -0.086353
-0.362772 2.347604 -0.086931
-0.348684 2.343699 -0.087449
-0.335949 2.347935 -0.088022
-0.322429 2.347160 -0.088528
-0.308615 2.344188 -0.088991
-0.296497 2.352606 -0.089546
-0.287389 2.382985 -0.090309
-0.280597 2.432440 -0.091257
-0.275999 2.502103 -0.092412
-0.267848 2.548469 -0.093316
-0.256887 2.575004 -0.093997
-0.245811 2.602475 -0.094674
-0.231229 2.600681 -0.095013
-0.218015 2.611312 -0.095468
-0.203657 2.611566 -0.095787
-0.187787 2.596218 -0.095909
-0.169662 2.555000 -0.095711
-0.155009 2.548478 -0.095885
-0.084764 2.544897 -0.096781
-0.072132 2.566408 -0.097163
-0.059048 2.583247 -0.097473
-0.044069 2.566447 -0.097364
-0.030154 2.568631 -0.097460
-0.016618 2.579922 -0.097647
-0.000961 2.538454 -0.097184
0.022478 2.255601 -0.093814
0.034672 2.268615 -0.093966
0.047136 2.275312 -0.094024
0.060101 2.259949 -0.093803
0.072530 2.269736 -0.093864
0.085163 2.268902 -0.093783
0.097803 2.265519 -0.093655
0.110452 2.241116 -0.093261
0.122906 2.227666 -0.092983
0.135421 2.239935 -0.092991
0.147823 2.233011 -0.092757
0.160227 2.229977 -0.092553
0.172755 2.234246 -0.092418
0.185142 2.231304 -0.092183
0.197570 2.230526 -0.091957
0.210289 2.238332 -0.091811
0.222626 2.234409 -0.091516
0.234964 2.231226 -0.091214
0.247242 2.227303 -0.090887
0.259469 2.222983 -0.090541
0.272101 2.226317 -0.090262
0.284291 2.221903 -0.089882
0.297485 2.233109 -0.089651
0.308658 2.214259 -0.089088
0.320050 2.200469 -0.088565
0.333038 2.208081 -0.088245
0.346666 2.222317 -0.087972
0.358093 2.210305 -0.087420
0.370276 2.207395 -0.086942
0.382479 2.204849 -0.086451
0.394458 2.200222 -0.085923
0.406607 2.197453 -0.085397
0.418858 2.195700 -0.084862
0.432872 2.209051 -0.084442
0.445141 2.206886 -0.083866
0.457564 2.205979 -0.083283
0.469226 2.199181 -0.082634
0.481299 2.195752 -0.081995
0.491123 2.176354 -0.081217
0.503954 2.178865 -0.080591
0.515794 2.174451 -0.079896
0.527730 2.170797 -0.079188
0.541491 2.178729 -0.078540
0.554463 2.181242 -0.077833
0.566776 2.179554 -0.077079
0.580655 2.186894 -0.076358
0.593608 2.188484 -0.075581
0.606210 2.187927 -0.074772
0.617652 2.181050 -0.073912
0.630473 2.181574 -0.073069
0.642397 2.177361 -0.072186
0.653424 2.168751 -0.071267
0.666473 2.170221 -0.070370
0.680780 2.177456 -0.069470
0.695475 2.186031 -0.068548
0.712209 2.203352 -0.067621
0.725893 2.206233 -0.066631
0.738526 2.204281 -0.065609
0.747456 2.186483 -0.064546
0.761589 2.190988 -0.063500
0.774202 2.188956 -0.062427
0.787600 2.190016 -0.061337
0.796103 2.171635 -0.060232
0.809636 2.173230 -0.059112
0.822788 2.173188 -0.057975
0.834590 2.167994 -0.056829
0.848784 2.171597 -0.055656
0.862861 2.174524 -0.054466
0.876664 2.176258 -0.053263
0.888123 2.169692 -0.052073
0.899362 2.162484 -0.050881
0.913275 2.164355 -0.049648
0.925129 2.159276 -0.048437
0.937823 2.156981 -0.047210
0.951821 2.158818 -0.045958
0.963652 2.153708 -0.044744
0.976337 2.151312 -0.043517
0.989616 2.150714 -0.042281
1.002962 2.150265 -0.041050
1.017666 2.153771 -0.039795
1.033028 2.159031 -0.038532
1.046403 2.158406 -0.037330
1.058326 2.153666 -0.036183
1.074341 2.160415 -0.034947
1.090682 2.167854 -0.033722
1.103270 2.164934 -0.032626
1.116870 2.164799 -0.031532
1.114864 2.123625 -0.030939
1.123928 2.112313 -0.030063
1.143586 2.128486 -0.028903
1.155180 2.123897 -0.028035
1.163176 2.110506 -0.027330
1.176895 2.111642 -0.026495
1.192527 2.117497 -0.025650
1.206549 2.119439 -0.024913
1.218326 2.116107 -0.024310
1.226985 2.105652 -0.023873
1.239582 2.104719 -0.023371
1.253575 2.107158 -0.022889
1.268872 2.112654 -0.022433
1.281571 2.112358 -0.022136
1.296102 2.116312 -0.021851
1.311498 2.122261 -0.021613
1.319727 2.112688 -0.021685
1.330146 2.108218 -0.021761
1.338888 2.100467 -0.021965
1.347878 2.093596 -0.022236
1.353147 2.079296 -0.022696
-1.429583 2.802493 -0.078611
-1.439727 2.854887 -0.077545
-1.436177 2.878736 -0.076401
-1.417871 2.870889 -0.075199
-1.405116 2.875560 -0.074148
-1.379783 2.852414 -0.073091
-1.352343 2.824344 -0.072128
-1.346449 2.845376 -0.071432
-1.327229 2.836312 -0.070736
-1.289585 2.784241 -0.070022
-1.294996 2.833196 -0.069690
-1.278964 2.832237 -0.069316
-1.248964 2.797738 -0.068956
-1.228171 2.785251 -0.068747
-1.209810 2.778756 -0.068646
-1.195851 2.783385 -0.068662
-1.181152 2.786490 -0.068761
-1.165828 2.788291 -0.068942
-1.149909 2.788799 -0.069202
-1.132433 2.785409 -0.069531
-1.104817 2.755030 -0.069858
-0.967727 2.467703 -0.069991
-0.938646 2.428033 -0.070414
-0.921440 2.420837 -0.070987
-0.900972 2.404191 -0.071570
-0.894794 2.428607 -0.072352
-0.880914 2.431117 -0.073094
-0.864835 2.427162 -0.073845
-0.844911 2.411443 -0.074571
-0.820561 2.381604 -0.075246
-0.802269 2.369792 -0.076024
-0.789834 2.376215 -0.076918
-0.778411 2.386091 -0.077854
-0.775218 2.423297 -0.078981
-0.763908 2.434574 -0.079973
-0.745179 2.420964 -0.080810
-0.726393 2.406609 -0.081638
-0.710256 2.400984 -0.082526
-0.694192 2.395327 -0.083410
-0.677319 2.386415 -0.084262
-0.665555 2.396028 -0.085261
-0.649940 2.391324 -0.086134
-0.630601 2.371965 -0.086864
-0.617443 2.376007 -0.087792
-0.603421 2.376617 -0.088677
-0.588259 2.372454 -0.089503
-0.572751 2.366533 -0.090295
-0.559869 2.371392 -0.091183
-0.546432 2.373900 -0.092032
-0.532784 2.375425 -0.092855
-0.513687 2.352127 -0.093379
-0.498588 2.346178 -0.094074
-0.485777 2.350654 -0.094873
-0.472647 2.353631 -0.095636
-0.458229 2.350176 -0.096301
-0.447033 2.362804 -0.097149
-0.433640 2.364426 -0.097841
-0.418368 2.355895 -0.098379
-0.401589 2.338472 -0.098775
-0.388157 2.338831 -0.099383
-0.376580 2.349798 -0.100117
-0.363169 2.350281 -0.100689
-0.349174 2.347042 -0.101187
-0.335309 2.344256 -0.101669
-0.322189 2.345984 -0.102195
-0.309413 2.349959 -0.102735
-0.296815 2.355261 -0.103274
-0.286015 2.373628 -0.103991
-0.276952 2.405966 -0.104904
-0.278026 2.518243 -0.107029
-0.268165 2.551630 -0.107946
-0.256906 2.575850 -0.108707
-0.244156 2.589007 -0.109280
-0.230364 2.593747 -0.109701
-0.214711 2.581347 -0.109830
-0.204441 2.620164 -0.110754
-0.174250 2.605287 -0.111065
-0.136522 2.496761 -0.109761
-0.095824 2.505388 -0.110433
-0.084207 2.538349 -0.111117
-0.073936 2.598061 -0.112228
-0.059677 2.596776 -0.112311
-0.044817 2.583539 -0.112176
-0.029621 2.560486 -0.111858
-0.015626 2.560329 -0.111902
-0.000011 2.517694 -0.111218
0.022731 2.252389 -0.106801
0.035204 2.255532 -0.106845
0.047619 2.261997 -0.106929
0.060190 2.263441 -0.106912
0.072832 2.260913 -0.106813
0.085368 2.265699 -0.106820
0.098033 2.256981 -0.106586
0.110636 2.238208 -0.106170
0.123121 2.239954 -0.106078
0.135553 2.232234 -0.105814
0.147976 2.229643 -0.105619
0.160309 2.222898 -0.105341
0.172057 2.191003 -0.104639
0.184699 2.205654 -0.104680
0.197475 2.220241 -0.104701
0.210215 2.229864 -0.104624
0.222736 2.231524 -0.104403
0.235299 2.233698 -0.104174
0.248102 2.240323 -0.103998
0.260155 2.231487 -0.103563
0.271931 2.219111 -0.103059
0.285175 2.232200 -0.102933
0.298098 2.238538 -0.102685
0.310100 2.230959 -0.102208
0.321094 2.210854 -0.101528
0.333407 2.209386 -0.101114
0.346957 2.222558 -0.100899
0.359296 2.220706 -0.100444
0.370833 2.210365 -0.099851
0.382593 2.203135 -0.099288
0.394833 2.201088 -0.098783
0.406790 2.196469 -0.098226
0.419115 2.195371 -0.097701
0.432336 2.201905 -0.097261
0.444118 2.195981 -0.096636
0.456474 2.194906 -0.096058
0.469059 2.195542 -0.095484
0.481565 2.195410 -0.094881
0.493618 2.191934 -0.094219
0.505040 2.184178 -0.093487
0.517080 2.180923 -0.092794
0.529580 2.180718 -0.092118
0.541356 2.175822 -0.091370
0.553837 2.175393 -0.090655
0.566623 2.176669 -0.089939
0.580362 2.183256 -0.089258
0.593939 2.188440 -0.088539
0.606171 2.185842 -0.087719
0.617874 2.180404 -0.086853
0.629398 2.174159 -0.085962
0.638632 2.156423 -0.084950
0.652184 2.160845 -0.084124
0.666316 2.167739 -0.083294
0.681003 2.176817 -0.082457
0.696690 2.189987 -0.081625
0.712856 2.204620 -0.080773
0.726865 2.208898 -0.079818
0.736707 2.194737 -0.078717
0.747717 2.185987 -0.077639
0.759112 2.179059 -0.076559
0.774417 2.188254 -0.075553
0.786669 2.184706 -0.074456
0.799446 2.183220 -0.073352
0.809126 2.169704 -0.072179
0.822140 2.169179 -0.071050
0.834468 2.165988 -0.069895
0.848555 2.169198 -0.068745
0.864439 2.178608 -0.067592
0.876792 2.175122 -0.066390
0.888493 2.169375 -0.065173
0.901263 2.167336 -0.063953
0.916875 2.174759 -0.062731
0.931830 2.179658 -0.061492
0.940132 2.162758 -0.060245
0.953043 2.160975 -0.058997
0.965466 2.157620 -0.057748
0.972887 2.138850 -0.056525
0.989539 2.148609 -0.055260
1.002558 2.147128 -0.054018
1.018246 2.153484 -0.052757
1.033130 2.157259 -0.051508
1.048293 2.161666 -0.050263
1.060676 2.158067 -0.049063
1.074232 2.157793 -0.047867
1.084874 2.149524 -0.046733
1.099585 2.152463 -0.045566
1.110559 2.145361 -0.044486
1.119290 2.132564 -0.043479
1.129895 2.124991 -0.042481
1.141991 2.121466 -0.041496
1.154752 2.119759 -0.040542
1.167247 2.117486 -0.039638
1.180857 2.118087 -0.038761
1.194913 2.119842 -0.037925
1.207772 2.118771 -0.037170
1.219100 2.114196 -0.036507
1.236136 2.123238 -0.035779
1.245838 2.115192 -0.035278
1.262080 2.122462 -0.034697
1.276725 2.126101 -0.034221
1.282189 2.109236 -0.034027
1.296126 2.111695 -0.033711
1.309364 2.112744 -0.033487
1.322960 2.114734 -0.033331
1.333914 2.111200 -0.033312
1.346190 2.110747 -0.033341
1.352193 2.097302 -0.033587
1.365834 2.100250 -0.033741
-1.434245 2.775097 -0.093587
-1.426311 2.787955 -0.092374
-1.429999 2.826419 -0.091478
-1.418840 2.833640 -0.090371
-1.420129 2.868669 -0.089593
-1.394542 2.845104 -0.088407
-1.376474 2.838242 -0.087466
-1.369657 2.857024 -0.086825
-1.355584 2.859925 -0.086156
-1.289396 2.777992 -0.084481
-1.279358 2.827724 -0.084159
-1.229539 2.783658 -0.083558
-1.213271 2.782610 -0.083541
-1.188310 2.760019 -0.083464
-1.174865 2.766285 -0.083672
-1.162018 2.774458 -0.083977
-1.151063 2.787958 -0.084401
-1.132963 2.783184 -0.084772
-1.112236 2.771445 -0.085161
-1.071891 2.706499 -0.085210
-0.954197 2.427911 -0.083635
-0.931726 2.406301 -0.084059
-0.918237 2.409487 -0.084727
-0.909244 2.425690 -0.085551
-0.899328 2.439748 -0.086406
-0.882656 2.434381 -0.087132
-0.864533 2.424547 -0.087847
-0.844845 2.409674 -0.088538
-0.827596 2.401855 -0.089315
-0.810768 2.395091 -0.090121
-0.795340 2.392539 -0.090984
-0.772202 2.412398 -0.093024
-0.757488 2.412235 -0.093954
-0.742076 2.409622 -0.094860
-0.728468 2.413070 -0.095842
-0.712571 2.408495 -0.096726
-0.694933 2.397419 -0.097524
-0.679200 2.392779 -0.098394
-0.663829 2.389193 -0.099270
-0.649501 2.389293 -0.100185
-0.633137 2.381423 -0.100980
-0.619233 2.382775 -0.101891
-0.605208 2.383554 -0.102781
-0.588082 2.371550 -0.103469
-0.573963 2.371445 -0.104315
-0.560160 2.372531 -0.105164
-0.546575 2.374451 -0.106009
-0.534729 2.384021 -0.106960
-0.517826 2.370900 -0.107530
-0.500621 2.355625 -0.108039
-0.487966 2.361085 -0.108868
-0.475679 2.368424 -0.109713
-0.463996 2.378945 -0.110596
-0.446622 2.360824 -0.110962
-0.432075 2.356383 -0.111542
-0.416369 2.345346 -0.111982
-0.401451 2.337885 -0.112460
-0.388326 2.339982 -0.113091
-0.376520 2.349663 -0.113842
-0.362666 2.347518 -0.114355
-0.346924 2.333498 -0.114620
-0.334487 2.339351 -0.115241
-0.321472 2.341623 -0.115773
-0.308412 2.343574 -0.116280
-0.296450 2.353096 -0.116915
-0.285028 2.366953 -0.117619
-0.274372 2.387275 -0.118435
-0.279283 2.528381 -0.121660
-0.266506 2.538965 -0.122265
-0.253951 2.552014 -0.122902
-0.243009 2.579791 -0.123822
-0.230550 2.596112 -0.124492
-0.206352 2.639650 -0.126005
-0.190940 2.630371 -0.126090
-0.175660 2.621417 -0.126160
-0.160842 2.616548 -0.126293
-0.136295 2.495229 -0.123954
-0.118583 2.445728 -0.123097
-0.102688 2.414251 -0.122596
-0.096004 2.509540 -0.124764
-0.083909 2.535604 -0.125450
-0.070832 2.549327 -0.125857
-0.060300 2.610082 -0.127250
-0.044254 2.575290 -0.126586
-0.029353 2.557764 -0.126271
-0.014300 2.532751 -0.125778
0.000857 2.498877 -0.125076
0.022633 2.259445 -0.119957
0.035710 2.243136 -0.119597
0.048344 2.238627 -0.119473
0.060509 2.255294 -0.119786
0.072912 2.266133 -0.119959
0.085533 2.265791 -0.119876
0.098218 2.254702 -0.119549
0.110772 2.259542 -0.119545
0.123346 2.256357 -0.119356
0.135832 2.244926 -0.118976
0.148048 2.219508 -0.118287
0.160035 2.194170 -0.117587
0.172459 2.200678 -0.117543
0.185077 2.212400 -0.117592
0.197783 2.223410 -0.117609
0.210186 2.222694 -0.117365
0.222627 2.222993 -0.117127
0.235301 2.228472 -0.116980
0.248636 2.246501 -0.117072
0.261207 2.246857 -0.116785
0.272170 2.219012 -0.115912
0.285675 2.236207 -0.115935
0.299033 2.248723 -0.115845
0.310426 2.231862 -0.115151
0.322816 2.230108 -0.114744
0.334407 2.218488 -0.114128
0.346446 2.213276 -0.113623
0.358640 2.210226 -0.113144
0.370798 2.206973 -0.112647
0.382829 2.202602 -0.112112
0.395364 2.203394 -0.111659
0.407351 2.198921 -0.111090
0.419325 2.194566 -0.110508
0.431347 2.190842 -0.109921
0.444581 2.197244 -0.109501
0.456844 2.195357 -0.108913
0.468658 2.190052 -0.108247
0.481318 2.191223 -0.107678
0.494051 2.192705 -0.107096
0.504861 2.180689 -0.106266
0.517144 2.179145 -0.105597
0.529674 2.179165 -0.104936
0.542096 2.178372 -0.104243
0.553970 2.174138 -0.103476
0.566905 2.176311 -0.102793
0.581750 2.189280 -0.102254
0.594083 2.187284 -0.101463
0.605544 2.180470 -0.100581
0.617756 2.177878 -0.099744
0.630159 2.176270 -0.098902
0.639408 2.158554 -0.097818
0.651849 2.157394 -0.096949
0.666773 2.168192 -0.096218
0.681341 2.176670 -0.095430
0.697135 2.190321 -0.094681
0.711413 2.196355 -0.093808
0.726132 2.203945 -0.092929
0.737650 2.197161 -0.091858
0.749424 2.191602 -0.090785
0.763058 2.193882 -0.089780
0.774964 2.188864 -0.088678
0.787234 2.185361 -0.087575
0.800485 2.185705 -0.086491
0.811524 2.177368 -0.085310
0.823803 2.173891 -0.084158
0.835630 2.168724 -0.082978
0.849432 2.170813 -0.081842
0.860593 2.163232 -0.080616
0.875224 2.168003 -0.079466
0.886426 2.160612 -0.078219
0.901866 2.167763 -0.077053
0.915782 2.169456 -0.075838
0.930563 2.173820 -0.074623
0.947649 2.185380 -0.073429
0.958295 2.175967 -0.072127
0.966714 2.159772 -0.070803
0.977100 2.150050 -0.069511
0.987549 2.140728 -0.068227
1.003008 2.146580 -0.066988
1.018937 2.153563 -0.065748
1.035524 2.162178 -0.064509
1.048399 2.159871 -0.063259
1.059710 2.153174 -0.062022
1.072504 2.150743 -0.060804
1.083414 2.143194 -0.059608
1.096874 2.142713 -0.058434
1.111535 2.145434 -0.057279
1.124907 2.144697 -0.056157
1.132022 2.127779 -0.055101
1.143295 2.121963 -0.054066
1.155976 2.119891 -0.053063
1.169070 2.118948 -0.052100
1.184648 2.124200 -0.051162
1.201762 2.133127 -0.050254
1.213322 2.128596 -0.049454
1.224100 2.122419 -0.048720
1.238011 2.123841 -0.048014
1.253367 2.128695 -0.047353
1.266370 2.128188 -0.046785
1.280432 2.130234 -0.046272
1.292853 2.128718 -0.045852
1.303442 2.123348 -0.045528
1.314268 2.118788 -0.045278
1.329365 2.123757 -0.045049
1.337978 2.114914 -0.044982
1.341970 2.096645 -0.045052
1.353974 2.095775 -0.045098
1.375476 2.114885 -0.045106
-1.445926 2.792238 -0.107667
-1.437897 2.805251 -0.106574
-1.416789 2.790713 -0.105193
-1.423529 2.836680 -0.104711
-1.415715 2.851968 -0.103903
-1.387931 2.823684 -0.102637
-1.370686 2.818724 -0.101771
-1.367483 2.845706 -0.101394
-1.358229 2.859758 -0.100951
-1.318620 2.804398 -0.099787
-1.251745 2.794267 -0.098626
-1.218747 2.791592 -0.098636
-1.192452 2.766080 -0.098495
-1.177261 2.768262 -0.098756
-1.168692 2.787685 -0.099299
-1.154026 2.791971 -0.099746
-1.135181 2.785554 -0.100139
-1.117625 2.782560 -0.100642
-1.094164 2.763680 -0.101014
-0.955365 2.428555 -0.097484
-0.937960 2.421246 -0.098035
-0.919324 2.410342 -0.098583
-0.922067 2.460263 -0.099972
-0.899799 2.439196 -0.100468
-0.882620 2.432503 -0.101185
-0.865707 2.426425 -0.101938
-0.841551 2.398196 -0.102396
-0.829250 2.405586 -0.103382
-0.803176 2.416311 -0.105359
-0.784172 2.402590 -0.106075
-0.768746 2.400105 -0.106971
-0.752644 2.395208 -0.107832
-0.739248 2.399247 -0.108842
-0.726097 2.404184 -0.109870
-0.711032 2.402462 -0.110785
-0.694982 2.397048 -0.111631
-0.680578 2.397315 -0.112569
-0.667736 2.403263 -0.113602
-0.650075 2.391086 -0.114296
-0.635164 2.388904 -0.115158
-0.620335 2.386817 -0.116008
-0.605074 2.382774 -0.116805
-0.591647 2.385911 -0.117727
-0.576471 2.381731 -0.118488
-0.560172 2.372438 -0.119127
-0.544123 2.363682 -0.119754
-0.530103 2.363396 -0.120535
-0.522383 2.391521 -0.121896
-0.505018 2.375996 -0.122320
-0.483709 2.340865 -0.122293
-0.479980 2.389319 -0.124056
-0.462350 2.370785 -0.124341
-0.446780 2.361675 -0.124808
-0.431682 2.354397 -0.125291
-0.416154 2.344277 -0.125685
-0.402481 2.343649 -0.126273
-0.390593 2.352891 -0.127068
-0.377779 2.357104 -0.127728
-0.363090 2.350206 -0.128107
-0.348503 2.343362 -0.128465
-0.334459 2.339369 -0.128867
-0.321286 2.340636 -0.129374
-0.308004 2.341086 -0.129841
-0.295883 2.349439 -0.130481
-0.284418 2.362893 -0.131229
-0.275847 2.398556 -0.132509
-0.269047 2.450193 -0.134175
-0.264386 2.522520 -0.136351
-0.253003 2.544661 -0.137264
-0.244820 2.595895 -0.138895
-0.217502 2.608830 -0.139854
-0.202973 2.607405 -0.140103
-0.186545 2.586264 -0.139828
-0.173151 2.595397 -0.140306
-0.153779 2.537848 -0.139050
-0.133059 2.457778 -0.137187
-0.115332 2.405960 -0.136025
-0.095566 2.504779 -0.138883
-0.083246 2.527182 -0.139590
-0.069920 2.536278 -0.139934
-0.056307 2.541616 -0.140163
-0.042702 2.547867 -0.140398
-0.028739 2.547577 -0.140444
-0.014073 2.530649 -0.140038
0.001708 2.480302 -0.138742
0.021883 2.285697 -0.133662
0.035646 2.250154 -0.132719
0.048339 2.244741 -0.132548
0.060872 2.244728 -0.132502
0.073052 2.267282 -0.133028
0.085726 2.263082 -0.132842
0.098382 2.255439 -0.132551
0.110975 2.243322 -0.132129
0.123508 2.249745 -0.132173
0.136013 2.244366 -0.131896
0.148382 2.231649 -0.131416
0.160702 2.222958 -0.131025
0.173667 2.248724 -0.131505
0.186250 2.250238 -0.131346
0.198454 2.238616 -0.130835
0.210497 2.225322 -0.130269
0.221916 2.199119 -0.129362
0.234285 2.199965 -0.129129
0.247876 2.225834 -0.129510
0.261105 2.240299 -0.129584
0.273163 2.231967 -0.129071
0.284584 2.214507 -0.128318
0.297949 2.228514 -0.128331
0.310556 2.229948 -0.128015
0.322432 2.221466 -0.127442
0.334668 2.218301 -0.126983
0.346759 2.213658 -0.126474
0.358592 2.206499 -0.125889
0.371172 2.207857 -0.125494
0.383546 2.206888 -0.125026
0.396223 2.208815 -0.124610
0.407751 2.199807 -0.123922
0.419375 2.192273 -0.123254
0.431488 2.189384 -0.122678
0.444164 2.191214 -0.122194
0.456258 2.188176 -0.121582
0.468995 2.190142 -0.121065
0.481160 2.187633 -0.120431
0.492792 2.181356 -0.119696
0.504185 2.173710 -0.118917
0.516451 2.172243 -0.118256
0.529506 2.175850 -0.117684
0.542546 2.179021 -0.117083
0.555107 2.178950 -0.116394
0.566466 2.171610 -0.115537
0.581014 2.182961 -0.115042
0.594533 2.187790 -0.114391
0.605902 2.180445 -0.113479
0.618058 2.177539 -0.112637
0.631369 2.180653 -0.111890
0.645017 2.185197 -0.111149
0.656367 2.177976 -0.110168
0.668388 2.174198 -0.109233
0.682501 2.180367 -0.108456
0.695544 2.181163 -0.107562
0.707619 2.177388 -0.106567
0.720909 2.179028 -0.105646
0.738040 2.197133 -0.104971
0.752441 2.202736 -0.104063
0.765227 2.201237 -0.103019
0.776299 2.192654 -0.101848
0.787602 2.185186 -0.100679
0.799601 2.180592 -0.099539
0.812599 2.179881 -0.098436
0.825823 2.179913 -0.097326
0.840119 2.183779 -0.096247
0.851176 2.175562 -0.094992
0.861429 2.164618 -0.093694
0.871295 2.152561 -0.092376
0.887801 2.163747 -0.091318
0.898976 2.156307 -0.090031
0.913074 2.158754 -0.088842
0.930199 2.170949 -0.087735
0.948168 2.185354 -0.086628
0.960465 2.181139 -0.085328
0.966474 2.157270 -0.083854
0.974928 2.141577 -0.082463
0.989841 2.145862 -0.081237
1.005543 2.152282 -0.080021
1.016212 2.143620 -0.078698
1.033788 2.155155 -0.077512
1.048649 2.158532 -0.076274
1.061260 2.155417 -0.075007
1.073414 2.151074 -0.073748
1.085663 2.147074 -0.072509
1.097506 2.142060 -0.071288
1.113029 2.146953 -0.070128
1.124894 2.142108 -0.068959
1.134576 2.131746 -0.067807
1.145787 2.125578 -0.066706
1.159369 2.125577 -0.065657
1.173419 2.126781 -0.064650
1.189948 2.134099 -0.063693
1.208145 2.145349 -0.062781
1.220643 2.142742 -0.061907
1.225971 2.123316 -0.061087
1.237257 2.118395 -0.060335
1.249501 2.115921 -0.059646
1.264123 2.119068 -0.059020
1.272895 2.109065 -0.058471
1.292437 2.123497 -0.057971
1.303324 2.118648 -0.057562
1.320725 2.128312 -0.057210
1.332694 2.126204 -0.056950
1.337120 2.108191 -0.056794
1.346918 2.102119 -0.056701
1.359315 2.101822 -0.056680
-1.465858 2.797072 -0.123079
-1.440183 2.802821 -0.120681
-1.430303 2.812624 -0.119742
-1.433957 2.852268 -0.119414
-1.408671 2.829715 -0.118092
-1.386356 2.813612 -0.116990
-1.380394 2.834004 -0.116605
-1.379845 2.867349 -0.116525
-1.344217 2.821788 -0.115243
-1.319879 2.801565 -0.114485
-1.290240 2.768859 -0.113629
-1.226111 2.805357 -0.113993
-1.203984 2.790728 -0.113981
-1.192343 2.802461 -0.114477
-1.170123 2.787608 -0.114621
-1.153424 2.786873 -0.115068
-1.135666 2.783506 -0.115543
-1.114125 2.770123 -0.115915
-1.091076 2.752438 -0.116271
-0.951652 2.415959 -0.111178
-0.941639 2.429184 -0.112095
-0.928782 2.434855 -0.112927
-0.917549 2.445376 -0.113890
-0.899281 2.435866 -0.114528
-0.879634 2.422038 -0.115112
-0.854136 2.390335 -0.115378
-0.803259 2.415479 -0.119502
-0.783222 2.398527 -0.120101
-0.765606 2.388891 -0.120847
-0.750102 2.385899 -0.121731
-0.737400 2.392227 -0.122815
-0.723239 2.393637 -0.123794
-0.709171 2.395312 -0.124776
-0.693266 2.390358 -0.125606
-0.679416 2.392588 -0.126588
-0.668132 2.404293 -0.127780
-0.651902 2.397600 -0.128539
-0.634213 2.384891 -0.129140
-0.618693 2.380059 -0.129908
-0.605841 2.385570 -0.130909
-0.591867 2.386570 -0.131787
-0.577786 2.387001 -0.132635
-0.558469 2.365009 -0.132902
-0.542490 2.356430 -0.133479
-0.535941 2.389181 -0.135094
-0.520094 2.381022 -0.135646
-0.505874 2.379875 -0.136358
-0.489248 2.367086 -0.136741
-0.471827 2.349662 -0.136974
-0.460445 2.361276 -0.137960
-0.447679 2.366232 -0.138750
-0.433241 2.362533 -0.139284
-0.418259 2.355561 -0.139706
-0.404390 2.354164 -0.140258
-0.391723 2.359310 -0.140973
-0.378596 2.361899 -0.141596
-0.363782 2.354408 -0.141913
-0.349550 2.349878 -0.142292
-0.335362 2.345192 -0.142644
-0.321038 2.339161 -0.142935
-0.307832 2.340091 -0.143406
-0.295051 2.343859 -0.143940
-0.284690 2.365056 -0.144966
-0.276901 2.406618 -0.146579
-0.272867 2.479810 -0.149118
-0.265696 2.533285 -0.151069
-0.257358 2.581043 -0.152842
-0.245432 2.601594 -0.153791
-0.231203 2.603050 -0.154149
-0.216266 2.597832 -0.154287
-0.202195 2.600429 -0.154640
-0.185613 2.577423 -0.154197
-0.130552 2.428858 -0.150306
-0.113472 2.383558 -0.149089
-0.091771 2.452092 -0.151468
-0.081584 2.503397 -0.153159
-0.068669 2.517556 -0.153694
-0.055808 2.534791 -0.154307
-0.041973 2.536122 -0.154414
-0.028705 2.549520 -0.154875
-0.014515 2.544041 -0.154737
0.001000 2.502360 -0.153467
0.022041 2.284916 -0.146763
0.035348 2.265079 -0.146134
0.048213 2.255663 -0.145810
0.060687 2.261389 -0.145938
0.073397 2.254892 -0.145674
0.085954 2.256882 -0.145657
0.098632 2.242218 -0.145113
0.111165 2.232974 -0.144722
0.123663 2.241302 -0.144854
0.136279 2.255461 -0.145150
