ply
format ascii 1.0
comment ---
element vertex 1649
property float x
property float y
property float z
element face 0
property list uchar uint vertex_indices
end_header
-1.305404 -1.447521 0.948761
-1.308526 -1.438142 0.949310
-1.317442 -1.430085 0.952300
-1.331515 -1.423116 0.957460
-1.346471 -1.416217 0.962990
-1.347492 -1.406197 0.962690
-1.342422 -1.394913 0.959853
-1.338964 -1.384030 0.957707
-1.335649 -1.373231 0.955635
-1.337947 -1.363571 0.955921
-1.345364 -1.354872 0.958353
-1.351715 -1.345918 0.960349
-1.334322 -1.332679 0.952471
-1.330015 -1.321902 0.950059
-1.339773 -1.313550 0.953510
-1.346729 -1.304656 0.955805
-1.347376 -1.294707 0.955491
-1.349097 -1.284930 0.955635
-1.348516 -1.274807 0.954839
-1.352653 -1.265375 0.956011
-1.347305 -1.254606 0.953269
-1.347206 -1.244597 0.952715
-1.347080 -1.234596 0.952164
-1.348034 -1.224736 0.952074
-1.361735 -1.216376 0.957262
-1.354122 -1.205483 0.953661
-1.357404 -1.195846 0.954573
-1.357042 -1.185807 0.953996
-1.355313 -1.175644 0.952871
-1.357530 -1.165867 0.953386
-1.360667 -1.156152 0.954295
-1.364130 -1.146435 0.955352
-1.365000 -1.136484 0.955356
-1.366697 -1.126584 0.955715
-1.367808 -1.116629 0.955848
-1.371287 -1.106810 0.956968
-1.374263 -1.096926 0.957897
-1.372777 -1.086776 0.957007
-1.373575 -1.076747 0.957071
-1.367031 -1.066395 0.954137
-1.372867 -1.056568 0.956297
-1.376704 -1.046614 0.957651
-1.373442 -1.036422 0.956108
-1.382733 -1.026538 0.959725
-1.379055 -1.016330 0.958039
-1.383353 -1.006251 0.959636
-1.382244 -0.996084 0.959029
-1.379287 -0.985917 0.957679
-1.379933 -0.975763 0.957817
-1.372901 -0.965657 0.954822
-1.376859 -0.955474 0.956337
-1.356399 -0.945684 0.947866
-1.374298 -0.935213 0.955106
-1.380530 -0.924884 0.957577
-1.368654 -0.915088 0.952645
-1.374214 -0.904743 0.954853
-1.370947 -0.894723 0.953454
-1.370855 -0.884582 0.953356
-1.368835 -0.874547 0.952470
-1.365595 -0.864607 0.951085
-1.365339 -0.854517 0.950917
-1.381320 -0.843325 0.957387
-1.379155 -0.833318 0.956427
-1.372879 -0.823669 0.953778
-1.378499 -0.813107 0.955983
-1.369291 -0.803824 0.952110
-1.367007 -0.794010 0.951054
-1.361865 -0.784530 0.948811
-1.365595 -0.774215 0.950173
-1.371250 -0.763692 0.952296
-1.359379 -0.755146 0.947234
-1.361880 -0.745062 0.948013
-1.370043 -0.734309 0.951070
-1.369170 -0.724693 0.950404
-1.368803 -0.715082 0.949907
-1.375992 -0.704503 0.952450
-1.383993 -0.693815 0.955278
-1.389007 -0.683571 0.956842
-1.388182 -0.674252 0.955980
-1.381328 -0.665976 0.952618
-1.388612 -0.655581 0.954955
-1.398558 -0.644779 0.958316
-1.400487 -0.635356 0.958364
-1.415818 -0.623687 0.963788
-1.422932 -0.613466 0.965818
-1.409087 -0.607140 0.959311
-1.395147 -0.601070 0.952722
-1.377197 -0.596007 0.944475
-1.376791 -0.587780 0.943260
-1.411012 -0.572762 0.955923
-1.421252 -0.562482 0.958859
-1.418881 -0.554870 0.956671
-1.422923 -0.546048 0.957003
-1.450675 -0.532215 0.966760
-1.428022 -0.529354 0.956309
-1.411388 -0.525449 0.948240
-0.942713 -2.717839 0.953423
-0.961351 -2.726377 0.962753
-0.958906 -2.711593 0.961032
-0.936289 -2.674955 0.948751
-0.947644 -2.674903 0.954032
-0.955364 -2.670676 0.957332
-0.974672 -2.665522 0.965652
-0.974879 -2.652714 0.964781
-0.967148 -2.631608 0.959725
-0.962899 -2.614079 0.956390
-0.961319 -2.599223 0.954351
-0.958541 -2.583095 0.951616
-0.950684 -2.561860 0.946201
-0.960243 -2.557899 0.949643
-0.969694 -2.553600 0.952938
-0.975961 -2.545983 0.954518
-0.994743 -2.550259 0.962390
-1.007725 -2.548632 0.967208
-1.007250 -2.534017 0.965116
-1.004555 -2.517305 0.961845
-1.003972 -2.502586 0.959594
-0.999107 -2.483932 0.955141
-0.999018 -2.469718 0.953056
-1.006563 -2.462409 0.954756
-1.012829 -2.453848 0.955764
-1.020539 -2.446489 0.957448
-1.023111 -2.434529 0.956533
-1.012239 -2.410901 0.948931
-1.014591 -2.398880 0.947878
-1.036626 -2.403633 0.956508
-1.041168 -2.393336 0.956475
-1.044505 -2.382029 0.955835
-1.045310 -2.368652 0.953949
-1.042218 -2.352157 0.950165
-1.042820 -2.338789 0.948192
-1.053993 -2.333967 0.951351
-1.060421 -2.325291 0.952198
-1.054577 -2.306974 0.947128
-1.069339 -2.304854 0.951996
-1.075272 -2.295807 0.952611
-1.068127 -2.276814 0.946979
-1.069411 -2.264381 0.945406
-1.078646 -2.257955 0.947635
-1.097524 -2.258597 0.954439
-1.098196 -2.245763 0.952610
-1.106157 -2.238282 0.954243
-1.118147 -2.233662 0.957782
-1.107770 -2.213146 0.950820
-1.115090 -2.205267 0.952197
-1.122156 -2.197202 0.953468
-1.136242 -2.193938 0.958022
-1.139074 -2.182940 0.957343
-1.129324 -2.163563 0.950852
-1.134531 -2.154339 0.951331
-1.143917 -2.147875 0.953758
-1.144507 -2.135661 0.952142
-1.140319 -2.120462 0.948359
-1.139457 -2.107521 0.946139
-1.146073 -2.099375 0.947369
-1.154829 -2.092551 0.949590
-1.159359 -2.083095 0.949897
-1.171224 -2.078115 0.953556
-1.177336 -2.069599 0.954611
-1.176589 -2.057007 0.952577
-1.179611 -2.046715 0.952273
-1.187232 -2.039131 0.954063
-1.179533 -2.022725 0.948973
-1.195469 -2.019908 0.954533
-1.196283 -2.008471 0.953314
-1.189261 -1.992747 0.948613
-1.189554 -1.981193 0.947214
-1.192141 -1.970944 0.946859
-1.197454 -1.962188 0.947735
-1.192188 -1.947832 0.943929
-1.201680 -1.941322 0.946694
-1.210541 -1.934428 0.949186
-1.216284 -1.925893 0.950309
-1.218318 -1.915476 0.949809
-1.224732 -1.907275 0.951254
-1.236263 -1.901569 0.954958
-1.230094 -1.887179 0.950900
-1.231492 -1.876551 0.950186
-1.237216 -1.868009 0.951379
-1.244060 -1.859974 0.953072
-1.249470 -1.851248 0.954149
-1.248783 -1.839729 0.952583
-1.253644 -1.830764 0.953446
-1.262854 -1.823722 0.956208
-1.269421 -1.815463 0.957829
-1.266218 -1.802951 0.955233
-1.253798 -1.786591 0.948674
-1.255079 -1.776185 0.948058
-1.259847 -1.767256 0.948958
-1.260942 -1.756813 0.948287
-1.269603 -1.749452 0.950881
-1.275772 -1.741044 0.952411
-1.271767 -1.728618 0.949589
-1.276132 -1.719512 0.950368
-1.280273 -1.710312 0.951060
-1.289689 -1.703084 0.954013
-1.295830 -1.694578 0.955573
-1.287515 -1.680781 0.950988
-1.289096 -1.670660 0.950633
-1.285861 -1.658860 0.948244
-1.290765 -1.649958 0.949323
-1.292882 -1.640084 0.949230
-1.300752 -1.632157 0.951581
-1.306754 -1.623559 0.953148
-1.312253 -1.614766 0.954510
-1.304983 -1.601861 0.950496
-1.311762 -1.593486 0.952418
-1.307191 -1.581561 0.949572
-1.314974 -1.573468 0.951932
-1.312500 -1.562262 0.949994
-1.320788 -1.554266 0.952581
-1.327661 -1.545804 0.954581
-1.327776 -1.535389 0.953759
-1.329493 -1.525446 0.953620
-1.330766 -1.515391 0.953306
-1.327489 -1.504138 0.951105
-1.322051 -1.492381 0.948019
-1.318511 -1.481193 0.945740
-1.325781 -1.472778 0.947971
-1.324714 -1.462265 0.946744
-1.323691 -1.451798 0.945549
-1.325316 -1.441987 0.945464
-1.335930 -1.434248 0.949114
-1.349767 -1.427146 0.954102
-1.367200 -1.420711 0.960579
-1.371759 -1.411359 0.961737
-1.365936 -1.399809 0.958620
-1.361953 -1.388714 0.956278
-1.362069 -1.378495 0.955641
-1.361360 -1.368134 0.954677
-1.371749 -1.359892 0.958292
-1.374758 -1.350207 0.958879
-1.368744 -1.338897 0.955771
-1.359846 -1.327165 0.951497
-1.367686 -1.318356 0.954106
-1.377022 -1.309727 0.957337
-1.371245 -1.298626 0.954387
-1.372991 -1.288750 0.954532
-1.377411 -1.279264 0.955784
-1.370560 -1.268133 0.952441
-1.366271 -1.257436 0.950161
-1.366340 -1.247373 0.949677
-1.381578 -1.239258 0.955395
-1.386747 -1.229761 0.957015
-1.389417 -1.219926 0.957629
-1.389601 -1.209792 0.957243
-1.386944 -1.199356 0.955716
-1.374513 -1.187947 0.950229
-1.373075 -1.177743 0.949231
-1.375485 -1.167914 0.949813
-1.381480 -1.158380 0.951865
-1.385809 -1.148650 0.953253
-1.385673 -1.138532 0.952843
-1.385795 -1.128434 0.952553
-1.395216 -1.118966 0.956049
-1.397919 -1.108982 0.956834
-1.395359 -1.098665 0.955501
-1.392710 -1.088367 0.954147
-1.398123 -1.078478 0.956075
-1.423588 -1.069389 0.966133
-1.389523 -1.057794 0.952109
-1.387502 -1.047585 0.951071
-1.411939 -1.038124 0.960751
-1.398827 -1.027560 0.955256
-1.398949 -1.017356 0.955127
-1.400969 -1.007168 0.955780
-1.400425 -0.996933 0.955410
-1.396517 -0.986688 0.953693
-1.395454 -0.976469 0.953138
-1.415380 -0.966097 0.961075
-1.418694 -0.955724 0.962310
-1.412489 -0.945479 0.959711
-1.405565 -0.935307 0.956832
-1.403633 -0.925060 0.955977
-1.398314 -0.914940 0.953763
-1.391814 -0.904913 0.951078
-1.397110 -0.894444 0.953161
-1.396928 -0.884183 0.953036
-1.395166 -0.874007 0.952276
-1.387442 -0.864197 0.949109
-1.405037 -0.852872 0.956161
-1.396438 -0.843160 0.952637
-1.394103 -0.833086 0.951637
-1.401787 -0.822264 0.954672
-1.400278 -0.812145 0.953988
-1.397464 -0.802175 0.952765
-1.393832 -0.792332 0.951199
-1.400025 -0.781587 0.953578
-1.387321 -0.772763 0.948317
-1.398148 -0.761554 0.952522
-1.399289 -0.751375 0.952796
-1.397275 -0.741602 0.951771
-1.397264 -0.731655 0.951522
-1.405664 -0.720688 0.954628
-1.396669 -0.712011 0.950691
-1.397073 -0.702195 0.950501
-1.411611 -0.690438 0.955955
-1.423737 -0.678976 0.960389
-1.415213 -0.670618 0.956475
-1.409129 -0.662047 0.953497
-1.417462 -0.651308 0.956257
-1.426711 -0.640441 0.959328
-1.429915 -0.630623 0.959918
-1.433237 -0.620865 0.960499
-1.439598 -0.610648 0.962237
-1.445842 -0.600515 0.963867
-1.425486 -0.595434 0.954824
-1.411020 -0.589520 0.948090
-1.412276 -0.580774 0.947573
-1.445092 -0.565835 0.959545
-1.450714 -0.556305 0.960632
-1.435580 -0.551175 0.953432
-1.430343 -0.544200 0.950114
-1.445347 -0.533031 0.954750
-1.440707 -0.526191 0.951567
-1.420424 -0.523007 0.942180
-0.954907 -2.731130 0.949084
-0.968193 -2.733639 0.955502
-0.969869 -2.723195 0.955873
-0.934950 -2.673130 0.937398
-0.938587 -2.664740 0.938613
-0.958274 -2.673211 0.947952
-0.970552 -2.673427 0.953398
-0.982725 -2.673209 0.958689
-0.976135 -2.653194 0.954310
-0.987486 -2.651649 0.958990
-0.989935 -2.640713 0.959042
-0.984549 -2.621694 0.955028
-0.979732 -2.603243 0.951229
-0.978529 -2.588388 0.949189
-0.982484 -2.578572 0.949679
-0.994709 -2.576719 0.954259
-1.008199 -2.575826 0.959381
-1.013811 -2.567070 0.960452
-1.015193 -2.554142 0.959328
-1.017235 -2.541784 0.958473
-1.016510 -2.526780 0.956179
-1.017602 -2.513463 0.954741
-1.029757 -2.510291 0.958744
-1.024077 -2.490686 0.953851
-1.027994 -2.479847 0.953673
-1.034489 -2.471271 0.954725
-1.041463 -2.463040 0.955969
-1.049993 -2.456097 0.957936
-1.047193 -2.439235 0.954328
-1.067382 -2.442217 0.961915
-1.059253 -2.420849 0.955683
-1.070560 -2.416047 0.958883
-1.063742 -2.396031 0.953296
-1.074133 -2.390404 0.956021
-1.082562 -2.383089 0.957781
-1.091458 -2.376101 0.959752
-1.098567 -2.367631 0.960857
-1.062965 -2.325322 0.941610
-1.085426 -2.329194 0.950058
-1.098637 -2.325629 0.954084
-1.110070 -2.320588 0.957255
-1.094472 -2.294930 0.947681
-1.092577 -2.279924 0.944611
-1.110767 -2.280000 0.950984
-1.120755 -2.273854 0.953503
-1.133972 -2.270013 0.957530
-1.143094 -2.263121 0.959649
-1.134254 -2.243377 0.953441
-1.131559 -2.228207 0.950126
-1.127574 -2.212277 0.946251
-1.141792 -2.209090 0.950796
-1.153613 -2.204153 0.954236
-1.159927 -2.195415 0.955157
-1.154393 -2.178752 0.950677
-1.149601 -2.162755 0.946577
-1.162025 -2.158199 0.950350
-1.172795 -2.152486 0.953375
-1.161543 -2.132597 0.946433
-1.164170 -2.121753 0.945814
-1.175142 -2.116195 0.948981
-1.167849 -2.099241 0.943936
-1.172948 -2.090073 0.944497
-1.190270 -2.088334 0.950553
-1.201605 -2.082850 0.953926
-1.203270 -2.071557 0.952990
-1.211968 -2.064446 0.955209
-1.208961 -2.050507 0.952236
-1.213134 -2.040801 0.952479
-1.228214 -2.037298 0.957568
-1.230891 -2.026720 0.957177
-1.225752 -2.011848 0.953357
-1.211869 -1.992324 0.945721
-1.250163 -2.001284 0.961057
-1.241730 -1.984831 0.955860
-1.225401 -1.964377 0.947242
-1.233722 -1.957066 0.949444
-1.227645 -1.942284 0.945374
-1.236076 -1.935035 0.947652
-1.239456 -1.925197 0.947742
-1.258765 -1.923302 0.954762
-1.265741 -1.915168 0.956430
-1.255635 -1.898714 0.950716
-1.252359 -1.885713 0.947986
-1.260206 -1.878069 0.950076
-1.266378 -1.869601 0.951453
-1.262870 -1.856647 0.948677
-1.268595 -1.847990 0.949888
-1.280030 -1.841882 0.953555
-1.279811 -1.830519 0.952237
-1.288486 -1.823101 0.954737
-1.291186 -1.813048 0.954693
-1.289286 -1.801051 0.952702
-1.287715 -1.789259 0.950868
-1.280039 -1.775000 0.946458
-1.286440 -1.766628 0.948046
-1.298162 -1.760371 0.951895
-1.302565 -1.751115 0.952650
-1.298487 -1.738527 0.949829
-1.298555 -1.727628 0.948776
-1.301840 -1.717992 0.949095
-1.313346 -1.711441 0.952883
-1.323008 -1.704119 0.955898
-1.322971 -1.693200 0.954843
-1.299144 -1.673799 0.943826
-1.314743 -1.668601 0.949360
-1.317677 -1.658871 0.949592
-1.337316 -1.654851 0.956814
-1.336017 -1.643612 0.955292
-1.331283 -1.631288 0.952351
-1.323348 -1.618007 0.948095
-1.332269 -1.610236 0.950869
-1.340675 -1.602239 0.953433
-1.335369 -1.589948 0.950312
-1.334936 -1.579224 0.949227
-1.344356 -1.571474 0.952235
-1.355186 -1.564066 0.955829
-1.356211 -1.553753 0.955374
-1.348125 -1.540888 0.951172
-1.349093 -1.530644 0.950720
-1.345318 -1.519130 0.948327
-1.346045 -1.508882 0.947800
-1.348673 -1.499149 0.948066
-1.347101 -1.488341 0.946618
-1.347742 -1.478129 0.946090
-1.358352 -1.470382 0.949660
-1.345300 -1.456866 0.943545
-1.346811 -1.446931 0.943408
-1.353979 -1.438304 0.945595
-1.371462 -1.431942 0.952000
-1.381146 -1.423710 0.955223
-1.381968 -1.413501 0.954839
-1.389237 -1.404653 0.957093
-1.385125 -1.393428 0.954723
-1.385386 -1.383135 0.954146
-1.383823 -1.372506 0.952841
-1.389736 -1.363321 0.954584
-1.394094 -1.353809 0.955705
-1.390538 -1.342856 0.953629
-1.387808 -1.332099 0.951903
-1.387954 -1.321870 0.951355
-1.389397 -1.311867 0.951345
-1.394543 -1.302449 0.952843
-1.394529 -1.292202 0.952269
-1.397680 -1.282437 0.952985
-1.391833 -1.271365 0.950085
-1.390221 -1.260948 0.948908
-1.409030 -1.253275 0.955971
-1.395097 -1.241231 0.949859
-1.411113 -1.233020 0.955816
-1.409826 -1.222615 0.954823
-1.405747 -1.211914 0.952723
-1.409577 -1.202116 0.953817
-1.413828 -1.192329 0.955092
-1.404009 -1.181125 0.950735
-1.401118 -1.170669 0.949175
-1.410319 -1.161309 0.952478
-1.419103 -1.151824 0.955625
-1.416733 -1.141385 0.954318
-1.414927 -1.131011 0.953253
-1.416837 -1.120908 0.953690
-1.425385 -1.111204 0.956797
-1.410215 -1.100037 0.950434
-1.409268 -1.089775 0.949775
-1.428964 -1.080510 0.957379
-1.444026 -1.070845 0.963143
-1.401351 -1.058831 0.945863
-1.428618 -1.049548 0.956529
-1.432667 -1.039336 0.957937
-1.422290 -1.028747 0.953603
-1.414463 -1.018301 0.950303
-1.416376 -1.008052 0.950903
-1.423986 -0.997823 0.953788
-1.439205 -0.987533 0.959718
-1.426225 -0.977140 0.954419
-1.444421 -0.966649 0.961559
-1.447729 -0.956148 0.962777
-1.432112 -0.945931 0.956463
-1.425811 -0.935658 0.953873
-1.424647 -0.925301 0.953339
-1.418547 -0.915109 0.950848
-1.418490 -0.904749 0.950770
-1.431933 -0.893812 0.956077
-1.426868 -0.883614 0.954016
-1.419823 -0.873571 0.951169
-1.423255 -0.862995 0.952498
-1.418795 -0.852882 0.950683
-1.411757 -0.842992 0.947840
-1.412744 -0.832598 0.948189
-1.417242 -0.821930 0.949930
-1.427469 -0.810755 0.953944
-1.415177 -0.801472 0.948981
-1.421218 -0.790631 0.951305
-1.426664 -0.779811 0.953376
-1.427071 -0.769485 0.953423
-1.429382 -0.758982 0.954207
-1.436825 -0.747916 0.957009
-1.421503 -0.739499 0.950727
-1.430091 -0.728351 0.953928
-1.421475 -0.719366 0.950256
-1.422101 -0.709302 0.950224
-1.435565 -0.697536 0.955254
-1.455055 -0.684857 0.962632
-1.458511 -0.674422 0.963597
-1.442039 -0.667057 0.956610
-1.432671 -0.658826 0.952399
-1.444344 -0.647394 0.956480
-1.452333 -0.636564 0.959045
-1.452985 -0.627012 0.958650
-1.451004 -0.618022 0.957160
-1.478479 -0.603900 0.967247
-1.472921 -0.595703 0.964228
-1.467949 -0.587567 0.961387
-1.459744 -0.580218 0.957222
-1.471686 -0.569120 0.960928
-1.475425 -0.559693 0.961345
-1.479888 -0.550221 0.961987
-1.475619 -0.542661 0.959151
-1.468405 -0.535895 0.955114
-1.439410 -0.534019 0.942530
-1.447246 -0.524411 0.944286
-1.484892 -0.508221 0.957581
-1.538574 -0.488247 0.977007
-0.984298 -2.775466 0.953620
-0.965943 -2.743082 0.943958
-0.987975 -2.742486 0.954147
-0.999097 -2.741829 0.959153
-0.956290 -2.683154 0.936810
-0.969372 -2.684377 0.942636
-0.980275 -2.682965 0.947263
-0.972376 -2.661584 0.942320
-1.000116 -2.677192 0.955229
-1.007603 -2.671381 0.957840
-1.003556 -2.653560 0.954569
-1.001807 -2.638031 0.952372
-0.993777 -2.616131 0.946957
-1.011562 -2.619987 0.954361
-1.015239 -2.609536 0.954630
-1.019764 -2.599787 0.955240
-1.029342 -2.594804 0.958279
-1.030771 -2.581775 0.957199
-1.027999 -2.564683 0.953980
-1.030257 -2.552361 0.953189
-1.031765 -2.539283 0.951973
-1.042056 -2.534309 0.955012
-1.046295 -2.523606 0.955024
-1.046062 -2.508779 0.952807
-1.057241 -2.504253 0.956109
-1.064937 -2.496460 0.957666
-1.069162 -2.485512 0.957499
-1.067026 -2.468978 0.954232
-1.079979 -2.465601 0.958219
-1.084467 -2.454811 0.958099
-1.091300 -2.446005 0.959085
-1.099503 -2.438312 0.960703
-1.090770 -2.416472 0.954239
-1.098755 -2.408633 0.955740
-1.100784 -2.395897 0.954408
-1.111661 -2.390363 0.957259
-1.121747 -2.384114 0.959722
-1.121156 -2.369359 0.957162
-1.109410 -2.345986 0.949400
-1.132739 -2.350074 0.958065
-1.128941 -2.333098 0.954061
-1.130479 -2.320337 0.952567
-1.128537 -2.305044 0.949483
-1.133063 -2.294695 0.949416
-1.142560 -2.288037 0.951656
-1.152776 -2.281862 0.954230
-1.157838 -2.271926 0.954447
-1.164958 -2.263484 0.955620
-1.166984 -2.251449 0.954484
-1.152482 -2.227956 0.945854
-1.165496 -2.223773 0.949772
-1.175489 -2.217438 0.952324
-1.179428 -2.206964 0.952149
-1.196002 -2.204979 0.957690
-1.176636 -2.179082 0.947068
-1.178692 -2.167573 0.946124
-1.205836 -2.172365 0.956432
-1.218693 -2.167722 0.960335
-1.214591 -2.152251 0.956686
-1.215580 -2.140114 0.955337
-1.204871 -2.120804 0.948826
-1.200629 -2.105687 0.945225
-1.215739 -2.102439 0.950207
-1.218374 -2.091593 0.949689
-1.232082 -2.087353 0.954065
-1.232036 -2.074952 0.952404
-1.227480 -2.060015 0.948792
-1.236577 -2.053034 0.951184
-1.248435 -2.047573 0.954791
-1.248632 -2.035502 0.953322
-1.250137 -2.024224 0.952446
-1.256907 -2.015877 0.953876
-1.259645 -2.005332 0.953571
-1.258951 -1.992985 0.951800
-1.256361 -1.979712 0.949234
-1.265547 -1.972680 0.951769
-1.266627 -1.961417 0.950824
-1.276444 -1.954653 0.953651
-1.287963 -1.948685 0.957213
-1.286691 -1.936276 0.955304
-1.284949 -1.923711 0.953216
-1.285453 -1.912313 0.952107
-1.286468 -1.901210 0.951234
-1.286488 -1.889679 0.949955
-1.294938 -1.882137 0.952275
-1.294550 -1.870474 0.950853
-1.302452 -1.862638 0.952959
-1.287284 -1.844399 0.945320
-1.307648 -1.842137 0.952715
-1.315898 -1.834386 0.954994
-1.313409 -1.821953 0.952761
-1.314088 -1.810945 0.951877
-1.312825 -1.799159 0.950193
-1.310360 -1.786935 0.948022
-1.313202 -1.776952 0.948090
-1.323258 -1.769886 0.951185
-1.320593 -1.757696 0.948973
-1.338942 -1.753804 0.955537
-1.342775 -1.744147 0.956053
-1.341091 -1.732390 0.954285
-1.337245 -1.719882 0.951634
-1.343518 -1.711190 0.953198
-1.353150 -1.703688 0.956159
-1.345825 -1.690048 0.952109
-1.339633 -1.676926 0.948548
-1.349459 -1.669466 0.951616
-1.356547 -1.660998 0.953558
-1.361389 -1.651734 0.954581
-1.365707 -1.642278 0.955396
-1.354809 -1.627865 0.949970
-1.353892 -1.616793 0.948661
-1.357472 -1.607178 0.949208
-1.364478 -1.598613 0.951167
-1.367194 -1.588704 0.951376
-1.367151 -1.577975 0.950468
-1.377705 -1.570378 0.953896
-1.386764 -1.562270 0.956717
-1.373082 -1.547680 0.950283
-1.369290 -1.536001 0.947895
-1.390705 -1.531236 0.955764
-1.376082 -1.516677 0.948999
-1.397413 -1.511683 0.956836
-1.386405 -1.498221 0.951569
-1.380679 -1.486224 0.948459
-1.380982 -1.475791 0.947803
-1.384464 -1.466143 0.948442
-1.372283 -1.452803 0.942770
-1.374540 -1.442931 0.942940
-1.396713 -1.437531 0.951142
-1.399146 -1.427593 0.951396
-1.403974 -1.418165 0.952624
-1.404994 -1.407912 0.952330
-1.420288 -1.400582 0.957778
-1.411625 -1.388350 0.953618
-1.409133 -1.377423 0.951950
-1.405514 -1.366327 0.949845
-1.411601 -1.357068 0.951638
-1.416546 -1.347560 0.952984
-1.418669 -1.337530 0.953212
-1.410254 -1.325720 0.949245
-1.402039 -1.314043 0.945375
-1.410231 -1.305060 0.948064
-1.427911 -1.297463 0.954541
-1.412810 -1.284842 0.947971
-1.427321 -1.276626 0.953204
-1.435372 -1.267383 0.955875
-1.437548 -1.257289 0.956221
-1.437587 -1.246908 0.955732
-1.420890 -1.234476 0.948615
-1.423397 -1.224488 0.949136
-1.425911 -1.214484 0.949674
-1.428777 -1.204499 0.950364
-1.434147 -1.194751 0.952059
-1.438428 -1.184847 0.953335
-1.435294 -1.174215 0.951692
-1.428292 -1.163276 0.948535
-1.435075 -1.153557 0.950843
-1.443441 -1.143896 0.953790
-1.438396 -1.133170 0.951453
-1.441685 -1.123065 0.952423
-1.444374 -1.112888 0.953170
-1.437769 -1.102142 0.950266
-1.425358 -1.091150 0.945090
-1.446605 -1.081905 0.953199
-1.460894 -1.072142 0.958576
-1.460364 -1.061666 0.958127
-1.441386 -1.050575 0.950430
-1.450615 -1.040467 0.953856
-1.462221 -1.030317 0.958230
-1.439543 -1.019415 0.949126
-1.437593 -1.009009 0.948195
-1.453595 -0.998764 0.954340
-1.465272 -0.988337 0.958796
-1.457581 -0.977818 0.955647
-1.464866 -0.967267 0.958400
-1.474430 -0.956607 0.962060
-1.464129 -0.946177 0.957923
-1.448847 -0.935951 0.951839
-1.448849 -0.925460 0.951773
-1.459416 -0.914626 0.955868
-1.460901 -0.904014 0.956403
-1.454128 -0.893728 0.953698
-1.459309 -0.882944 0.955697
-1.447505 -0.872990 0.951026
-1.448465 -0.862424 0.951374
-1.440485 -0.852405 0.948210
-1.433736 -0.842386 0.945529
-1.432280 -0.832058 0.944926
-1.454686 -0.819907 0.953692
-1.457408 -0.809163 0.954719
-1.450929 -0.799210 0.952122
-1.445766 -0.789218 0.950032
-1.451269 -0.778262 0.952116
-1.454194 -0.767540 0.953172
-1.452826 -0.757281 0.952522
-1.479210 -0.743953 0.962746
-1.477707 -0.733677 0.961995
-1.461610 -0.725247 0.955490
-1.441222 -0.717572 0.947274
-1.434376 -0.708366 0.944340
-1.454154 -0.695647 0.951811
-1.467587 -0.683705 0.956750
-1.464582 -0.674117 0.955204
-1.479187 -0.661977 0.960510
-1.483448 -0.651401 0.961716
-1.465812 -0.644393 0.954308
-1.481352 -0.632169 0.959824
-1.479883 -0.622794 0.958637
-1.479515 -0.613349 0.957827
-1.499188 -0.600443 0.964775
-1.505281 -0.589967 0.966364
-1.512290 -0.579390 0.968248
-1.503509 -0.571906 0.963931
-1.501905 -0.563220 0.962352
-1.507166 -0.553307 0.963380
-1.505504 -0.544898 0.961664
-1.501761 -0.537072 0.959090
-1.477293 -0.533806 0.948462
-1.462203 -0.528843 0.941424
-1.480831 -0.516725 0.947334
-1.512725 -0.501637 0.958270
-1.461713 -0.505284 0.937303
-1.007976 -2.789093 0.954150
-1.032384 -2.803183 0.965860
-1.028255 -2.785773 0.963216
-0.999653 -2.741906 0.948275
-0.987308 -2.715738 0.941374
-0.994383 -2.710245 0.944069
-1.025984 -2.730343 0.958869
-1.020483 -2.711014 0.955111
-1.023238 -2.700215 0.955367
-1.033115 -2.696580 0.959062
-1.022240 -2.671497 0.952392
-1.011491 -2.646625 0.945720
-1.029788 -2.650987 0.953304
-1.043799 -2.650689 0.958668
-1.054742 -2.647052 0.962425
-1.060822 -2.638408 0.963705
-1.051480 -2.614663 0.957364
-1.053569 -2.602013 0.956556
-1.053203 -2.586959 0.954490
-1.054278 -2.573247 0.953070
-1.055740 -2.559866 0.951785
-1.063011 -2.551836 0.953260
-1.080623 -2.553165 0.959662
-1.090822 -2.547477 0.962420
-1.085166 -2.527386 0.957521
-1.090120 -2.516878 0.957684
-1.080697 -2.493653 0.950957
-1.090232 -2.487200 0.953256
-1.093095 -2.474877 0.952353
-1.097578 -2.463961 0.952202
-1.104242 -2.454892 0.953065
-1.112639 -2.447246 0.954725
-1.125935 -2.443614 0.958665
-1.128686 -2.431179 0.957645
-1.135976 -2.422489 0.958745
-1.121221 -2.396012 0.949585
-1.140652 -2.397147 0.956336
-1.144533 -2.385792 0.955861
-1.149194 -2.375089 0.955756
-1.156887 -2.366762 0.957056
-1.147503 -2.345350 0.950525
-1.160803 -2.341380 0.954421
-1.167715 -2.332521 0.955394
-1.152457 -2.307212 0.946287
-1.160614 -2.299441 0.947873
-1.175540 -2.296573 0.952533
-1.180723 -2.286579 0.952787
-1.186523 -2.277053 0.953336
-1.194905 -2.269363 0.955061
-1.203949 -2.262116 0.957095
-1.207907 -2.251334 0.956866
-1.200428 -2.232795 0.951554
-1.210521 -2.226325 0.954110
-1.216228 -2.216880 0.954727
-1.206753 -2.197424 0.948637
-1.204503 -2.182919 0.945788
-1.235016 -2.189718 0.957422
-1.234197 -2.176149 0.955238
-1.232239 -2.161962 0.952585
-1.233787 -2.150085 0.951499
-1.230622 -2.135359 0.948379
-1.232703 -2.123973 0.947580
-1.239968 -2.115779 0.949062
-1.269624 -2.120973 0.960287
-1.265029 -2.105580 0.956633
-1.285671 -2.105099 0.963936
-1.253326 -2.073760 0.948343
-1.265230 -2.068239 0.951905
-1.272721 -2.060143 0.953573
-1.266366 -2.044278 0.949306
-1.269755 -2.033955 0.949250
-1.280086 -2.027452 0.952183
-1.273693 -2.011853 0.947978
-1.281232 -2.003838 0.949747
-1.290954 -1.996947 0.952455
-1.290584 -1.984738 0.950881
-1.301902 -1.978617 0.954287
-1.303397 -1.967420 0.953538
-1.303324 -1.955477 0.952145
-1.306886 -1.945399 0.952304
-1.317998 -1.939041 0.955661
-1.313900 -1.925235 0.952621
-1.309919 -1.911592 0.949656
-1.317399 -1.903466 0.951520
-1.314958 -1.890678 0.949238
-1.312207 -1.877828 0.946847
-1.317396 -1.868672 0.947791
-1.332472 -1.863942 0.952867
-1.340596 -1.856007 0.955047
-1.336807 -1.842819 0.952282
-1.340032 -1.832749 0.952449
-1.346053 -1.823878 0.953786
-1.338941 -1.809472 0.949695
-1.333205 -1.795764 0.946197
-1.342409 -1.788265 0.948887
-1.360470 -1.784269 0.955230
-1.366149 -1.775198 0.956473
-1.380341 -1.769434 0.961221
-1.371576 -1.754703 0.956544
-1.361180 -1.739492 0.951221
-1.367157 -1.730567 0.952627
-1.367505 -1.719538 0.951738
-1.375307 -1.711253 0.953906
-1.384052 -1.703256 0.956464
-1.363851 -1.685008 0.947232
-1.370777 -1.676422 0.949072
-1.373227 -1.666270 0.949098
-1.378556 -1.657093 0.950303
-1.396155 -1.651945 0.956491
-1.394133 -1.640267 0.954727
-1.380585 -1.624964 0.948313
-1.407509 -1.622549 0.958281
-1.415515 -1.614039 0.960599
-1.396157 -1.597176 0.951886
-1.405549 -1.589118 0.954783
-1.414620 -1.580896 0.957555
-1.415833 -1.570352 0.957172
-1.402510 -1.555725 0.950963
-1.415176 -1.548460 0.955201
-1.424082 -1.540071 0.957935
-1.435961 -1.532406 0.961862
-1.429322 -1.519813 0.958386
-1.418893 -1.506349 0.953412
-1.412825 -1.494112 0.950198
-1.412275 -1.483317 0.949201
-1.424675 -1.475662 0.953376
-1.440941 -1.468812 0.959092
-1.433800 -1.456440 0.955499
-1.434241 -1.445869 0.954936
-1.433192 -1.434989 0.953793
-1.447136 -1.427355 0.958609
-1.461381 -1.419662 0.963547
-1.456153 -1.407872 0.960777
-1.443073 -1.394595 0.954916
-1.432093 -1.381878 0.949905
-1.430799 -1.371119 0.948740
-1.424872 -1.359542 0.945760
-1.450891 -1.353747 0.955395
-1.450931 -1.343198 0.954789
-1.448248 -1.332206 0.953123
-1.441739 -1.320632 0.949966
-1.429275 -1.308196 0.944484
-1.436575 -1.298929 0.946789
-1.481050 -1.295116 0.963700
-1.486079 -1.285217 0.965123
-1.457333 -1.270610 0.953310
-1.460944 -1.260614 0.954207
-1.474146 -1.251823 0.958873
-1.464334 -1.240072 0.954538
-1.464014 -1.229552 0.953935
-1.456231 -1.218197 0.950428
-1.452610 -1.207378 0.948566
-1.454380 -1.197158 0.948825
-1.462556 -1.187556 0.951599
-1.459668 -1.176844 0.950067
-1.484879 -1.168648 0.959509
-1.447962 -1.155024 0.944739
-1.461413 -1.145718 0.949622
-1.489787 -1.137376 0.960328
-1.476981 -1.125933 0.955008
-1.459245 -1.114304 0.947789
-1.465074 -1.104229 0.949757
-1.472808 -1.094197 0.952481
-1.480085 -1.084062 0.955039
-1.471328 -1.073153 0.951380
-1.512201 -1.064241 0.967021
-1.492473 -1.052881 0.959129
-1.479952 -1.041918 0.954055
-1.478599 -1.031338 0.953335
-1.483317 -1.020877 0.954986
-1.474930 -1.010183 0.951565
-1.475758 -0.999645 0.951735
-1.493493 -0.989151 0.958479
-1.489295 -0.978501 0.956725
-1.480194 -0.967916 0.953085
-1.491969 -0.957175 0.957553
-1.481335 -0.946675 0.953343
-1.473318 -0.936217 0.950160
-1.478569 -0.925479 0.952132
-1.492538 -0.914405 0.957493
-1.493895 -0.903645 0.957974
-1.486569 -0.893225 0.955096
-1.480759 -0.882803 0.952813
-1.488127 -0.871754 0.955642
-1.483746 -0.861294 0.953923
-1.483884 -0.850598 0.953956
-1.492076 -0.839363 0.957112
-1.488585 -0.828889 0.955739
-1.494460 -0.817735 0.957992
-1.485512 -0.807746 0.954496
-1.478886 -0.797657 0.951892
-1.472931 -0.787589 0.949539
-1.483251 -0.776021 0.953480
-1.490558 -0.764681 0.956238
-1.509500 -0.752052 0.963485
-1.499246 -0.742537 0.959401
-1.504738 -0.731322 0.961393
-1.504600 -0.720782 0.961178
-1.463605 -0.715475 0.945119
-1.486796 -0.702172 0.953875
-1.477625 -0.693124 0.950072
-1.473616 -0.683502 0.948229
-1.479487 -0.672548 0.950168
-1.501685 -0.659155 0.958371
-1.507976 -0.648113 0.960377
-1.502572 -0.638979 0.957818
-1.499519 -0.629606 0.956119
-1.498986 -0.619938 0.955342
-1.507443 -0.608819 0.957974
-1.509672 -0.598850 0.958150
-1.533211 -0.585083 0.966463
-1.527981 -0.576621 0.963651
-1.536770 -0.565646 0.966166
-1.531462 -0.557488 0.963211
-1.519044 -0.550930 0.957483
-1.526138 -0.540629 0.959170
-1.514286 -0.534350 0.953558
-1.506173 -0.519126 0.948146
-1.499175 -0.512417 0.944248
-1.506684 -0.502657 0.945815
-0.993596 -2.797607 0.936695
-1.019763 -2.801738 0.948822
-1.038275 -2.796141 0.956802
-1.026227 -2.769950 0.950164
-1.007263 -2.736411 0.940048
-1.033839 -2.751359 0.952228
-1.038507 -2.742674 0.953543
-1.049546 -2.740439 0.957886
-1.057082 -2.734266 0.960411
-1.051823 -2.714695 0.956589
-1.065390 -2.714300 0.961871
-1.058084 -2.692472 0.956888
-1.056475 -2.676386 0.954604
-1.071620 -2.676900 0.960373
-1.070210 -2.660770 0.958027
-1.081104 -2.656620 0.961555
-1.091328 -2.651582 0.964673
-1.079759 -2.625421 0.957226
-1.081662 -2.612241 0.956212
-1.084050 -2.599466 0.955373
-1.081569 -2.582101 0.952157
-1.085777 -2.570965 0.952090
-1.096207 -2.565467 0.954931
-1.105098 -2.558416 0.956984
-1.118171 -2.555000 0.960964
-1.104837 -2.527917 0.952445
-1.111910 -2.519089 0.953531
-1.104272 -2.497371 0.947693
-1.108978 -2.486509 0.947633
-1.114472 -2.476315 0.947924
-1.125272 -2.470597 0.950664
-1.134018 -2.463062 0.952428
-1.142231 -2.455029 0.953929
-1.153790 -2.449701 0.956959
-1.159883 -2.439836 0.957460
-1.169684 -2.432959 0.959659
-1.166592 -2.415756 0.955958
-1.163577 -2.398772 0.952320
-1.168782 -2.388360 0.952446
-1.177389 -2.380602 0.954123
-1.194909 -2.379631 0.959832
-1.211931 -2.378120 0.965301
-1.190758 -2.347856 0.953582
-1.212829 -2.350077 0.961333
-1.224230 -2.344245 0.964288
-1.224039 -2.329939 0.962075
-1.229207 -2.319596 0.962276
-1.209042 -2.291282 0.951252
-1.220171 -2.285383 0.954158
-1.219737 -2.271380 0.951963
-1.216366 -2.255468 0.948505
-1.248941 -2.264193 0.960885
-1.244194 -2.247395 0.956860
-1.239988 -2.231128 0.953113
-1.241442 -2.218755 0.951874
-1.246475 -2.208793 0.952221
-1.252753 -2.199660 0.953128
-1.249392 -2.184379 0.949873
-1.247348 -2.170067 0.947223
-1.252030 -2.160076 0.947508
-1.269943 -2.158287 0.953514
-1.289505 -2.157350 0.960225
-1.293565 -2.146862 0.960275
-1.300453 -2.138096 0.961557
-1.308920 -2.130254 0.963529
-1.301588 -2.113145 0.958773
-1.291795 -2.094789 0.953007
-1.285901 -2.078866 0.948939
-1.297005 -2.072701 0.952114
-1.289267 -2.055940 0.947319
-1.287189 -2.042475 0.944950
-1.332929 -2.055210 0.962778
-1.334574 -2.043644 0.961992
-1.320709 -2.023855 0.954708
-1.332375 -2.017761 0.958178
-1.332201 -2.005421 0.956693
-1.370653 -2.013023 0.971381
-1.373929 -2.002331 0.971352
-1.328330 -1.967113 0.950969
-1.345413 -1.963613 0.956748
-1.337175 -1.947555 0.952005
-1.343972 -1.938933 0.953528
-1.341969 -1.926077 0.951415
-1.344756 -1.915563 0.951304
-1.348727 -1.905622 0.951696
-1.326409 -1.883590 0.941263
-1.334220 -1.875560 0.943276
-1.358778 -1.874997 0.952178
-1.361434 -1.864505 0.952078
-1.357495 -1.851151 0.949289
-1.364750 -1.842716 0.951100
-1.382271 -1.838607 0.957114
-1.391238 -1.830757 0.959632
-1.375692 -1.812711 0.952165
-1.382391 -1.803962 0.953783
-1.391031 -1.795962 0.956197
-1.399423 -1.787809 0.958515
-1.402617 -1.777573 0.958731
-1.398396 -1.764487 0.955955
-1.395779 -1.752098 0.953846
-1.386986 -1.737470 0.949258
-1.392951 -1.728418 0.950644
-1.411063 -1.723747 0.956931
-1.414891 -1.713810 0.957465
-1.415375 -1.702692 0.956664
-1.383052 -1.680241 0.942708
-1.398417 -1.674440 0.947911
-1.411652 -1.667792 0.952260
-1.419072 -1.659117 0.954283
-1.415213 -1.646734 0.951805
-1.419531 -1.637038 0.952605
-1.435974 -1.631135 0.958246
-1.434004 -1.619408 0.956552
-1.429590 -1.606995 0.953900
-1.432543 -1.596854 0.954190
-1.440263 -1.588108 0.956381
-1.447513 -1.579175 0.958390
-1.447725 -1.568213 0.957618
-1.449462 -1.557700 0.957460
-1.456160 -1.548544 0.959273
-1.456747 -1.537720 0.958679
-1.438515 -1.522011 0.950672
-1.445078 -1.512857 0.952462
-1.436838 -1.499955 0.948431
-1.442814 -1.490651 0.950008
-1.454699 -1.482728 0.953915
-1.458838 -1.472888 0.954783
-1.464887 -1.463470 0.956409
-1.458482 -1.451216 0.953162
-1.466718 -1.442264 0.955663
-1.479840 -1.434296 0.960082
-1.479510 -1.423404 0.959245
-1.474783 -1.411639 0.956704
-1.467975 -1.399530 0.953366
-1.456330 -1.386573 0.948159
-1.454827 -1.375668 0.946921
-1.469720 -1.367808 0.952080
-1.475391 -1.358169 0.953654
-1.481490 -1.348564 0.955405
-1.468656 -1.335724 0.949810
-1.467689 -1.324969 0.948842
-1.496403 -1.318941 0.959398
-1.489070 -1.307110 0.955981
-1.503908 -1.298656 0.961167
-1.512080 -1.289111 0.963780
-1.501224 -1.276864 0.959041
-1.487866 -1.264404 0.953355
-1.496791 -1.254948 0.956297
-1.504121 -1.245216 0.958633
-1.502083 -1.234311 0.957365
-1.490432 -1.222345 0.952405
-1.482539 -1.210911 0.948913
-1.500003 -1.202184 0.955206
-1.493264 -1.190906 0.952187
-1.502630 -1.181206 0.955384
-1.492033 -1.169649 0.950914
-1.487255 -1.158688 0.948699
-1.505370 -1.149575 0.955299
-1.505714 -1.138976 0.955082
-1.502804 -1.128150 0.953629
-1.484379 -1.116366 0.946239
-1.478714 -1.105512 0.943764
-1.532028 -1.097883 0.963928
-1.519758 -1.086522 0.958947
-1.524339 -1.076018 0.960443
-1.524426 -1.065289 0.960232
-1.516597 -1.054286 0.957004
-1.497896 -1.043041 0.949629
-1.499996 -1.032473 0.950237
-1.511175 -1.022049 0.954335
-1.529076 -1.011600 0.961019
-1.522600 -1.000745 0.958387
-1.517630 -0.989952 0.956347
-1.513553 -0.979199 0.954662
-1.524081 -0.968388 0.958578
-1.527834 -0.957538 0.959915
-1.519151 -0.946840 0.956509
-1.540992 -0.935575 0.964786
-1.533182 -0.924856 0.961738
-1.518498 -0.914420 0.956071
-1.512289 -0.903817 0.953655
-1.510762 -0.893076 0.953038
-1.512881 -0.882174 0.953822
-1.516468 -0.871170 0.955173
-1.513357 -0.860503 0.953969
-1.507028 -0.850062 0.951538
-1.507517 -0.839231 0.951715
-1.519896 -0.827547 0.956437
-1.531266 -0.815819 0.960771
-1.515902 -0.806163 0.954883
-1.507587 -0.796062 0.951682
-1.525814 -0.783627 0.958619
-1.536063 -0.771797 0.962495
-1.530882 -0.761454 0.960460
-1.515805 -0.752244 0.954628
-1.522186 -0.740821 0.956978
-1.526848 -0.729570 0.958648
-1.530220 -0.718473 0.959801
-1.536563 -0.707014 0.962060
-1.504008 -0.700655 0.949436
-1.497266 -0.691157 0.946639
-1.503014 -0.680029 0.948573
-1.510145 -0.668714 0.950994
-1.517413 -0.657389 0.953424
-1.517241 -0.647235 0.952973
-1.513525 -0.637741 0.951125
-1.505817 -0.629035 0.947710
-1.540710 -0.613291 0.960456
-1.536960 -0.604055 0.958440
-1.536001 -0.594469 0.957433
-1.580209 -0.576756 0.973513
-1.572325 -0.568528 0.969754
-1.552993 -0.562690 0.961606
-1.616747 -0.540888 0.984856
-1.565431 -0.541691 0.964500
-1.548062 -0.536133 0.956947
-1.557668 -0.525243 0.959524
-1.557279 -0.516538 0.958273
-1.574209 -0.504237 0.963478
-1.547663 -0.501512 0.952287
-1.504865 -0.494757 0.933693
-1.015355 -2.821664 0.936283
-1.040271 -2.810904 0.946980
-1.062896 -2.822281 0.957315
-1.060795 -2.806521 0.955542
-1.044993 -2.776005 0.947040
-1.041389 -2.758540 0.944371
-1.059094 -2.763422 0.951923
-1.069157 -2.759903 0.955673
-1.078832 -2.755691 0.959135
-1.083918 -2.746485 0.960286
-1.104574 -2.738090 0.967344
-1.102790 -2.721354 0.964924
-1.084949 -2.688626 0.954756
-1.071617 -2.660575 0.946702
-1.091506 -2.665113 0.954419
-1.101756 -2.659937 0.957452
-1.095807 -2.639026 0.952730
-1.096323 -2.624333 0.951021
-1.105084 -2.617374 0.953150
-1.110107 -2.606777 0.953455
-1.104942 -2.586699 0.948930
-1.112735 -2.578578 0.950445
-1.122132 -2.571805 0.952660
-1.120410 -2.554934 0.949651
-1.140888 -2.557860 0.956932
-1.137579 -2.539569 0.953135
-1.147236 -2.532692 0.955320
-1.134214 -2.506168 0.947035
-1.137313 -2.493708 0.946181
-1.149334 -2.488822 0.949403
-1.156477 -2.479741 0.950374
-1.172371 -2.477883 0.955316
-1.176628 -2.466317 0.954947
-1.186455 -2.459306 0.957103
-1.195988 -2.452004 0.959117
-1.189243 -2.431707 0.953799
-1.186441 -2.414736 0.950289
-1.198435 -2.409451 0.953431
-1.224992 -2.415320 0.963070
-1.235059 -2.408294 0.965327
-1.216153 -2.379336 0.954722
-1.216524 -2.365202 0.952726
-1.225796 -2.357763 0.954690
-1.238917 -2.353113 0.958357
-1.249517 -2.346551 0.960917
-1.252179 -2.334247 0.960002
-1.258030 -2.324278 0.960508
-1.242093 -2.299033 0.951526
-1.254823 -2.294051 0.955084
-1.264598 -2.286957 0.957363
-1.267076 -2.274863 0.956492
-1.266304 -2.260651 0.954242
-1.267627 -2.247946 0.952927
-1.275882 -2.239890 0.954621
-1.291568 -2.236659 0.959518
-1.276707 -2.213609 0.951334
-1.270568 -2.196424 0.946933
-1.275995 -2.186714 0.947504
-1.287413 -2.180760 0.950641
-1.299046 -2.174873 0.953878
-1.310256 -2.168656 0.956942
-1.317021 -2.159692 0.958134
-1.317257 -2.146823 0.956587
-1.316155 -2.133244 0.954501
-1.320860 -2.123151 0.954884
-1.328220 -2.114609 0.956398
-1.308899 -2.090816 0.946754
-1.306907 -2.077131 0.944405
-1.307651 -2.065072 0.943226
-1.342430 -2.071852 0.956242
-1.357163 -2.067327 0.960895
-1.354470 -2.053296 0.958318
-1.357769 -2.042558 0.958248
-1.346118 -2.023977 0.952014
-1.364861 -2.021419 0.958364
-1.379431 -2.016547 0.962990
-1.382132 -2.005532 0.962731
-1.379409 -1.991824 0.960261
-1.367140 -1.973478 0.953898
-1.366527 -1.961049 0.952344
-1.360967 -1.946292 0.948786
-1.374323 -1.940694 0.952975
-1.384065 -1.933286 0.955692
-1.390917 -1.924473 0.957238
-1.391823 -1.912898 0.956376
-1.389757 -1.900016 0.954325
-1.375449 -1.881727 0.947331
-1.386042 -1.874665 0.950445
-1.393944 -1.866356 0.952476
-1.402746 -1.858391 0.954875
-1.407785 -1.848775 0.955764
-1.407012 -1.836712 0.954324
-1.412481 -1.827284 0.955406
-1.410402 -1.814764 0.953469
-1.405885 -1.801332 0.950571
-1.418436 -1.794758 0.954522
-1.437584 -1.790663 0.961110
-1.418959 -1.771853 0.952614
-1.413984 -1.758472 0.949592
-1.419424 -1.749082 0.950735
-1.418222 -1.737225 0.949243
-1.442702 -1.734737 0.957966
-1.443773 -1.723655 0.957391
-1.437964 -1.710180 0.954101
-1.434922 -1.697766 0.951924
-1.437724 -1.687412 0.952072
-1.438389 -1.676349 0.951385
-1.441876 -1.666245 0.951823
-1.437380 -1.653548 0.949124
-1.441063 -1.643544 0.949659
-1.447416 -1.634372 0.951251
-1.456611 -1.626042 0.953965
-1.445368 -1.611454 0.948668
-1.457597 -1.604005 0.952586
-1.487756 -1.601698 0.963523
-1.474347 -1.586599 0.957413
-1.477436 -1.576319 0.957768
-1.472848 -1.563916 0.955137
-1.481082 -1.555068 0.957518
-1.491946 -1.546862 0.960928
-1.485867 -1.534153 0.957750
-1.429053 -1.508574 0.934871
-1.462571 -1.506222 0.947117
-1.486601 -1.501224 0.955669
-1.499264 -1.493275 0.959809
-1.491848 -1.480507 0.956179
-1.484950 -1.467960 0.952765
-1.496133 -1.459566 0.956355
-1.503858 -1.450323 0.958613
-1.512617 -1.441246 0.961277
-1.506343 -1.428959 0.958152
-1.495178 -1.415760 0.953159
-1.500812 -1.406037 0.954649
-1.511479 -1.397253 0.958083
-1.524933 -1.388906 0.962594
-1.499807 -1.373357 0.952297
-1.512602 -1.364854 0.956574
-1.506780 -1.353008 0.953720
-1.507760 -1.342385 0.953487
-1.513967 -1.332623 0.955267
-1.517128 -1.322331 0.955891
-1.517890 -1.311654 0.955609
-1.527359 -1.302277 0.958665
-1.528110 -1.291568 0.958403
-1.522339 -1.279961 0.955665
-1.528069 -1.269959 0.957327
-1.530920 -1.259541 0.957904
-1.539949 -1.249868 0.960845
-1.534897 -1.238445 0.958438
-1.515883 -1.225497 0.950738
-1.517933 -1.215032 0.951066
-1.529049 -1.205493 0.954852
-1.534494 -1.195290 0.956494
-1.510682 -1.182298 0.947046
-1.494463 -1.170221 0.940501
-1.506452 -1.160669 0.944672
-1.515005 -1.150731 0.947551
-1.528610 -1.141082 0.952355
-1.525683 -1.130161 0.950911
-1.542169 -1.120509 0.956831
-1.548830 -1.110114 0.959044
-1.549923 -1.099350 0.959165
-1.553295 -1.088684 0.960162
-1.552673 -1.077806 0.959665
-1.548252 -1.066780 0.957748
-1.529949 -1.055320 0.950603
-1.522292 -1.044345 0.947498
-1.523447 -1.033654 0.947737
-1.538410 -1.023209 0.953203
-1.534919 -1.012344 0.951717
-1.536076 -1.001549 0.952000
-1.534876 -0.990722 0.951408
-1.543214 -0.979892 0.954428
-1.546709 -0.968995 0.955635
-1.549835 -0.958058 0.956716
-1.559053 -0.946983 0.960106
-1.557467 -0.936029 0.959435
-1.565747 -0.924827 0.962496
-1.570737 -0.913633 0.964327
-1.543116 -0.903545 0.953874
-1.542378 -0.892630 0.953566
-1.546024 -0.881512 0.954918
-1.555808 -0.870039 0.958591
-1.566304 -0.858422 0.962538
-1.533974 -0.849304 0.950347
-1.533135 -0.838432 0.950029
-1.545316 -0.826643 0.954620
-1.547114 -0.815523 0.955296
-1.543516 -0.804827 0.953935
-1.541429 -0.794046 0.953140
-1.574516 -0.780089 0.965596
-1.570312 -0.769403 0.963987
-1.562367 -0.759157 0.960955
-1.545069 -0.750007 0.954384
-1.538707 -0.739842 0.951919
-1.546115 -0.728175 0.954623
-1.564563 -0.715137 0.961462
-1.569333 -0.703685 0.963121
-1.564130 -0.693544 0.960994
-1.538547 -0.686280 0.951163
-1.545385 -0.674767 0.953506
-1.536422 -0.665557 0.949865
-1.540426 -0.654560 0.951063
-1.536663 -0.644812 0.949297
-1.529531 -0.635727 0.946221
-1.543351 -0.623358 0.950970
-1.554573 -0.611402 0.954688
-1.564933 -0.599600 0.958026
-1.570220 -0.588722 0.959404
-1.582110 -0.576710 0.963196
-1.583788 -0.566628 0.963103
-1.591716 -0.555465 0.965288
-1.594290 -0.545414 0.965410
-1.609314 -0.532991 0.970116
-1.600632 -0.525421 0.965917
-1.592086 -0.518037 0.961719
-1.594877 -0.508462 0.961685
-1.579465 -0.502945 0.954835
-1.591289 -0.491704 0.958043
-1.587731 -0.483961 0.955490
-1.521642 -0.490630 0.929780
-1.116057 -2.933711 0.973451
-1.061979 -2.860448 0.947056
-1.079077 -2.866152 0.954738
-1.096916 -2.872236 0.962675
-1.090544 -2.851626 0.958914
-1.085162 -2.832026 0.955541
-1.060647 -2.791924 0.942941
-1.067106 -2.784912 0.945060
-1.075118 -2.779291 0.947824
-1.087478 -2.777943 0.952558
-1.105198 -2.781811 0.959735
-1.106991 -2.768914 0.959243
-1.101387 -2.748348 0.955159
-1.117780 -2.749987 0.961405
-1.125127 -2.742202 0.963275
-1.097943 -2.699952 0.948793
-1.094973 -2.681923 0.945674
-1.115788 -2.687077 0.953648
-1.107940 -2.664137 0.948107
-1.103528 -2.644595 0.944131
-1.119077 -2.644040 0.949405
-1.124749 -2.633925 0.950010
-1.130842 -2.624108 0.950755
-1.145203 -2.621819 0.955269
-1.155420 -2.615521 0.957806
-1.150977 -2.595823 0.953552
-1.152510 -2.581600 0.952027
-1.150049 -2.563864 0.948656
-1.162165 -2.559035 0.951922
-1.166834 -2.547593 0.951764
-1.193511 -2.555098 0.961567
-1.201350 -2.546172 0.962785
-1.191280 -2.522091 0.955915
-1.192408 -2.507632 0.954111
-1.200933 -2.499374 0.955630
-1.214719 -2.495386 0.959491
-1.221630 -2.485705 0.960269
-1.219638 -2.468878 0.957091
-1.216115 -2.450981 0.953259
-1.224557 -2.442661 0.954747
-1.228464 -2.430792 0.954239
-1.237038 -2.422571 0.955798
-1.251248 -2.418629 0.959835
-1.244544 -2.398803 0.954719
-1.241887 -2.382219 0.951412
-1.238331 -2.365129 0.947750
-1.254755 -2.362821 0.952795
-1.269195 -2.358941 0.956974
-1.282458 -2.354114 0.960645
-1.276761 -2.335765 0.956151
-1.271993 -2.318263 0.952099
-1.276693 -2.307513 0.952147
-1.282594 -2.297626 0.952729
-1.288834 -2.287991 0.953474
-1.303827 -2.284255 0.957963
-1.296630 -2.265649 0.953029
-1.306041 -2.258176 0.955176
-1.319552 -2.253339 0.959069
-1.312337 -2.235064 0.954223
-1.301236 -2.214508 0.947782
-1.306602 -2.204578 0.948308
-1.324817 -2.202676 0.954238
-1.333234 -2.194575 0.956065
-1.328017 -2.178134 0.952214
-1.333212 -2.168130 0.952736
-1.333437 -2.155178 0.951209
-1.330054 -2.140177 0.948210
-1.356716 -2.142829 0.957687
-1.363683 -2.133851 0.959004
-1.366467 -2.122475 0.958609
-1.347937 -2.099122 0.949455
-1.323560 -2.072822 0.937948
-1.362196 -2.081633 0.952361
-1.374627 -2.075749 0.956004
-1.386852 -2.069667 0.959567
-1.370918 -2.048515 0.951638
-1.370486 -2.035784 0.950071
-1.377179 -2.026827 0.951424
-1.396806 -2.024494 0.958041
-1.398676 -2.012973 0.957452
-1.403663 -2.003054 0.958141
-1.411845 -1.994718 0.960135
-1.405742 -1.979355 0.956371
-1.416233 -1.972143 0.959320
-1.452456 -1.977141 0.972628
-1.417874 -1.948399 0.957463
-1.414752 -1.934762 0.954977
-1.418760 -1.924491 0.955368
-1.418835 -1.912443 0.954197
-1.420780 -1.901284 0.953789
-1.400263 -1.880229 0.944437
-1.422715 -1.878197 0.952235
-1.432224 -1.870386 0.954876
-1.427470 -1.856460 0.951857
-1.433172 -1.847014 0.953004
-1.433466 -1.835316 0.952018
-1.431444 -1.822718 0.950129
-1.429823 -1.810349 0.948414
-1.450411 -1.806836 0.955476
-1.471547 -1.803348 0.962746
-1.452893 -1.784359 0.954351
-1.438327 -1.767170 0.947594
-1.436832 -1.755068 0.945994
-1.440117 -1.744783 0.946283
-1.451118 -1.737297 0.949601
-1.473111 -1.733653 0.957220
-1.465466 -1.719389 0.953253
-1.450261 -1.702632 0.946356
-1.457090 -1.693582 0.948070
-1.462469 -1.684008 0.949226
-1.462436 -1.672627 0.948284
-1.463293 -1.661571 0.947699
-1.461215 -1.649605 0.945987
-1.468189 -1.640533 0.947794
-1.466833 -1.628853 0.946383
-1.482727 -1.622445 0.951654
-1.499237 -1.616083 0.957160
-1.512728 -1.608695 0.961500
-1.519575 -1.599291 0.963278
-1.510173 -1.585270 0.958805
-1.519279 -1.576494 0.961470
-1.524196 -1.566516 0.962529
-1.523805 -1.555105 0.961557
-1.518744 -1.542511 0.958806
-1.513676 -1.529997 0.956067
-1.513489 -1.518784 0.955210
-1.518361 -1.508839 0.956300
-1.518717 -1.497788 0.955672
-1.531981 -1.489789 0.959982
-1.546207 -1.481899 0.964662
-1.536682 -1.468558 0.960292
-1.536007 -1.457280 0.959309
-1.552872 -1.449789 0.965010
-1.548180 -1.437643 0.962519
-1.538975 -1.424646 0.958328
-1.541817 -1.414160 0.958726
-1.544513 -1.403639 0.959078
-1.518033 -1.387604 0.948388
-1.532011 -1.379288 0.953040
-1.533324 -1.368587 0.952906
-1.541310 -1.359050 0.955305
-1.534571 -1.346968 0.952151
-1.533997 -1.335979 0.951339
-1.540320 -1.326104 0.953141
-1.540923 -1.315304 0.952797
-1.556962 -1.306805 0.958279
-1.555056 -1.295584 0.957011
-1.543467 -1.283053 0.952116
-1.540334 -1.271780 0.950418
-1.561431 -1.263664 0.957837
-1.561832 -1.252792 0.957490
-1.558975 -1.241538 0.955934
-1.560481 -1.230818 0.956029
-1.552131 -1.219020 0.952444
-1.554658 -1.208440 0.952951
-1.559440 -1.198064 0.954315
-1.558558 -1.187115 0.953573
-1.558158 -1.176222 0.953025
-1.576571 -1.166916 0.959526
-1.583800 -1.156546 0.961856
-1.578521 -1.145181 0.959527
-1.573359 -1.133878 0.957258
-1.565382 -1.122445 0.953956
-1.568900 -1.111770 0.954960
-1.566075 -1.100715 0.953613
-1.570526 -1.090044 0.954994
-1.585346 -1.079784 0.960255
-1.585033 -1.068777 0.959889
-1.581538 -1.057659 0.958353
-1.556664 -1.045940 0.948874
-1.555987 -1.035053 0.948422
-1.558030 -1.024219 0.948997
-1.554036 -1.013268 0.947342
-1.540007 -1.002252 0.941968
-1.568583 -0.991562 0.952459
-1.564873 -0.980590 0.950952
-1.570232 -0.969596 0.952834
-1.581406 -0.958477 0.956890
-1.581777 -0.947402 0.956942
-1.585120 -0.936251 0.958113
-1.577583 -0.925332 0.955251
-1.582659 -0.914094 0.957089
-1.583138 -0.902957 0.957230
-1.578762 -0.892001 0.955576
-1.587054 -0.880505 0.958639
-1.592030 -0.869084 0.960477
-1.582144 -0.858431 0.956799
-1.577013 -0.847583 0.954893
-1.570633 -0.836865 0.952527
-1.569985 -0.825804 0.952293
-1.569381 -0.814747 0.952077
-1.565028 -0.804000 0.950466
-1.594825 -0.790377 0.961544
-1.598239 -0.778856 0.962810
-1.596666 -0.767792 0.962216
-1.577501 -0.758534 0.955072
-1.568553 -0.748408 0.951713
-1.577396 -0.736426 0.954951
-1.582080 -0.724869 0.956624
-1.587140 -0.713257 0.958416
-1.595338 -0.701242 0.961348
-1.592443 -0.690644 0.960132
-1.580726 -0.681325 0.955609
-1.579768 -0.670672 0.955050
-1.585132 -0.659178 0.956802
-1.580739 -0.649170 0.954893
-1.572031 -0.639954 0.951344
-1.573621 -0.629266 0.951570
-1.577436 -0.618291 0.952575
-1.575694 -0.608320 0.951470
-1.588077 -0.596023 0.955543
-1.596009 -0.584518 0.957911
-1.601339 -0.573536 0.959259
-1.601134 -0.563665 0.958504
-1.597208 -0.554638 0.956319
-1.605740 -0.543342 0.958671
-1.624003 -0.530166 0.964543
-1.628894 -0.519706 0.965422
-1.625277 -0.511122 0.963114
-1.624496 -0.502113 0.961793
-1.622885 -0.493439 0.960110
-1.623391 -0.484461 0.959148
-1.629225 -0.474437 0.960077
-1.545403 -0.484944 0.928237
-1.113334 -2.903304 0.959223
-1.110738 -2.886711 0.957339
-1.114351 -2.876727 0.958297
