ply
format ascii 1.0
comment ---
element vertex 1678
property float x
property float y
property float z
element face 0
property list uchar uint vertex_indices
end_header
0.513422 2.245086 -0.680874
0.528231 2.227129 -0.677501
0.544306 2.221564 -0.676632
0.562343 2.232700 -0.679141
0.578186 2.225288 -0.677903
0.596687 2.238845 -0.680908
0.612496 2.231293 -0.679645
0.628099 2.222680 -0.678168
0.644770 2.221961 -0.678292
0.660145 2.212481 -0.676642
0.675876 2.205808 -0.675563
0.691641 2.199650 -0.674589
0.711228 2.217143 -0.678417
0.726765 2.209456 -0.677139
0.743920 2.211436 -0.677826
0.760243 2.208520 -0.677522
0.776004 2.202577 -0.676605
0.792782 2.202254 -0.676834
0.809968 2.203949 -0.677476
0.824879 2.193921 -0.675737
0.839389 2.182285 -0.673672
0.855301 2.177845 -0.673075
0.871843 2.176453 -0.673102
0.892247 2.192795 -0.676749
0.910179 2.197152 -0.677958
0.928173 2.201464 -0.679164
0.944243 2.197165 -0.678617
0.958691 2.186070 -0.676686
0.972958 2.174539 -0.674669
0.988086 2.166826 -0.673436
1.008185 2.179026 -0.676279
1.022462 2.167928 -0.674362
1.037114 2.158547 -0.672801
1.053789 2.156950 -0.672837
1.071435 2.158830 -0.673592
1.088683 2.159052 -0.674014
1.104446 2.153843 -0.673328
1.118058 2.141158 -0.671112
1.133779 2.135971 -0.670440
1.155261 2.150182 -0.673761
1.168138 2.135277 -0.671105
1.186786 2.139465 -0.672381
1.203583 2.137416 -0.672382
1.220877 2.136819 -0.672689
1.240510 2.143298 -0.674463
1.257736 2.142048 -0.674652
1.272216 2.132401 -0.673117
1.291135 2.135973 -0.674317
1.310397 2.140234 -0.675670
1.329103 2.142567 -0.676634
1.345789 2.138924 -0.676372
1.359874 2.127944 -0.674598
1.480921 2.254748 -0.703037
-1.732389 2.863944 -0.817945
-1.716012 2.880486 -0.821092
-1.687927 2.871127 -0.818922
-1.659115 2.859828 -0.816347
-1.628284 2.843493 -0.812736
-1.604361 2.842786 -0.812320
-1.580084 2.841085 -0.811699
-1.553791 2.834330 -0.810043
-1.530469 2.834448 -0.809794
-1.509154 2.839327 -0.810520
-1.484427 2.835558 -0.809482
-1.457079 2.824767 -0.807015
-1.433607 2.823412 -0.806482
-1.406170 2.811357 -0.803771
-1.384308 2.813484 -0.803962
-1.364113 2.819877 -0.805031
-1.332634 2.795257 -0.799784
-1.312704 2.801695 -0.800880
-1.298411 2.823936 -0.805206
-1.270606 2.807809 -0.801721
-1.249947 2.811666 -0.802318
-1.215573 2.774738 -0.794619
-1.198965 2.789726 -0.797505
-1.176194 2.786046 -0.796599
-1.148137 2.765500 -0.792271
-1.125673 2.761624 -0.791347
-1.103102 2.756956 -0.790274
-0.963751 2.433048 -0.724163
-0.942680 2.426491 -0.722744
-0.921031 2.417434 -0.720826
-0.901285 2.414446 -0.720152
-0.882485 2.414456 -0.720097
-0.864999 2.418980 -0.720969
-0.848551 2.427254 -0.722613
-0.829873 2.427173 -0.722566
-0.809419 2.420007 -0.721088
-0.786130 2.401177 -0.717246
-0.764273 2.387083 -0.714376
-0.748367 2.396484 -0.716291
-0.731216 2.400851 -0.717191
-0.712414 2.398146 -0.716660
-0.694322 2.398189 -0.716696
-0.679762 2.413722 -0.719890
-0.659924 2.405742 -0.718309
-0.634040 2.369083 -0.710903
-0.627255 2.421374 -0.721594
-0.607957 2.415013 -0.720364
-0.584366 2.386722 -0.714679
-0.566587 2.386553 -0.714720
-0.548167 2.382832 -0.714046
-0.523912 2.347327 -0.706909
-0.512713 2.381908 -0.714040
-0.494681 2.379418 -0.713634
-0.477945 2.384189 -0.714711
-0.459411 2.378276 -0.713618
-0.441530 2.375892 -0.713250
-0.425377 2.384236 -0.715071
-0.407478 2.381479 -0.714636
-0.389459 2.377582 -0.713974
-0.371619 2.374536 -0.713491
-0.354750 2.378215 -0.714382
-0.336382 2.370745 -0.713005
-0.318222 2.364210 -0.711822
-0.301071 2.365251 -0.712188
-0.283568 2.363281 -0.711944
-0.266419 2.364159 -0.712285
-0.248237 2.355527 -0.710690
-0.230324 2.348595 -0.709444
-0.211332 2.330041 -0.705828
-0.192851 2.314930 -0.702917
-0.176533 2.322216 -0.704582
-0.158656 2.311915 -0.702659
-0.142649 2.323606 -0.705232
-0.125179 2.317340 -0.704138
-0.108835 2.326072 -0.706114
-0.091812 2.325739 -0.706239
-0.073840 2.309828 -0.703179
-0.057097 2.312934 -0.704013
-0.041362 2.336017 -0.708938
-0.024384 2.337344 -0.709414
-0.007077 2.331204 -0.708363
0.009623 2.339651 -0.710302
0.026571 2.343008 -0.711202
0.043978 2.331203 -0.708996
0.061316 2.317622 -0.706426
0.078664 2.296638 -0.702339
0.095495 2.298816 -0.703003
0.112367 2.299167 -0.703294
0.129210 2.307527 -0.705232
0.146120 2.276770 -0.699140
0.162898 2.276109 -0.699228
0.179670 2.275050 -0.699235
0.196347 2.267942 -0.698001
0.213185 2.272290 -0.699124
0.230055 2.276002 -0.700117
0.246938 2.278761 -0.700917
0.263571 2.273170 -0.700001
0.279811 2.258599 -0.697236
0.296766 2.263577 -0.698498
0.313488 2.262569 -0.698528
0.330663 2.270192 -0.700339
0.347696 2.273946 -0.701355
0.364197 2.268490 -0.700474
0.380795 2.265117 -0.700024
0.397615 2.265152 -0.700278
0.413990 2.259270 -0.699312
0.429704 2.245873 -0.696796
0.446583 2.247332 -0.697348
0.464645 2.261518 -0.700532
0.480715 2.253414 -0.699113
0.496991 2.248011 -0.698253
0.513106 2.241477 -0.697160
0.527361 2.218546 -0.692676
0.543829 2.216646 -0.692543
0.561195 2.222288 -0.693975
0.579491 2.234849 -0.696843
0.596907 2.239577 -0.698092
0.613612 2.238570 -0.698155
0.629576 2.232211 -0.697111
0.644698 2.220338 -0.694924
0.661594 2.221037 -0.695348
0.676914 2.211337 -0.693615
0.695316 2.221564 -0.696023
0.709924 2.207861 -0.693462
0.727589 2.213006 -0.694821
0.746419 2.224484 -0.697502
0.763440 2.225061 -0.697919
0.776449 2.203559 -0.693745
0.791445 2.193645 -0.691983
0.809100 2.197921 -0.693180
0.827281 2.204531 -0.694867
0.843654 2.201773 -0.694607
0.857095 2.184887 -0.691403
0.875132 2.190314 -0.692857
0.891430 2.187362 -0.692567
0.911571 2.201715 -0.695896
0.928558 2.201428 -0.696173
0.944101 2.194795 -0.695129
0.958628 2.184022 -0.693221
0.973516 2.175046 -0.691694
0.989906 2.172376 -0.691490
1.003729 2.159478 -0.689149
1.015700 2.139732 -0.685375
1.035360 2.149953 -0.687888
1.054738 2.158584 -0.690075
1.070629 2.153921 -0.689480
1.087975 2.154526 -0.689997
1.104245 2.151134 -0.689681
1.119936 2.145685 -0.688938
1.137890 2.148005 -0.689837
1.153489 2.142157 -0.689023
1.172257 2.146815 -0.690428
1.186641 2.136886 -0.688769
1.205312 2.140816 -0.690037
1.225384 2.148839 -0.692179
1.244312 2.152882 -0.693491
1.260717 2.148923 -0.693122
1.275993 2.141506 -0.692029
1.290507 2.131869 -0.690475
1.309397 2.135051 -0.691641
1.325160 2.128978 -0.690856
1.340611 2.121999 -0.689887
1.353263 2.107237 -0.687275
-1.721673 2.836106 -0.833302
-1.710606 2.864061 -0.838905
-1.689017 2.869113 -0.839683
-1.661260 2.860226 -0.837525
-1.630720 2.844613 -0.833950
-1.607545 2.845702 -0.833876
-1.585032 2.848262 -0.834107
-1.562085 2.849694 -0.834100
-1.540019 2.853134 -0.834513
-1.512027 2.841825 -0.831840
-1.485512 2.833673 -0.829832
-1.463642 2.836848 -0.830201
-1.438050 2.830264 -0.828534
-1.412914 2.824406 -0.827026
-1.386940 2.815871 -0.824967
-1.364586 2.816542 -0.824841
-1.345845 2.826823 -0.826733
-1.323330 2.826626 -0.826443
-1.295688 2.811651 -0.823078
-1.277529 2.823058 -0.825232
-1.246068 2.795796 -0.819325
-1.219377 2.781448 -0.816127
-1.195924 2.776046 -0.814806
-1.173246 2.772513 -0.813888
-1.151883 2.772627 -0.813741
-1.128371 2.765643 -0.812126
-1.103564 2.753959 -0.809543
-1.046343 2.635772 -0.784774
-0.963902 2.429444 -0.741656
-0.944654 2.429071 -0.741474
-0.924613 2.425680 -0.740673
-0.903842 2.419333 -0.739266
-0.883222 2.413026 -0.737877
-0.865970 2.418447 -0.738942
-0.849706 2.427467 -0.740765
-0.832095 2.431495 -0.741557
-0.811737 2.424868 -0.740141
-0.788160 2.405115 -0.736000
-0.768261 2.399024 -0.734713
-0.749298 2.396271 -0.734130
-0.730058 2.392013 -0.733242
-0.710113 2.384347 -0.731653
-0.694695 2.395798 -0.734052
-0.678907 2.405894 -0.736178
-0.640643 2.395759 -0.734138
-0.618914 2.377683 -0.730419
-0.603796 2.390716 -0.733187
-0.584286 2.382298 -0.731495
-0.565955 2.379287 -0.730935
-0.548906 2.382660 -0.731712
-0.531457 2.383882 -0.732048
-0.512246 2.375262 -0.730338
-0.496710 2.386850 -0.732847
-0.477929 2.379999 -0.731519
-0.460685 2.381808 -0.732001
-0.436840 2.342773 -0.723974
-0.423160 2.365952 -0.728923
-0.407246 2.375768 -0.731092
-0.386752 2.354998 -0.726887
-0.371711 2.370946 -0.730346
-0.355386 2.378555 -0.732071
-0.337285 2.373222 -0.731100
-0.319101 2.366723 -0.729890
-0.301950 2.367980 -0.730304
-0.283940 2.361979 -0.729206
-0.266331 2.358880 -0.728719
-0.248749 2.355668 -0.728211
-0.230427 2.344959 -0.726141
-0.210962 2.321644 -0.721438
-0.194329 2.325784 -0.722477
-0.179268 2.347755 -0.727248
-0.161406 2.339228 -0.725646
-0.143269 2.326207 -0.723107
-0.126469 2.329144 -0.723908
-0.110492 2.344009 -0.727211
-0.091450 2.314670 -0.721262
-0.074402 2.313172 -0.721144
-0.057731 2.318055 -0.722365
-0.041280 2.328027 -0.724656
-0.024450 2.331943 -0.725681
-0.007282 2.328790 -0.725228
0.010742 2.302097 -0.719840
0.027560 2.304337 -0.720520
0.044043 2.319283 -0.723870
0.061199 2.311635 -0.722481
0.078118 2.312879 -0.722960
0.095255 2.299500 -0.720370
0.112148 2.299195 -0.720528
0.129073 2.291597 -0.719155
0.145935 2.298378 -0.720806
0.162778 2.288125 -0.718877
0.179581 2.283294 -0.718090
0.196407 2.282824 -0.718222
0.213127 2.276843 -0.717195
0.229991 2.278928 -0.717868
0.246785 2.277737 -0.717853
0.263249 2.266914 -0.715811
0.280081 2.268187 -0.716317
0.296841 2.267322 -0.716376
0.313644 2.267408 -0.716636
0.330792 2.273862 -0.718242
0.348080 2.281542 -0.720109
0.364407 2.272500 -0.718449
0.380920 2.267399 -0.717622
0.397881 2.269085 -0.718230
0.414460 2.265469 -0.717719
0.430222 2.252136 -0.715156
0.447789 2.261093 -0.717306
0.463706 2.250882 -0.715406
0.479602 2.241368 -0.713653
0.496470 2.242301 -0.714112
0.513007 2.239905 -0.713869
0.528802 2.230896 -0.712227
0.544702 2.223449 -0.710917
0.561450 2.223558 -0.711209
0.579573 2.234574 -0.713817
0.597061 2.239773 -0.715196
0.613282 2.235075 -0.714477
0.629430 2.230068 -0.713695
0.646138 2.229178 -0.713789
0.661461 2.218947 -0.711902
0.680523 2.233567 -0.715298
0.694500 2.215132 -0.711671
0.709954 2.206720 -0.710176
0.727507 2.211153 -0.711416
0.747292 2.228106 -0.715326
0.762060 2.215860 -0.713024
0.776224 2.200852 -0.710136
0.791233 2.191008 -0.708349
0.809220 2.196997 -0.709940
0.828917 2.211226 -0.713295
0.847191 2.217624 -0.714985
0.865035 2.221525 -0.716148
0.873565 2.181264 -0.707883
0.892107 2.188776 -0.709824
0.910540 2.195339 -0.711569
0.926794 2.191899 -0.711181
0.943074 2.188583 -0.710823
0.959131 2.184330 -0.710270
0.974499 2.177270 -0.709120
0.990592 2.173289 -0.708635
1.006178 2.167315 -0.707727
1.019261 2.151689 -0.704754
1.035504 2.148574 -0.704469
1.052959 2.149962 -0.705157
1.072588 2.159136 -0.707525
1.087216 2.149776 -0.705918
1.103493 2.146437 -0.705610
1.123358 2.155541 -0.707988
1.139957 2.152993 -0.707866
1.154394 2.143096 -0.706168
1.173065 2.147352 -0.707527
1.197875 2.171236 -0.713131
1.203387 2.132485 -0.705226
1.226623 2.150527 -0.709590
1.246178 2.156421 -0.711341
1.262204 2.151191 -0.710697
1.277750 2.144492 -0.709743
1.294259 2.140643 -0.709414
1.308454 2.129990 -0.707619
1.325004 2.126189 -0.707318
1.339232 2.115752 -0.705585
1.352998 2.104126 -0.703601
-1.927015 2.824011 -0.853424
-1.719925 2.827870 -0.852636
-1.706803 2.851145 -0.857347
-1.686590 2.859126 -0.858753
-1.664325 2.862624 -0.859183
-1.629811 2.837933 -0.853546
-1.609182 2.844909 -0.854711
-1.590807 2.857287 -0.857032
-1.568279 2.859892 -0.857250
-1.538958 2.845860 -0.853899
-1.510545 2.833472 -0.850904
-1.485914 2.829980 -0.849823
-1.463721 2.832338 -0.850001
-1.441266 2.833837 -0.850000
-1.415756 2.827128 -0.848248
-1.389179 2.817108 -0.845796
-1.363299 2.808379 -0.843630
-1.348078 2.828212 -0.847587
-1.324627 2.825515 -0.846732
-1.301534 2.823434 -0.846019
-1.270612 2.798569 -0.840447
-1.244235 2.785812 -0.837476
-1.220160 2.779124 -0.835815
-1.197261 2.775434 -0.834807
-1.178140 2.782827 -0.836179
-1.152516 2.769984 -0.833240
-1.131712 2.771587 -0.833399
-1.095489 2.723511 -0.822966
-1.039410 2.608749 -0.798319
-0.962959 2.422136 -0.758363
-0.943869 2.422249 -0.758262
-0.925059 2.423051 -0.758319
-0.906571 2.424729 -0.758574
-0.882875 2.407658 -0.754841
-0.863156 2.404107 -0.754002
-0.847578 2.415467 -0.756352
-0.832235 2.427886 -0.758937
-0.812624 2.424150 -0.758088
-0.791985 2.415990 -0.756306
-0.770591 2.404243 -0.753770
-0.750927 2.398827 -0.752592
-0.728787 2.382651 -0.749130
-0.710597 2.382339 -0.749057
-0.693510 2.386577 -0.749964
-0.680104 2.407111 -0.754352
-0.661298 2.403863 -0.753680
-0.638529 2.381871 -0.749021
-0.618542 2.371849 -0.746921
-0.603320 2.384312 -0.749622
-0.587160 2.392522 -0.751423
-0.567516 2.383168 -0.749488
-0.549673 2.382576 -0.749428
-0.530285 2.373472 -0.747560
-0.512589 2.373038 -0.747547
-0.494832 2.372065 -0.747426
-0.479406 2.384447 -0.750160
-0.457271 2.357167 -0.744439
-0.440454 2.360936 -0.745349
-0.422015 2.354467 -0.744079
-0.403112 2.344392 -0.742045
-0.385137 2.339806 -0.741188
-0.369331 2.349981 -0.743487
-0.355201 2.372879 -0.748509
-0.336976 2.366534 -0.747293
-0.317626 2.350827 -0.744081
-0.301511 2.359970 -0.746182
-0.285209 2.368167 -0.748086
-0.266882 2.359167 -0.746320
-0.248999 2.353337 -0.745234
-0.230354 2.339587 -0.742460
-0.211947 2.326810 -0.739896
-0.196463 2.343457 -0.743629
-0.179858 2.349356 -0.745068
-0.162182 2.343270 -0.743947
-0.144644 2.338112 -0.743026
-0.127761 2.340876 -0.743806
-0.108952 2.316855 -0.738852
-0.091808 2.314416 -0.738522
-0.074925 2.315810 -0.739017
-0.058154 2.319369 -0.739979
-0.041137 2.318811 -0.740061
-0.024069 2.317038 -0.739886
-0.007038 2.315729 -0.739812
0.010278 2.306541 -0.738051
0.027409 2.300347 -0.736934
0.044322 2.299802 -0.737031
0.061078 2.305775 -0.738531
0.077864 2.313309 -0.740369
0.094741 2.319591 -0.741941
0.111971 2.294399 -0.736752
0.128867 2.290857 -0.736216
0.145735 2.288282 -0.735890
0.162592 2.287817 -0.736019
0.179472 2.289622 -0.736640
0.196265 2.284053 -0.735675
0.213158 2.286062 -0.736343
0.229866 2.279410 -0.735147
0.246714 2.279588 -0.735425
0.263346 2.273130 -0.734274
0.280233 2.274716 -0.734859
0.297611 2.287165 -0.737789
0.314042 2.277282 -0.735904
0.331028 2.279536 -0.736639
0.347655 2.275069 -0.735925
0.363982 2.266333 -0.734292
0.380882 2.267258 -0.734745
0.398156 2.273138 -0.736272
0.414056 2.260258 -0.733746
0.430745 2.258461 -0.733618
0.446926 2.250864 -0.732236
0.462836 2.240989 -0.730363
0.479064 2.235298 -0.729395
0.495567 2.232784 -0.729118
0.514316 2.251659 -0.733476
0.530045 2.241429 -0.731531
0.547665 2.248362 -0.733309
0.564611 2.249022 -0.733730
0.578556 2.225488 -0.728904
0.596100 2.231352 -0.730458
0.612923 2.231334 -0.730739
0.629213 2.227386 -0.730169
0.646509 2.230581 -0.731153
0.662124 2.222175 -0.729619
0.678006 2.215934 -0.728558
0.693985 2.210573 -0.727691
0.708658 2.197447 -0.725136
0.726930 2.206332 -0.727375
0.744422 2.210111 -0.728507
0.760482 2.205530 -0.727821
0.775568 2.195765 -0.726009
0.790986 2.188158 -0.724670
0.808341 2.190866 -0.725584
0.828243 2.206206 -0.729260
0.846930 2.214686 -0.731446
0.862528 2.207763 -0.730273
0.872979 2.176809 -0.723852
0.893093 2.191584 -0.727429
0.909679 2.189702 -0.727370
0.928399 2.197165 -0.729361
0.944113 2.191236 -0.728428
0.958513 2.179880 -0.726309
0.974618 2.175891 -0.725809
0.991158 2.173682 -0.725705
1.006092 2.165049 -0.724198
1.021571 2.158728 -0.723202
1.034765 2.143788 -0.720319
1.052964 2.147989 -0.721645
1.071561 2.153339 -0.723232
1.087444 2.148552 -0.722598
1.107087 2.157092 -0.724904
1.123577 2.154198 -0.724702
1.138039 2.144311 -0.722966
1.156644 2.148508 -0.724341
1.174275 2.149171 -0.724947
1.187552 2.135500 -0.722396
1.208708 2.147261 -0.725470
1.226130 2.146722 -0.725837
1.246607 2.155461 -0.728266
1.261458 2.146616 -0.726814
1.277370 2.141026 -0.726092
1.292734 2.133796 -0.725014
1.311022 2.135075 -0.725832
1.326538 2.128184 -0.724848
1.348390 2.139133 -0.727836
1.381580 2.180999 -0.737713
-1.725570 2.835732 -0.875477
-1.712409 2.859002 -0.880280
-1.691371 2.865237 -0.881312
-1.665294 2.860173 -0.879845
-1.635095 2.845432 -0.876241
-1.606623 2.834237 -0.873412
-1.594518 2.861317 -0.878999
-1.571052 2.861766 -0.878724
-1.540735 2.845403 -0.874756
-1.514880 2.839381 -0.873064
-1.487947 2.830276 -0.870699
-1.466217 2.833867 -0.871127
-1.440653 2.827450 -0.869365
-1.415268 2.821046 -0.867614
-1.392285 2.820539 -0.867166
-1.370934 2.824119 -0.867621
-1.341668 2.805906 -0.863313
-1.321778 2.812816 -0.864519
-1.295170 2.800726 -0.861576
-1.269358 2.790221 -0.858993
-1.242685 2.776569 -0.855735
-1.221111 2.777201 -0.855614
-1.201499 2.783422 -0.856728
-1.178074 2.777908 -0.855288
-1.155078 2.773223 -0.854042
-1.130877 2.764273 -0.851878
-1.116923 2.787507 -0.856757
-0.963338 2.419138 -0.775977
-0.943990 2.418411 -0.775674
-0.925028 2.418705 -0.775604
-0.904277 2.412485 -0.774125
-0.881034 2.396904 -0.770615
-0.862441 2.397321 -0.770606
-0.847014 2.409182 -0.773105
-0.831571 2.421178 -0.775643
-0.813454 2.423134 -0.776001
-0.793149 2.416358 -0.774466
-0.773234 2.410620 -0.773167
-0.749032 2.386954 -0.767968
-0.729522 2.381567 -0.766766
-0.710415 2.377429 -0.765845
-0.694850 2.388249 -0.768195
-0.678465 2.395690 -0.769818
-0.659269 2.390513 -0.768698
-0.638693 2.378494 -0.766094
-0.620175 2.375464 -0.765460
-0.604096 2.383934 -0.767341
-0.588880 2.396911 -0.770213
-0.569770 2.390500 -0.768865
-0.549747 2.378797 -0.766370
-0.532344 2.380352 -0.766775
-0.509993 2.354563 -0.761221
-0.493688 2.361397 -0.762791
-0.477405 2.368583 -0.764445
-0.460918 2.374804 -0.765895
-0.442628 2.370115 -0.764971
-0.423690 2.360865 -0.763058
-0.404686 2.350454 -0.760897
-0.385311 2.336708 -0.758012
-0.369637 2.347795 -0.760556
-0.352525 2.349109 -0.760971
-0.335297 2.349522 -0.761195
-0.318525 2.353389 -0.762179
-0.302281 2.361700 -0.764140
-0.285208 2.363597 -0.764704
-0.267160 2.356993 -0.763415
-0.248339 2.342635 -0.760435
-0.230193 2.333330 -0.758563
-0.213341 2.335993 -0.759312
-0.197212 2.346453 -0.761772
-0.179828 2.344017 -0.761414
-0.162155 2.337848 -0.760244
-0.145186 2.339608 -0.760812
-0.126951 2.324840 -0.757765
-0.109410 2.317783 -0.756409
-0.092262 2.315559 -0.756114
-0.075357 2.316894 -0.756603
-0.058355 2.316710 -0.756762
-0.041274 2.314947 -0.756578
-0.024107 2.310967 -0.755911
-0.006670 2.299757 -0.753659
0.010096 2.303470 -0.754685
0.026825 2.309357 -0.756190
0.043903 2.304942 -0.755437
0.060852 2.304299 -0.755515
0.077825 2.302120 -0.755258
0.094519 2.318534 -0.759088
0.111654 2.304528 -0.756237
0.128694 2.282739 -0.751674
0.145535 2.282008 -0.751743
0.162376 2.281802 -0.751930
0.179283 2.288110 -0.753552
0.196240 2.293329 -0.754938
0.212785 2.274480 -0.751026
0.229980 2.289772 -0.754634
0.246548 2.278138 -0.752314
0.263451 2.279571 -0.752875
0.280289 2.278790 -0.752949
0.297178 2.279203 -0.753289
0.314033 2.278688 -0.753426
0.330599 2.272624 -0.752341
0.347154 2.267263 -0.751412
0.364308 2.272211 -0.752761
0.381062 2.270360 -0.752611
0.397533 2.264705 -0.751622
0.413761 2.256469 -0.750064
0.429444 2.242396 -0.747217
0.445835 2.237992 -0.746508
0.463860 2.251854 -0.749843
0.479507 2.239441 -0.747366
0.495926 2.235770 -0.746826
0.512959 2.238139 -0.747626
0.531257 2.251659 -0.750899
0.547958 2.250082 -0.750831
0.564119 2.244018 -0.749770
0.578920 2.227435 -0.746377
0.595890 2.228704 -0.746947
0.613897 2.237484 -0.749187
0.630763 2.237365 -0.749455
0.647877 2.238867 -0.750087
0.662639 2.224385 -0.747169
0.676971 2.207921 -0.743812
0.690485 2.187196 -0.739508
0.710091 2.204831 -0.743740
0.727722 2.209616 -0.745118
0.744452 2.208820 -0.745258
0.761276 2.208487 -0.745506
0.777708 2.205922 -0.745260
0.792814 2.196318 -0.743448
0.809987 2.197801 -0.744112
0.826814 2.197338 -0.744347
0.843288 2.195043 -0.744178
0.859301 2.190514 -0.743514
0.876250 2.190471 -0.743857
0.891265 2.181415 -0.742190
0.913779 2.206339 -0.748128
0.928826 2.197216 -0.746458
0.943125 2.185130 -0.744127
0.958515 2.178005 -0.742912
0.976030 2.179811 -0.743704
0.991873 2.174641 -0.742937
1.006725 2.165602 -0.741309
1.020665 2.153228 -0.738936
1.040262 2.162738 -0.741484
1.055802 2.156568 -0.740517
1.069081 2.142172 -0.737706
1.091976 2.162796 -0.742779
1.109427 2.163253 -0.743325
1.122623 2.148738 -0.740507
1.138080 2.142285 -0.739512
1.156817 2.146892 -0.741017
1.172706 2.141770 -0.740337
1.189138 2.138407 -0.740063
1.207777 2.142015 -0.741372
1.228061 2.150486 -0.743791
1.241246 2.136569 -0.741158
1.259962 2.139713 -0.742394
1.273320 2.126530 -0.739942
1.290661 2.125294 -0.740205
1.312265 2.136257 -0.743248
1.331136 2.138875 -0.744410
1.345701 2.129087 -0.742766
1.378472 2.169847 -0.752625
-1.936837 2.669894 -0.860930
-1.969850 2.856336 -0.903299
-1.742357 2.867824 -0.903911
-1.720395 2.872025 -0.904505
-1.694072 2.866595 -0.902911
-1.655503 2.833229 -0.895011
-1.644697 2.862755 -0.901273
-1.616872 2.853340 -0.898756
-1.592783 2.852384 -0.898138
-1.572627 2.860673 -0.899599
-1.549636 2.862144 -0.899524
-1.520388 2.848064 -0.895956
-1.495288 2.843724 -0.894582
-1.467973 2.833420 -0.891874
-1.444413 2.832216 -0.891218
-1.416945 2.820525 -0.888216
-1.393922 2.819973 -0.887723
-1.372572 2.823615 -0.888179
-1.344834 2.809658 -0.884701
-1.318434 2.798675 -0.881903
-1.294585 2.794212 -0.880579
-1.268516 2.782968 -0.877748
-1.247319 2.785179 -0.877943
-1.224752 2.783108 -0.877193
-1.200622 2.775976 -0.875323
-1.180815 2.781442 -0.876285
-1.156145 2.771733 -0.873866
-1.136120 2.775988 -0.874583
-1.099439 2.726813 -0.863376
-1.070536 2.700938 -0.857391
-0.965825 2.423033 -0.795142
-0.945883 2.420460 -0.794402
-0.924999 2.414287 -0.792871
-0.904176 2.407830 -0.791288
-0.883278 2.400602 -0.789546
-0.865608 2.404513 -0.790301
-0.848317 2.409714 -0.791355
-0.831019 2.414824 -0.792400
-0.812715 2.416025 -0.792584
-0.793410 2.413117 -0.791862
-0.773977 2.409329 -0.790954
-0.755396 2.408612 -0.790742
-0.732099 2.388055 -0.786117
-0.715001 2.392668 -0.787114
-0.695524 2.386954 -0.785818
-0.676687 2.383602 -0.785058
-0.658363 2.382199 -0.784743
-0.638718 2.374410 -0.783013
-0.620699 2.373746 -0.782880
-0.603459 2.376630 -0.783547
-0.587868 2.387654 -0.786038
-0.570915 2.392096 -0.787069
-0.550652 2.379295 -0.784264
-0.532997 2.379610 -0.784391
-0.512182 2.362388 -0.780614
-0.492075 2.348042 -0.777486
-0.477095 2.362517 -0.780794
-0.461828 2.375958 -0.783878
-0.444572 2.377786 -0.784380
-0.425827 2.370117 -0.782769
-0.406451 2.357689 -0.780101
-0.388604 2.354640 -0.779533
-0.369219 2.340492 -0.776493
-0.351770 2.339235 -0.776336
-0.335613 2.347435 -0.778296
-0.320339 2.362987 -0.781906
-0.302929 2.362371 -0.781909
-0.284068 2.349407 -0.779160
-0.265632 2.338959 -0.776976
-0.247685 2.331958 -0.775567
-0.230622 2.332655 -0.775883
-0.214713 2.344875 -0.778780
-0.197171 2.341069 -0.778099
-0.179474 2.335044 -0.776925
-0.161937 2.330145 -0.776007
-0.143764 2.316724 -0.773185
-0.126978 2.319781 -0.774054
-0.109678 2.315966 -0.773389
-0.092574 2.314502 -0.773254
-0.075776 2.317705 -0.774167
-0.058995 2.321707 -0.775264
-0.041788 2.318228 -0.774687
-0.024319 2.308501 -0.772713
-0.007094 2.302317 -0.771535
0.009829 2.302532 -0.771795
0.026789 2.301699 -0.771822
0.043508 2.309141 -0.773710
0.060519 2.307216 -0.773498
0.077491 2.306525 -0.773567
0.094482 2.304235 -0.773278
0.111520 2.294707 -0.771366
0.128460 2.287592 -0.769997
0.145336 2.282933 -0.769182
0.162164 2.276673 -0.768008
0.179074 2.284529 -0.770012
0.196131 2.297070 -0.773073
0.213065 2.296717 -0.773236
0.229452 2.273572 -0.768270
0.246701 2.287794 -0.771718
0.263292 2.278198 -0.769805
0.280209 2.279340 -0.770312
0.296801 2.272529 -0.769029
0.314088 2.281413 -0.771287
0.329930 2.261176 -0.766979
0.346489 2.256622 -0.766210
0.364370 2.273832 -0.770354
0.381584 2.278537 -0.771680
0.397698 2.267206 -0.769387
0.413610 2.254530 -0.766791
0.429536 2.243416 -0.764548
0.446613 2.246743 -0.765571
0.463810 2.250935 -0.766792
0.479429 2.238144 -0.764174
0.495365 2.229613 -0.762521
0.512659 2.234619 -0.763935
0.531075 2.249240 -0.767530
0.548700 2.255666 -0.769273
0.562692 2.231212 -0.764021
0.578504 2.223121 -0.762478
0.596382 2.231453 -0.764662
0.614014 2.237244 -0.766274
0.631485 2.241379 -0.767514
0.647679 2.236276 -0.766661
0.662836 2.224440 -0.764281
0.679650 2.224010 -0.764494
0.694021 2.208114 -0.761195
0.711562 2.212414 -0.762491
0.728569 2.213194 -0.762990
0.745266 2.212033 -0.763052
0.762083 2.211489 -0.763259
0.777525 2.203361 -0.761742
0.794821 2.205392 -0.762544
0.810365 2.198128 -0.761231
0.825882 2.190967 -0.759945
0.842095 2.187462 -0.759498
0.859596 2.190203 -0.760481
0.874493 2.180447 -0.758616
0.891965 2.182838 -0.759530
0.910963 2.191850 -0.761965
0.929204 2.197010 -0.763527
0.942599 2.180979 -0.760245
0.959977 2.182247 -0.760929
0.977578 2.184247 -0.761787
0.993402 2.178845 -0.760955
1.006907 2.164325 -0.758038
1.024727 2.166985 -0.759068
1.040972 2.163389 -0.758669
1.058036 2.162843 -0.758977
1.074624 2.160410 -0.758861
1.083244 2.129214 -0.752136
1.108235 2.156873 -0.758956
1.123215 2.148610 -0.757520
1.138606 2.141871 -0.756443
1.156456 2.143442 -0.757288
1.174697 2.146076 -0.758389
1.190856 2.141689 -0.757880
1.211559 2.151757 -0.760719
1.224869 2.138120 -0.758091
1.242316 2.137502 -0.758482
1.253589 2.117956 -0.754501
1.272323 2.121134 -0.755789
1.290113 2.121237 -0.756377
1.315737 2.143844 -0.762197
1.335211 2.148001 -0.763754
1.342891 2.118657 -0.757541
1.363028 2.124477 -0.759506
-1.747999 2.875472 -0.927085
-1.723261 2.873633 -0.926280
-1.692153 2.857537 -0.922170
-1.663708 2.847046 -0.919343
-1.649561 2.869069 -0.923998
-1.624743 2.866779 -0.923041
-1.597143 2.857754 -0.920529
-1.574578 2.860388 -0.920699
-1.552710 2.864622 -0.921235
-1.524994 2.854409 -0.918451
-1.493332 2.833855 -0.913296
-1.474115 2.843966 -0.915193
-1.444612 2.827727 -0.911045
-1.418505 2.819595 -0.908769
-1.393101 2.812811 -0.906811
-1.368657 2.808113 -0.905344
-1.344136 2.802776 -0.903741
-1.319794 2.797467 -0.902157
-1.297778 2.798222 -0.901975
-1.274258 2.794402 -0.900757
-1.251619 2.792697 -0.900037
-1.228492 2.789188 -0.898918
-1.205604 2.785962 -0.897878
-1.183727 2.785386 -0.897458
-1.162360 2.786048 -0.897335
-1.131310 2.756003 -0.890210
-1.103222 2.734087 -0.884959
-1.078995 2.723647 -0.882345
-0.967331 2.423586 -0.813624
-0.947980 2.423101 -0.813327
-0.927523 2.418535 -0.812112
-0.905773 2.409021 -0.809780
-0.886549 2.407848 -0.809364
-0.867460 2.406853 -0.809001
-0.848255 2.405132 -0.808485
-0.830130 2.407140 -0.808830
-0.811478 2.406948 -0.808686
-0.792569 2.405499 -0.808267
-0.775441 2.410831 -0.809405
-0.756388 2.408323 -0.808766
-0.738937 2.412113 -0.809574
-0.718855 2.404692 -0.807838
-0.699686 2.400673 -0.806887
-0.678576 2.387671 -0.803899
-0.658980 2.380712 -0.802299
-0.640028 2.376196 -0.801265
-0.622317 2.377134 -0.801483
-0.604388 2.376859 -0.801434
-0.587224 2.380166 -0.802210
-0.568816 2.377119 -0.801548
-0.551865 2.381329 -0.802547
-0.532458 2.372427 -0.800567
-0.516253 2.380461 -0.802454
-0.499054 2.383155 -0.803133
-0.479541 2.372396 -0.800752
-0.461633 2.370439 -0.800386
-0.444915 2.375520 -0.801631
-0.427059 2.373545 -0.801275
-0.408804 2.368683 -0.800267
-0.390294 2.361639 -0.798767
-0.369581 2.338594 -0.793623
-0.352763 2.341942 -0.794507
-0.337358 2.355987 -0.797837
-0.319980 2.355624 -0.797886
-0.301848 2.349036 -0.796520
-0.284048 2.344584 -0.795646
-0.265646 2.334384 -0.793465
-0.247986 2.329947 -0.792605
-0.232883 2.349394 -0.797205
-0.215158 2.344403 -0.796229
-0.197321 2.337632 -0.794849
-0.179184 2.326745 -0.792533
-0.161560 2.320542 -0.791291
-0.144771 2.323856 -0.792229
-0.127136 2.316386 -0.790705
-0.109446 2.307087 -0.788766
-0.092560 2.308468 -0.789274
-0.076473 2.322918 -0.792777
-0.059675 2.327291 -0.793978
-0.042404 2.323380 -0.793286
-0.025481 2.325953 -0.794083
-0.008276 2.322516 -0.793506
0.009150 2.312382 -0.791397
0.026250 2.309154 -0.790873
0.043189 2.310506 -0.791403
0.060218 2.308687 -0.791208
0.077295 2.303527 -0.790249
0.094422 2.291502 -0.787717
0.111338 2.289937 -0.787587
0.128244 2.288149 -0.787408
0.145136 2.286711 -0.787312
0.162018 2.285160 -0.787193
0.178873 2.281939 -0.786693
0.195867 2.290150 -0.788822
0.212877 2.294858 -0.790150
0.229693 2.289365 -0.789134
0.246180 2.274090 -0.785869
0.263438 2.285923 -0.788844
0.279940 2.274962 -0.786574
0.297225 2.284397 -0.789004
0.313895 2.278983 -0.788015
0.330167 2.266884 -0.785488
0.346737 2.261826 -0.784584
0.364189 2.271564 -0.787095
0.381238 2.273789 -0.787876
0.397710 2.267561 -0.786709
0.414053 2.260330 -0.785313
0.430191 2.251307 -0.783503
0.446859 2.249325 -0.783322
0.463034 2.242019 -0.781913
0.478678 2.229816 -0.779373
0.495306 2.228425 -0.779334
0.513687 2.243653 -0.783143
0.532645 2.262667 -0.787833
0.549262 2.259678 -0.787435
0.562526 2.228900 -0.780605
0.579438 2.229593 -0.781063
0.597176 2.236498 -0.782965
0.614856 2.242369 -0.784631
0.631415 2.239684 -0.784318
0.647459 2.233504 -0.783197
0.664956 2.237360 -0.784408
0.681398 2.234013 -0.783951
0.692631 2.197982 -0.775905
0.710120 2.202181 -0.777205
0.728827 2.213253 -0.780109
0.746115 2.215409 -0.780946
0.759862 2.197486 -0.777115
0.778041 2.204585 -0.779110
0.794456 2.201822 -0.778815
0.809941 2.194266 -0.777408
0.826407 2.191923 -0.777219
0.843594 2.193118 -0.777861
0.860566 2.193103 -0.778226
0.877987 2.195072 -0.779060
0.893260 2.186957 -0.777545
0.910899 2.189696 -0.778572
0.927922 2.189484 -0.778915
0.946009 2.193712 -0.780303
0.962263 2.189913 -0.779821
0.977714 2.182825 -0.778575
0.991930 2.170886 -0.776198
1.009242 2.171535 -0.776776
1.024204 2.162887 -0.775183
1.041591 2.163652 -0.775803
1.060382 2.169482 -0.777620
1.077091 2.167304 -0.777567
1.089749 2.150466 -0.774077
1.106537 2.148666 -0.774127
1.125252 2.153455 -0.775737
1.140380 2.145672 -0.774397
1.157562 2.144869 -0.774709
1.177965 2.154534 -0.777499
1.193887 2.149175 -0.776758
1.209196 2.141854 -0.775563
1.226519 2.140902 -0.775880
1.235366 2.113643 -0.769991
1.257893 2.128587 -0.774086
1.273407 2.121912 -0.773081
1.295357 2.134172 -0.776571
1.311845 2.130034 -0.776190
1.335933 2.147494 -0.780944
1.348960 2.133136 -0.778163
1.362115 2.119344 -0.775525
-1.846425 2.493380 -0.860248
-1.754490 2.884879 -0.950801
-1.721362 2.864655 -0.945623
-1.691575 2.851413 -0.942077
-1.677544 2.873495 -0.946845
-1.652896 2.871776 -0.945989
-1.628361 2.870206 -0.945159
-1.602440 2.865230 -0.943522
-1.573757 2.853388 -0.940268
-1.551097 2.855645 -0.940330
-1.526319 2.852582 -0.939143
-1.495881 2.835134 -0.934580
-1.465980 2.818313 -0.930172
-1.444362 2.821998 -0.930588
-1.419796 2.817870 -0.929177
-1.396653 2.817103 -0.928565
-1.370180 2.807116 -0.925801
-1.343672 2.796441 -0.922890
-1.320953 2.795605 -0.922296
-1.301841 2.804555 -0.924006
-1.280038 2.805812 -0.923927
-1.253935 2.794355 -0.920887
-1.229572 2.787334 -0.918900
-1.208813 2.790529 -0.919317
-1.185663 2.786256 -0.918002
-1.163357 2.784127 -0.917204
-1.132486 2.754745 -0.910056
-1.106321 2.739059 -0.906125
-1.083591 2.733671 -0.904613
-0.967133 2.418426 -0.830823
-0.948621 2.420756 -0.831159
-0.929053 2.419282 -0.830621
-0.910833 2.422171 -0.831114
-0.887988 2.408500 -0.827759
-0.868025 2.404457 -0.826662
-0.850839 2.410209 -0.827861
-0.831462 2.407709 -0.827149
-0.813200 2.409115 -0.827359
-0.795101 2.410961 -0.827684
-0.776690 2.411391 -0.827691
-0.758660 2.413143 -0.828017
-0.739025 2.408085 -0.826769
-0.719500 2.403041 -0.825535
-0.700423 2.399482 -0.824658
-0.681905 2.398015 -0.824279
-0.663633 2.397370 -0.824102
-0.642053 2.381208 -0.820323
-0.625470 2.387692 -0.821826
-0.606088 2.380740 -0.820210
-0.587272 2.376054 -0.819132
-0.567947 2.368353 -0.817361
-0.551179 2.373392 -0.818565
-0.534485 2.378901 -0.819887
-0.517290 2.381777 -0.820605
-0.500661 2.387826 -0.822070
-0.483282 2.389693 -0.822570
-0.461990 2.368160 -0.817628
-0.443644 2.363275 -0.816570
-0.427130 2.369539 -0.818117
-0.409292 2.367399 -0.817713
-0.390271 2.356994 -0.815391
-0.374061 2.365335 -0.817443
-0.355501 2.357169 -0.815655
-0.336489 2.344904 -0.812918
-0.319311 2.345814 -0.813257
-0.302360 2.348500 -0.814017
-0.285693 2.353660 -0.815360
-0.267684 2.347420 -0.814050
-0.250420 2.347317 -0.814177
-0.233095 2.346515 -0.814146
-0.215411 2.341944 -0.813240
-0.197395 2.333351 -0.811400
-0.179744 2.327785 -0.810271
-0.162464 2.325831 -0.809990
-0.145509 2.327567 -0.810575
-0.127934 2.321325 -0.809300
-0.109749 2.305656 -0.805827
-0.093209 2.312330 -0.807578
-0.077242 2.329219 -0.811722
-0.060301 2.331856 -0.812539
-0.043106 2.330065 -0.812324
-0.025893 2.327514 -0.811936
-0.008774 2.326579 -0.811928
0.008335 2.325659 -0.811928
0.025545 2.321429 -0.811156
0.042963 2.308529 -0.808355
0.060078 2.303287 -0.807351
0.077121 2.299211 -0.806622
0.094156 2.293170 -0.805435
0.111153 2.285352 -0.803833
0.128034 2.286886 -0.804427
0.144933 2.287949 -0.804914
0.161834 2.286420 -0.804794
0.178673 2.279595 -0.803435
0.195545 2.279269 -0.803603
0.212567 2.286661 -0.805586
0.229614 2.291917 -0.807071
0.246604 2.293232 -0.807633
0.263396 2.288087 -0.806680
0.280128 2.282524 -0.805630
0.296996 2.281171 -0.805572
0.314067 2.284176 -0.806542
0.330392 2.272351 -0.804024
0.347260 2.271801 -0.804162
0.364112 2.270946 -0.804230
0.380063 2.256671 -0.801140
0.396357 2.248949 -0.799593
0.413812 2.257199 -0.801814
0.430410 2.253852 -0.801305
0.446884 2.249327 -0.800519
0.463381 2.245425 -0.799882
0.480009 2.243158 -0.799634
0.495820 2.232902 -0.797502
0.513814 2.244136 -0.800448
0.531939 2.255466 -0.803422
0.547640 2.244714 -0.801180
0.564059 2.240702 -0.800533
0.580353 2.235888 -0.799700
0.596762 2.232213 -0.799139
0.614664 2.239784 -0.801243
0.631811 2.241299 -0.801919
0.648117 2.236788 -0.801170
0.663973 2.229448 -0.799754
0.680989 2.229985 -0.800209
0.696409 2.220342 -0.798253
0.712493 2.215210 -0.797370
0.729246 2.214235 -0.797478
0.745103 2.208034 -0.796349
0.761188 2.203336 -0.795581
0.777709 2.201149 -0.795414
0.793088 2.192900 -0.793809
0.809391 2.189727 -0.793416
0.826342 2.189864 -0.793816
0.843867 2.192698 -0.794865
0.860957 2.193184 -0.795360
0.877996 2.193278 -0.795767
0.895057 2.193343 -0.796175
0.910199 2.184659 -0.794501
0.926460 2.181135 -0.794064
0.944815 2.186620 -0.795785
0.962892 2.190563 -0.797146
0.977634 2.180471 -0.795160
0.992898 2.172746 -0.793745
1.006841 2.159961 -0.791125
1.025674 2.166488 -0.793135
1.041888 2.162652 -0.792671
1.060248 2.166812 -0.794132
1.075651 2.159831 -0.792931
1.090182 2.149806 -0.791007
1.107689 2.150490 -0.791660
1.129498 2.165909 -0.795866
1.145096 2.159446 -0.794823
1.160171 2.151280 -0.793379
1.176195 2.146338 -0.792720
1.194409 2.148474 -0.793775
1.209283 2.139719 -0.792216
1.228118 2.143470 -0.793684
1.241621 2.130475 -0.791120
1.260320 2.133459 -0.792426
1.276318 2.128086 -0.791723
1.287200 2.107641 -0.787385
1.313991 2.133664 -0.794304
1.328933 2.124917 -0.792821
1.347064 2.125174 -0.793530
1.364516 2.123330 -0.793744
-1.719456 2.855607 -0.964905
-1.703754 2.873697 -0.968817
-1.688244 2.892708 -0.972930
-1.657117 2.876420 -0.968526
-1.629408 2.867569 -0.965906
-1.606985 2.870826 -0.966194
-1.577461 2.857106 -0.962395
-1.551991 2.852659 -0.960826
-1.538691 2.877760 -0.966355
-1.497875 2.834926 -0.955573
-1.467762 2.817650 -0.950938
-1.443538 2.814712 -0.949751
-1.420508 2.814539 -0.949237
-1.397280 2.813573 -0.948541
-1.378260 2.823561 -0.950479
-1.349925 2.808265 -0.946373
-1.321222 2.791189 -0.941858
-1.302552 2.801378 -0.943879
-1.284425 2.813125 -0.946285
-1.254042 2.789526 -0.940255
-1.226938 2.774479 -0.936287
-1.209176 2.786493 -0.938799
-1.188301 2.789148 -0.939089
-1.157942 2.762351 -0.932366
-1.138672 2.769081 -0.933660
-1.108132 2.739819 -0.926386
-1.084760 2.732467 -0.924354
-0.969081 2.420261 -0.849681
-0.948604 2.416121 -0.848466
-0.930496 2.419644 -0.849091
-0.912837 2.424577 -0.850064
-0.892814 2.421049 -0.849037
-0.871643 2.412982 -0.846942
-0.851267 2.407264 -0.845421
-0.833393 2.410434 -0.846028
-0.813528 2.405872 -0.844808
-0.794319 2.403429 -0.844105
-0.776763 2.407199 -0.844893
-0.757635 2.404516 -0.844158
-0.738087 2.399737 -0.842936
-0.715405 2.381289 -0.838476
-0.697923 2.384252 -0.839119
-0.682432 2.395898 -0.841838
-0.663604 2.392804 -0.841063
-0.644669 2.388856 -0.840096
-0.624785 2.380033 -0.837980
-0.607142 2.381414 -0.838300
-0.587101 2.370793 -0.835778
-0.567495 2.361650 -0.833616
-0.551778 2.372081 -0.836117
-0.534804 2.376163 -0.837118
-0.516261 2.371684 -0.836093
-0.499772 2.378345 -0.837725
-0.483258 2.385072 -0.839382
-0.462304 2.365555 -0.834806
-0.439296 2.332112 -0.826925
-0.425420 2.354212 -0.832262
-0.409237 2.362504 -0.834323
-0.392480 2.367326 -0.835567
-0.374517 2.363928 -0.834861
-0.355277 2.350949 -0.831883
-0.336245 2.338450 -0.829025
-0.319243 2.340615 -0.829663
-0.304389 2.360095 -0.834431
-0.287574 2.364612 -0.835643
-0.269620 2.359469 -0.834560
-0.251916 2.356029 -0.833889
-0.233532 2.345707 -0.831584
-0.214759 2.330415 -0.828099
-0.198322 2.337939 -0.830055
-0.180526 2.331185 -0.828614
-0.163440 2.331864 -0.828950
-0.146612 2.335707 -0.830045
-0.129869 2.341065 -0.831506
-0.112337 2.336062 -0.830500
-0.095150 2.335430 -0.830542
-0.077787 2.331817 -0.829876
-0.060772 2.333600 -0.830502
-0.043205 2.325174 -0.828694
-0.025837 2.319197 -0.827475
-0.008194 2.305452 -0.824402
0.008382 2.316206 -0.827186
0.025388 2.317160 -0.827633
0.043196 2.290448 -0.821468
0.059865 2.300808 -0.824170
0.076734 2.305966 -0.825631
0.093781 2.302331 -0.824992
0.110786 2.299630 -0.824580
0.127797 2.290805 -0.822704
0.144728 2.288573 -0.822409
0.161657 2.289573 -0.822891
0.178525 2.282864 -0.821528
0.195385 2.279701 -0.821017
0.212329 2.282230 -0.821874
0.229379 2.287980 -0.823506
0.246370 2.289549 -0.824139
0.262869 2.275827 -0.821105
0.279737 2.274993 -0.821166
0.296562 2.273174 -0.820992
0.313536 2.274698 -0.821625
0.330407 2.273844 -0.821689
0.347305 2.273477 -0.821872
0.363568 2.262837 -0.819588
0.379370 2.246722 -0.815988
0.395113 2.231831 -0.812683
0.412085 2.234690 -0.813651
0.430071 2.249531 -0.817507
0.446652 2.246344 -0.817026
0.464436 2.256564 -0.819778
0.480479 2.247512 -0.817890
0.497746 2.251354 -0.819113
0.512902 2.234766 -0.815411
0.528962 2.227691 -0.814006
0.545708 2.227053 -0.814156
0.563601 2.235902 -0.816600
0.579721 2.229778 -0.815433
0.596422 2.228473 -0.815433
0.613733 2.231685 -0.816528
0.632165 2.242596 -0.819489
0.648187 2.235980 -0.818217
0.662358 2.217283 -0.814024
0.678376 2.211634 -0.812991
0.696777 2.221208 -0.815648
0.713596 2.220451 -0.815809
0.730979 2.222969 -0.816767
0.745838 2.210689 -0.814143
0.761529 2.203635 -0.812790
0.777472 2.198207 -0.811835
0.792664 2.188960 -0.809956
0.809387 2.187984 -0.810091
0.826413 2.188464 -0.810585
0.844679 2.194899 -0.812534
0.860604 2.189655 -0.811648
0.876962 2.186556 -0.811291
0.894860 2.190535 -0.812662
0.907862 2.172245 -0.808617
0.924325 2.169804 -0.808437
0.945100 2.185841 -0.812770
0.961852 2.184161 -0.812791
0.978245 2.180928 -0.812441
0.992935 2.170810 -0.810417
1.010854 2.173715 -0.811581
1.027302 2.170651 -0.811295
1.043452 2.166421 -0.810731
1.059391 2.161407 -0.809984
1.075333 2.156432 -0.809254
1.092194 2.154782 -0.809347
1.108927 2.152570 -0.809311
1.127984 2.158330 -0.811242
1.147303 2.164609 -0.813312
1.160017 2.148382 -0.809865
1.176119 2.143682 -0.809258
1.192850 2.140991 -0.809155
1.209576 2.138187 -0.809035
1.224722 2.130341 -0.807684
1.247446 2.145898 -0.812112
1.258544 2.125526 -0.807695
1.271703 2.111743 -0.804909
1.292348 2.120174 -0.807620
1.306961 2.110695 -0.805919
1.326303 2.114767 -0.807582
1.345034 2.116789 -0.808752
1.368516 2.131665 -0.813124
-1.932667 2.649134 -0.938045
-1.738740 2.893136 -0.995617
-1.705330 2.872218 -0.989989
-1.682870 2.875498 -0.990303
-1.660117 2.878176 -0.990454
-1.630659 2.865327 -0.986776
-1.609880 2.872440 -0.987998
-1.583454 2.866174 -0.985928
-1.557100 2.859766 -0.983822
-1.538451 2.871881 -0.986263
-1.498410 2.830999 -0.975706
-1.474479 2.829326 -0.974775
-1.448552 2.822269 -0.972531
-1.417150 2.800554 -0.966708
-1.402730 2.822644 -0.971619
-1.379596 2.821839 -0.970935
-1.355104 2.817039 -0.969287
-1.328510 2.806012 -0.966130
-1.308995 2.814135 -0.967666
-1.280198 2.795851 -0.962767
-1.250428 2.773865 -0.956984
-1.233940 2.789799 -0.960470
-1.210598 2.785516 -0.959038
-1.187723 2.782193 -0.957856
-1.168684 2.790249 -0.959464
-1.134067 2.749516 -0.949202
-1.107511 2.732735 -0.944795
-1.084612 2.726901 -0.943071
-0.975593 2.437023 -0.872237
-0.952877 2.425776 -0.869249
-0.932707 2.422529 -0.868223
-0.914110 2.424348 -0.868443
-0.894993 2.424122 -0.868180
-0.873640 2.415562 -0.865906
-0.852826 2.408395 -0.863985
-0.831083 2.397212 -0.861103
-0.812553 2.397582 -0.861041
-0.793613 2.396122 -0.860548
-0.777337 2.404918 -0.862559
-0.757828 2.400748 -0.861434
-0.736810 2.389932 -0.858708
-0.716445 2.381172 -0.856494
-0.699465 2.386393 -0.857686
-0.680254 2.381791 -0.856506
-0.663315 2.386990 -0.857716
-0.643657 2.379693 -0.855904
-0.626344 2.382892 -0.856650
-0.605236 2.367725 -0.852950
-0.587560 2.368577 -0.853149
-0.569342 2.366535 -0.852655
-0.552050 2.369004 -0.853266
-0.535090 2.373187 -0.854302
-0.516089 2.366232 -0.852645
-0.497243 2.359594 -0.851074
-0.481460 2.370121 -0.853678
-0.462899 2.364560 -0.852386
-0.442923 2.349826 -0.848875
-0.425000 2.347002 -0.848263
-0.408668 2.354203 -0.850094
-0.393107 2.366918 -0.853271
-0.375745 2.367821 -0.853588
-0.355496 2.347857 -0.848845
-0.336324 2.334359 -0.845678
-0.319737 2.339708 -0.847096
-0.304294 2.354531 -0.850823
-0.288004 2.363349 -0.853098
-0.270183 2.359454 -0.852290
-0.252459 2.355994 -0.851594
-0.233145 2.336999 -0.847126
-0.216007 2.337744 -0.847463
-0.197560 2.324789 -0.844473
-0.180893 2.329950 -0.845895
-0.163999 2.332967 -0.846801
-0.147636 2.342769 -0.849364
-0.130878 2.348574 -0.850960
-0.112949 2.338749 -0.848755
-0.094901 2.325667 -0.845761
-0.078433 2.335931 -0.848456
-0.060616 2.324358 -0.845837
-0.043127 2.316847 -0.844210
-0.024786 2.289995 -0.837873
-0.008458 2.303919 -0.841478
0.008573 2.302926 -0.841450
0.025527 2.303961 -0.841921
0.042162 2.316435 -0.845187
0.059394 2.309026 -0.843606
0.076253 2.317444 -0.845890
0.093325 2.316815 -0.845970
0.110468 2.308417 -0.844156
0.127508 2.305155 -0.843599
0.144521 2.292601 -0.840773
0.161440 2.284806 -0.839112
0.178329 2.281172 -0.838471
0.195295 2.285067 -0.839674
0.212248 2.286095 -0.840179
0.229208 2.286750 -0.840595
0.246048 2.282819 -0.839893
0.262768 2.276261 -0.838548
0.279161 2.262624 -0.835472
0.296152 2.265755 -0.836506
0.312849 2.261966 -0.835847
0.329948 2.266359 -0.837196
0.346954 2.268252 -0.837936
0.363689 2.265391 -0.837512
0.380250 2.260214 -0.836523
0.395978 2.244015 -0.832829
0.410776 2.217625 -0.826633
0.429238 2.239148 -0.832208
0.444474 2.220806 -0.827991
0.480237 2.244436 -0.834392
0.498196 2.255157 -0.837331
0.515466 2.258270 -0.838403
0.528567 2.223269 -0.830096
0.545480 2.224148 -0.830622
0.562682 2.227250 -0.831701
0.580726 2.236733 -0.834356
0.595354 2.219106 -0.830333
0.612904 2.224329 -0.831946
0.630366 2.228441 -0.833291
0.646819 2.225183 -0.832821
0.662226 2.215027 -0.830652
0.678156 2.208791 -0.829454
0.694483 2.205320 -0.828942
0.713922 2.220924 -0.833152
0.730255 2.217113 -0.832567
0.747349 2.217782 -0.833094
0.761931 2.204240 -0.830110
0.778078 2.199827 -0.829389
0.793508 2.191722 -0.827758
0.809039 2.184431 -0.826333
0.825978 2.184477 -0.826732
0.843480 2.187168 -0.827794
0.859359 2.181808 -0.826864
0.877276 2.186126 -0.828343
0.893517 2.182440 -0.827842
0.906917 2.166047 -0.824188
0.930266 2.193854 -0.831531
0.944593 2.181628 -0.828927
0.960698 2.177240 -0.828278
0.977709 2.176619 -0.828576
0.994387 2.174534 -0.828516
1.013259 2.181053 -0.830611
1.030520 2.180925 -0.831058
1.044860 2.169551 -0.828706
1.058239 2.154862 -0.825532
1.076659 2.159006 -0.827072
1.093791 2.158207 -0.827386
1.111876 2.160634 -0.828518
1.128227 2.156800 -0.828094
1.142810 2.146908 -0.826161
1.161602 2.151258 -0.827807
1.177283 2.145052 -0.826818
1.193269 2.139862 -0.826094
1.211185 2.140791 -0.826918
1.223560 2.124170 -0.823341
1.240630 2.122340 -0.823493
1.259413 2.125562 -0.824930
1.272371 2.111118 -0.821929
1.294393 2.123523 -0.825708
1.313936 2.128176 -0.827549
1.332077 2.128491 -0.828311
1.347925 2.122154 -0.827405
1.370080 2.133203 -0.830911
-1.726795 2.861872 -1.009466
-1.714774 2.888183 -1.015584
-1.687297 2.880356 -1.013097
-1.653515 2.857903 -1.006920
-1.631993 2.863195 -1.007704
-1.608678 2.864343 -1.007438
-1.583258 2.860403 -1.005889
-1.557578 2.855587 -1.004119
-1.527294 2.839211 -0.999453
-1.507894 2.849186 -1.001393
-1.480581 2.839323 -0.998369
-1.453076 2.828457 -0.995102
-1.427147 2.821108 -0.992725
-1.399727 2.809364 -0.989262
-1.376839 2.809093 -0.988677
-1.358312 2.820344 -0.990980
-1.338935 2.829315 -0.992725
-1.309070 2.808971 -0.987170
-1.284890 2.803812 -0.985420
-1.260178 2.796646 -0.983185
-1.236371 2.791590 -0.981493
-1.218049 2.802371 -0.983760
-1.190180 2.784326 -0.978869
-1.163214 2.768141 -0.974460
-1.148548 2.789534 -0.979414
-1.111541 2.740343 -0.966836
-0.981583 2.451935 -0.894549
-0.957094 2.435125 -0.890100
-0.934593 2.424210 -0.887131
-0.915455 2.424278 -0.886905
-0.895063 2.419647 -0.885527
-0.874460 2.413813 -0.883867
-0.853535 2.406310 -0.881808
-0.831959 2.395828 -0.879025
-0.811639 2.389459 -0.877277
-0.795673 2.399487 -0.879608
-0.775872 2.394483 -0.878226
-0.758338 2.398187 -0.879015
-0.737581 2.388511 -0.876503
-0.720336 2.392982 -0.877508
-0.701540 2.390739 -0.876863
-0.681527 2.382815 -0.874823
-0.661374 2.373689 -0.872497
-0.643945 2.376453 -0.873129
-0.625372 2.373748 -0.872417
-0.605565 2.364760 -0.870160
-0.587968 2.366042 -0.870458
-0.571713 2.373982 -0.872416
-0.554047 2.374809 -0.872622
-0.535540 2.371010 -0.871693
-0.517126 2.367332 -0.870804
-0.499704 2.368852 -0.871212
-0.482357 2.370709 -0.871713
-0.463733 2.364913 -0.870327
-0.444555 2.355211 -0.867982
-0.425717 2.346904 -0.865992
-0.408747 2.350071 -0.866852
-0.393092 2.362128 -0.869923
-0.374771 2.356327 -0.868578
-0.355940 2.346323 -0.866198
-0.338276 2.344147 -0.865765
-0.320997 2.344640 -0.866001
-0.304243 2.349263 -0.867269
-0.288002 2.358406 -0.869664
-0.270291 2.355424 -0.869059
-0.251196 2.339508 -0.865253
-0.234436 2.344166 -0.866556
-0.216651 2.338992 -0.865425
-0.198930 2.333859 -0.864310
-0.180231 2.317342 -0.860375
-0.163509 2.321818 -0.861656
-0.148302 2.345345 -0.867672
-0.130467 2.337452 -0.865893
-0.112602 2.328004 -0.863732
-0.095998 2.335939 -0.865894
-0.078500 2.330671 -0.864780
-0.060825 2.321398 -0.862675
-0.043062 2.308727 -0.859728
-0.025641 2.300622 -0.857920
-0.008645 2.300533 -0.858109
0.007586 2.320326 -0.863249
0.024829 2.315638 -0.862302
0.041907 2.315154 -0.862406
0.058620 2.329678 -0.866250
0.075827 2.325842 -0.865527
0.093442 2.291298 -0.857157
0.110351 2.295983 -0.858561
0.127284 2.305240 -0.861110
0.144311 2.300123 -0.860079
0.161242 2.284096 -0.856329
0.178114 2.277764 -0.854999
0.195306 2.297676 -0.860221
0.212227 2.293126 -0.859343
0.228931 2.281133 -0.856608
0.245867 2.281018 -0.856842
0.262961 2.285480 -0.858222
0.279248 2.267579 -0.854017
0.295653 2.256247 -0.851455
0.312881 2.264230 -0.853724
0.329686 2.262585 -0.853589
0.346449 2.260351 -0.853309
0.363492 2.262818 -0.854209
0.380981 2.271466 -0.856660
0.397965 2.271789 -0.857031
0.412097 2.234807 -0.848058
0.427594 2.218796 -0.844338
0.479510 2.236290 -0.849622
0.498140 2.253914 -0.854353
0.514129 2.244834 -0.852385
0.529421 2.230128 -0.849007
0.546008 2.227773 -0.848732
0.563043 2.229227 -0.849419
0.579165 2.223152 -0.848217
0.596426 2.226198 -0.849312
0.612461 2.219812 -0.848038
0.629722 2.222534 -0.849061
0.646616 2.222431 -0.849377
0.663163 2.219897 -0.849085
0.679880 2.218518 -0.849088
0.698297 2.227787 -0.851782
0.712990 2.213688 -0.848588
0.729610 2.211701 -0.848452
0.746401 2.210688 -0.848568
0.763241 2.209895 -0.848744
0.779142 2.203905 -0.847613
0.793938 2.192252 -0.845056
0.810054 2.187885 -0.844344
0.828356 2.194632 -0.846450
0.842866 2.182281 -0.843730
0.859089 2.178612 -0.843213
0.877382 2.184685 -0.845170
0.893827 2.181886 -0.844887
0.910940 2.182070 -0.845368
0.928071 2.182193 -0.845840
0.945349 2.182794 -0.846442
0.960871 2.175859 -0.845139
0.977492 2.173587 -0.845027
0.995842 2.178225 -0.846681
1.013856 2.181200 -0.847922
1.031250 2.181508 -0.848494
1.046790 2.174611 -0.847241
1.064000 2.174036 -0.847607
1.077834 2.160977 -0.844800
1.096554 2.165770 -0.846554
1.114575 2.167758 -0.847605
1.130364 2.161777 -0.846631
1.144823 2.151308 -0.844520
1.160762 2.145972 -0.843730
1.180263 2.152341 -0.845947
1.197350 2.150511 -0.846078
