ply
format ascii 1.0
comment ---
element vertex 1738
property float x
property float y
property float z
element face 0
property list uchar uint vertex_indices
end_header
-1.242352 2.445091 0.736808
-1.222091 2.442535 0.735098
-1.204266 2.446710 0.734629
-1.187562 2.454214 0.734747
-1.168598 2.455600 0.733646
-1.149169 2.455718 0.732265
-1.130606 2.458372 0.731335
-1.111660 2.459960 0.730174
-1.094405 2.466651 0.729959
-1.072429 2.459053 0.727016
-1.049981 2.449666 0.723729
-1.027144 2.438641 0.720133
-1.007484 2.437338 0.718371
-0.990515 2.444654 0.718228
-0.971248 2.444437 0.716671
-0.950115 2.437747 0.713911
-0.929436 2.432212 0.711381
-0.910537 2.432528 0.709956
-0.889967 2.426705 0.707405
-0.869909 2.422327 0.705142
-0.847611 2.409278 0.701298
-0.829162 2.410038 0.700031
-0.813550 2.421526 0.700761
-0.800348 2.442704 0.703285
-0.785284 2.457052 0.704566
-0.758365 2.423306 0.697056
-0.739576 2.421824 0.695490
-0.716052 2.399857 0.690216
-0.696171 2.392556 0.687653
-0.677695 2.390939 0.686154
-0.660351 2.394154 0.685560
-0.644851 2.405850 0.686527
-0.631807 2.429552 0.689684
-0.609477 2.408842 0.684841
-0.587519 2.388730 0.680146
-0.571636 2.398474 0.680861
-0.557112 2.415618 0.682926
-0.538400 2.410830 0.681078
-0.509773 2.350658 0.669342
-0.497423 2.379513 0.673583
-0.479862 2.379276 0.672641
-0.462127 2.377743 0.671496
-0.446656 2.389909 0.672817
-0.429948 2.394680 0.672843
-0.411023 2.384910 0.670310
-0.386503 2.336220 0.660901
-0.375082 2.376109 0.667235
-0.356350 2.365366 0.664615
-0.338188 2.357917 0.662606
-0.321468 2.360952 0.662475
-0.305542 2.370443 0.663506
-0.287827 2.365374 0.661991
-0.272917 2.384310 0.664727
-0.255210 2.379025 0.663218
-0.235540 2.354254 0.658307
-0.218874 2.357055 0.658269
-0.201872 2.356372 0.657640
-0.185046 2.357371 0.657326
-0.167469 2.349488 0.655477
-0.147669 2.313043 0.648648
-0.132620 2.334178 0.651925
-0.116435 2.341995 0.652887
-0.100139 2.349056 0.653735
-0.082200 2.330595 0.650142
-0.064639 2.315514 0.647162
-0.048086 2.316574 0.647019
-0.031273 2.312284 0.645961
-0.014878 2.316412 0.646390
0.001495 2.321896 0.647071
0.018630 2.306503 0.644133
0.035463 2.296210 0.642102
0.051940 2.296088 0.641860
0.068360 2.298474 0.642071
0.084775 2.302341 0.642556
0.101397 2.290604 0.640343
0.117810 2.293805 0.640745
0.134261 2.291784 0.640255
0.150713 2.297440 0.641115
0.167260 2.308756 0.642974
0.183768 2.308052 0.642760
0.200270 2.307311 0.642556
0.216272 2.283263 0.638319
0.232482 2.275744 0.636968
0.249095 2.283575 0.638300
0.265629 2.286964 0.638875
0.282085 2.287498 0.638970
0.298389 2.284364 0.638443
0.315117 2.290330 0.639513
0.332314 2.303835 0.641907
0.348223 2.293012 0.640092
0.364400 2.287896 0.639282
0.380654 2.284496 0.638787
0.396879 2.280976 0.638286
0.413229 2.279366 0.638133
0.429370 2.275235 0.637557
0.444722 2.262285 0.635463
0.461960 2.271224 0.637192
0.476911 2.255249 0.634602
0.490823 2.230283 0.630462
0.506494 2.224123 0.629610
0.524638 2.240865 0.632764
0.540451 2.235732 0.632124
0.557484 2.241082 0.633328
0.574903 2.249000 0.634998
0.589444 2.233799 0.632653
0.603755 2.217791 0.630181
0.620363 2.219370 0.630797
0.636674 2.218600 0.631021
0.652110 2.211795 0.630207
0.670945 2.227583 0.633365
0.686473 2.221185 0.632659
0.704955 2.233266 0.635211
0.721500 2.232859 0.635595
0.739837 2.242770 0.637810
0.757143 2.246119 0.638895
0.771732 2.234099 0.637299
0.787675 2.229822 0.637083
0.802017 2.217179 0.635414
0.819525 2.221199 0.636701
0.835106 2.215219 0.636246
0.852178 2.216615 0.637114
0.868779 2.215522 0.637565
0.881443 2.195959 0.634769
0.893687 2.175169 0.631771
0.910256 2.174364 0.632335
0.932539 2.198323 0.637323
0.949006 2.196263 0.637717
0.962371 2.181129 0.635805
0.978374 2.177219 0.635914
0.996025 2.179885 0.637221
1.015110 2.187898 0.639512
1.033565 2.192968 0.641305
1.050982 2.193717 0.642353
1.066438 2.186948 0.642077
1.080024 2.173401 0.640604
1.096054 2.168894 0.640780
1.111838 2.163478 0.640817
1.128432 2.160844 0.641380
1.145545 2.159855 0.642268
1.158922 2.146221 0.640887
1.172490 2.133464 0.639684
1.191674 2.139050 0.641840
1.210938 2.144502 0.644003
1.242043 2.186554 0.652887
1.248066 2.149956 0.647421
1.263706 2.143402 0.647469
1.286919 2.159392 0.651684
1.298058 2.139287 0.649283
1.306644 2.112226 0.645606
1.322417 2.106213 0.645826
1.343754 2.115766 0.648951
1.366614 2.129050 0.652797
-1.572902 2.481082 0.733864
-1.560506 2.492086 0.736301
-1.534235 2.472911 0.732881
-1.519679 2.480094 0.734357
-1.500354 2.477022 0.733765
-1.460961 2.428191 0.724354
-1.430530 2.399466 0.718660
-1.384571 2.465862 0.729286
-1.366658 2.468448 0.729028
-1.344085 2.459730 0.726541
-1.326293 2.463134 0.726263
-1.307863 2.465220 0.725656
-1.288657 2.465540 0.724641
-1.266894 2.459296 0.722323
-1.246229 2.455958 0.720493
-1.223949 2.448263 0.717792
-1.204819 2.449099 0.716642
-1.186085 2.451128 0.715670
-1.168435 2.456330 0.715248
-1.151179 2.462833 0.715032
-1.131870 2.463535 0.713706
-1.109375 2.454783 0.710606
-1.085140 2.440459 0.706465
-1.071507 2.458047 0.708206
-1.048014 2.445452 0.704371
-1.026812 2.439571 0.701774
-1.009448 2.445705 0.701381
-0.992728 2.454010 0.701382
-0.971628 2.447885 0.698751
-0.948712 2.435227 0.694945
-0.928271 2.430465 0.692594
-0.909903 2.432610 0.691511
-0.887181 2.419086 0.687610
-0.864311 2.404314 0.683513
-0.845259 2.402914 0.681852
-0.824484 2.394734 0.678996
-0.811664 2.416644 0.681559
-0.795072 2.424384 0.681595
-0.775179 2.418966 0.679302
-0.762011 2.440591 0.681855
-0.741239 2.431134 0.678893
-0.716055 2.402212 0.672512
-0.697130 2.399056 0.670739
-0.677062 2.390423 0.668028
-0.659009 2.390327 0.666855
-0.643798 2.403213 0.667997
-0.630689 2.426479 0.670982
-0.613120 2.428840 0.670313
-0.590147 2.404042 0.664912
-0.572307 2.404068 0.663895
-0.553753 2.400088 0.662207
-0.533404 2.385976 0.658780
-0.517554 2.395784 0.659553
-0.499474 2.393191 0.658193
-0.480198 2.383213 0.655577
-0.463580 2.388428 0.655627
-0.446911 2.393392 0.655658
-0.429358 2.392778 0.654748
-0.408329 2.368983 0.649857
-0.389617 2.359174 0.647416
-0.374976 2.377109 0.649785
-0.358320 2.381397 0.649822
-0.338061 2.358609 0.645223
-0.321457 2.362485 0.645238
-0.305233 2.369509 0.645816
-0.286686 2.357276 0.643111
-0.268294 2.345180 0.640456
-0.253734 2.366946 0.643622
-0.235140 2.351812 0.640494
-0.217710 2.346714 0.639106
-0.200999 2.348483 0.638912
-0.185149 2.359754 0.640360
-0.165373 2.326200 0.634183
-0.148448 2.323781 0.633339
-0.132770 2.337215 0.635212
-0.116600 2.345328 0.636197
-0.099966 2.347435 0.636177
-0.084430 2.367268 0.639188
-0.064288 2.310225 0.629159
-0.047808 2.312055 0.629150
-0.031198 2.311337 0.628726
-0.014834 2.315904 0.629216
0.001570 2.320340 0.629700
0.018640 2.306403 0.627088
0.035356 2.299809 0.625737
0.051830 2.300174 0.625583
0.067893 2.320550 0.628830
0.084654 2.308650 0.626631
0.101243 2.301866 0.625315
0.117709 2.303925 0.625510
0.134191 2.307116 0.625913
0.150675 2.300515 0.624675
0.167043 2.286402 0.622184
0.183647 2.302875 0.624876
0.200222 2.308272 0.625712
0.216568 2.300471 0.624334
0.232446 2.277275 0.620370
0.248809 2.276857 0.620270
0.265452 2.284430 0.621533
0.282006 2.287847 0.622110
0.298789 2.295582 0.623430
0.315515 2.300553 0.624300
0.331315 2.287309 0.622107
0.347499 2.282608 0.621373
0.364153 2.285917 0.622006
0.380233 2.280164 0.621123
0.396033 2.271123 0.619700
0.412635 2.273462 0.620215
0.428277 2.263638 0.618689
0.444461 2.261017 0.618395
0.464999 2.306348 0.626230
0.478601 2.274624 0.621045
0.491542 2.239130 0.615234
0.508311 2.243090 0.616116
0.524591 2.242111 0.616179
0.540476 2.237617 0.615661
0.556468 2.234226 0.615346
0.572829 2.233919 0.615571
0.586739 2.214417 0.612555
0.603648 2.218642 0.613581
0.619547 2.215115 0.613309
0.636331 2.217859 0.614120
0.653774 2.224747 0.615653
0.670630 2.227188 0.616450
0.688159 2.233610 0.617944
0.704879 2.234493 0.618513
0.721598 2.235158 0.619066
0.735920 2.221620 0.617213
0.752910 2.223810 0.618063
0.772032 2.237509 0.620903
0.787127 2.228630 0.619902
0.803618 2.227362 0.620224
0.819443 2.222568 0.619962
0.835559 2.219285 0.619979
0.851745 2.216324 0.620072
0.866384 2.205945 0.618911
0.879345 2.188031 0.616471
0.894050 2.178682 0.615524
0.912895 2.188010 0.617819
0.932366 2.199481 0.620511
0.946920 2.189286 0.619485
0.963842 2.189229 0.620234
0.977522 2.175690 0.618671
0.994003 2.173752 0.619140
1.011596 2.176073 0.620375
1.030017 2.181305 0.622143
1.048793 2.187486 0.624105
1.065416 2.185230 0.624623
1.077679 2.166935 0.622361
1.091375 2.154232 0.621095
1.109579 2.157655 0.622679
1.128726 2.164009 0.624807
1.145374 2.161444 0.625396
1.162557 2.160544 0.626304
1.176025 2.147262 0.625051
1.193781 2.148063 0.626309
1.216835 2.165462 0.630539
1.226472 2.140146 0.627216
1.243556 2.138337 0.628088
1.261447 2.138817 0.629394
1.279454 2.139421 0.630748
1.292477 2.125180 0.629468
1.307372 2.116572 0.629213
1.323498 2.111528 0.629616
1.343630 2.117660 0.632053
1.367707 2.134310 0.636418
-1.697645 2.462450 0.706654
-1.685603 2.536520 0.723519
-1.658226 2.514150 0.720246
-1.639196 2.509475 0.720122
-1.614992 2.494140 0.717906
-1.602667 2.504566 0.720341
-1.587497 2.509470 0.721636
-1.568963 2.507535 0.721546
-1.545983 2.496130 0.719581
-1.514619 2.466085 0.714040
-1.492142 2.455984 0.712083
-1.462774 2.430239 0.707114
-1.431568 2.400025 0.701210
-1.416096 2.450147 0.709574
-1.388818 2.475307 0.712894
-1.364296 2.461954 0.709621
-1.342502 2.455336 0.707509
-1.324042 2.457224 0.706885
-1.305497 2.459153 0.706191
-1.285870 2.458501 0.704953
-1.265252 2.455375 0.703198
-1.245589 2.454840 0.701862
-1.223914 2.448941 0.699494
-1.203885 2.447469 0.697890
-1.184751 2.448501 0.696702
-1.168173 2.456830 0.696801
-1.152590 2.468274 0.697428
-1.133077 2.468568 0.696008
-1.106845 2.448896 0.690971
-1.086812 2.447216 0.689170
-1.071114 2.458663 0.689714
-1.048935 2.450213 0.686682
-1.028149 2.445771 0.684371
-1.008828 2.445751 0.682851
-0.991546 2.452247 0.682495
-0.969249 2.442119 0.679194
-0.944980 2.424777 0.674635
-0.927674 2.430624 0.674196
-0.907321 2.425799 0.671888
-0.885103 2.413925 0.668362
-0.863991 2.405418 0.665454
-0.841604 2.391644 0.661653
-0.832078 2.425721 0.666236
-0.809131 2.409184 0.662000
-0.793003 2.418553 0.662303
-0.777084 2.428898 0.662794
-0.757457 2.424254 0.660709
-0.741608 2.434952 0.661303
-0.721704 2.428555 0.658970
-0.698134 2.405653 0.653827
-0.677771 2.395775 0.650964
-0.659467 2.394582 0.649623
-0.642475 2.399206 0.649307
-0.626103 2.406744 0.649514
-0.615891 2.444486 0.654897
-0.587744 2.394088 0.645274
-0.569428 2.391338 0.643809
-0.550939 2.387291 0.642153
-0.532840 2.384895 0.640806
-0.517468 2.397232 0.641980
-0.498898 2.391805 0.640173
-0.480854 2.388903 0.638820
-0.460556 2.372021 0.635139
-0.444743 2.381722 0.635965
-0.424502 2.363467 0.632112
-0.406305 2.357319 0.630326
-0.393809 2.389348 0.634968
-0.377214 2.394462 0.635114
-0.355815 2.364727 0.629450
-0.338288 2.361841 0.628308
-0.320734 2.358302 0.627081
-0.303922 2.360299 0.626802
-0.286667 2.358496 0.625911
-0.268410 2.347525 0.623515
-0.251181 2.344825 0.622521
-0.236380 2.364938 0.625339
-0.217198 2.342775 0.621153
-0.202143 2.361670 0.623804
-0.183274 2.340075 0.619759
-0.166686 2.342570 0.619729
-0.150792 2.353710 0.621149
-0.133181 2.343512 0.619056
-0.116486 2.344575 0.618845
-0.099101 2.335295 0.616943
-0.084915 2.375766 0.623276
-0.067363 2.364192 0.621031
-0.048454 2.324762 0.614210
-0.031195 2.311694 0.611760
-0.014559 2.309906 0.611187
0.001989 2.309750 0.610899
0.018405 2.313184 0.611220
0.035342 2.299990 0.608819
0.051608 2.308435 0.609996
0.067932 2.317635 0.611312
0.084389 2.323622 0.612114
0.101093 2.312344 0.610094
0.117547 2.322714 0.611647
0.134120 2.320760 0.611189
0.150586 2.285904 0.605343
0.166928 2.278312 0.603992
0.183428 2.289650 0.605763
0.200107 2.305403 0.608273
0.216286 2.290599 0.605782
0.232465 2.280986 0.604158
0.248709 2.276301 0.603357
0.264722 2.266155 0.601674
0.281756 2.283916 0.604586
0.298420 2.289497 0.605513
0.314985 2.291880 0.605930
0.330663 2.277189 0.603559
0.347158 2.278720 0.603865
0.363559 2.278383 0.603879
0.379890 2.276925 0.603723
0.395245 2.262021 0.601373
0.411747 2.263691 0.601761
0.427667 2.257891 0.600935
0.443209 2.248204 0.599485
0.463636 2.293059 0.607016
0.476938 2.258904 0.601573
0.492528 2.250587 0.600393
0.507978 2.241544 0.599108
0.524768 2.245341 0.599951
0.540252 2.237254 0.598853
0.555476 2.227482 0.597492
0.570296 2.215038 0.595705
0.587985 2.225688 0.597742
0.603392 2.218305 0.596821
0.620298 2.222140 0.597768
0.636413 2.220019 0.597749
0.653193 2.222397 0.598490
0.670303 2.226643 0.599559
0.687549 2.231337 0.600720
0.704740 2.235258 0.601773
0.719893 2.226538 0.600750
0.735218 2.219152 0.599966
0.751315 2.216394 0.599967
0.767578 2.214529 0.600135
0.784461 2.215935 0.600866
0.801393 2.217363 0.601622
0.818329 2.218565 0.602361
0.834505 2.215737 0.602450
0.850036 2.209718 0.602026
0.862186 2.187670 0.598944
0.876663 2.177290 0.597828
0.894305 2.181622 0.599193
0.912446 2.187805 0.600894
0.929732 2.189816 0.601919
0.948729 2.198861 0.604151
0.959958 2.174838 0.600847
0.979280 2.184781 0.603279
0.995836 2.183020 0.603766
1.009452 2.169548 0.602298
1.028518 2.177461 0.604467
1.046244 2.179797 0.605721
1.062619 2.176820 0.606100
1.074472 2.157229 0.603680
1.090130 2.151792 0.603686
1.108402 2.155553 0.605283
1.127472 2.161740 0.607323
1.143675 2.157754 0.607654
1.162369 2.162024 0.609424
1.179401 2.160476 0.610225
1.197463 2.162100 0.611598
1.212165 2.152776 0.611112
1.224999 2.137701 0.609653
1.241657 2.134666 0.610295
1.260206 2.137245 0.611934
1.277956 2.137151 0.613136
1.293063 2.129092 0.612977
1.309460 2.124799 0.613495
1.325586 2.119662 0.613885
1.345962 2.126390 0.616374
1.361712 2.119940 0.616577
-1.711154 2.484819 0.693793
-1.690149 2.541543 0.706989
-1.664775 2.523687 0.704557
-1.632793 2.492022 0.699510
-1.605124 2.506380 0.703073
-1.591006 2.513856 0.704733
-1.574739 2.517222 0.705534
-1.540430 2.481053 0.699070
-1.514531 2.463409 0.695839
-1.501995 2.476115 0.697980
-1.476277 2.459261 0.694669
-1.373387 2.436941 0.687768
-1.366419 2.466651 0.692250
-1.343622 2.457820 0.689720
-1.322276 2.452650 0.687774
-1.302238 2.450894 0.686369
-1.286628 2.460777 0.686976
-1.268062 2.463276 0.686202
-1.244189 2.451769 0.682881
-1.225864 2.455067 0.682147
-1.204762 2.450879 0.680042
-1.184539 2.449054 0.678321
-1.166370 2.453006 0.677588
-1.150584 2.463916 0.678051
-1.130391 2.462253 0.676277
-1.107153 2.451442 0.672886
-1.085386 2.444640 0.670193
-1.067229 2.448580 0.669370
-1.048309 2.450155 0.668129
-1.027300 2.445039 0.665727
-1.007250 2.442687 0.663811
-0.988635 2.444791 0.662673
-0.968378 2.441324 0.660583
-0.947009 2.433784 0.657808
-0.923946 2.419937 0.653972
-0.906529 2.425205 0.653434
-0.885775 2.418522 0.650870
-0.864029 2.407761 0.647637
-0.851282 2.429754 0.650000
-0.831482 2.425689 0.647950
-0.811136 2.419127 0.645504
-0.793102 2.421151 0.644538
-0.775351 2.424151 0.643760
-0.754291 2.413482 0.640707
-0.738596 2.424542 0.641335
-0.721957 2.431792 0.641344
-0.698350 2.408719 0.636307
-0.678305 2.400250 0.633748
-0.660553 2.401600 0.632858
-0.643386 2.405493 0.632418
-0.631913 2.436490 0.636501
-0.603425 2.385577 0.627022
-0.586435 2.389480 0.626667
-0.568689 2.389453 0.625688
-0.549160 2.379805 0.623149
-0.532777 2.386387 0.623314
-0.515204 2.386484 0.622436
-0.498249 2.389868 0.622124
-0.476646 2.365979 0.617366
-0.459861 2.369510 0.617132
-0.443041 2.372798 0.616882
-0.425475 2.371285 0.615872
-0.407035 2.363681 0.613894
-0.391256 2.373481 0.614777
-0.373059 2.366689 0.612981
-0.355308 2.362457 0.611626
-0.337678 2.358614 0.610360
-0.320780 2.359994 0.609964
-0.303814 2.360707 0.609481
-0.286659 2.359672 0.608737
-0.268970 2.353641 0.607207
-0.251012 2.344414 0.605183
-0.232974 2.333386 0.602892
-0.217465 2.346493 0.604516
-0.200410 2.344403 0.603708
-0.183530 2.343840 0.603165
-0.164962 2.323300 0.599428
-0.148133 2.321679 0.598756
-0.132863 2.340101 0.601322
-0.115462 2.330962 0.599478
-0.098594 2.328331 0.598698
-0.082758 2.341664 0.600495
-0.066466 2.349056 0.601355
-0.048566 2.327208 0.597548
-0.031365 2.315426 0.595372
-0.014153 2.300699 0.592743
0.001803 2.314448 0.594687
0.018489 2.310484 0.593813
0.035038 2.309716 0.593466
0.051793 2.300240 0.591743
0.068137 2.306307 0.592519
0.084187 2.334295 0.596809
0.100868 2.328922 0.595787
0.117478 2.326433 0.595240
0.134070 2.320998 0.594239
0.150518 2.280859 0.587717
0.166915 2.284595 0.588209
0.183488 2.300123 0.590595
0.199859 2.294642 0.589645
0.216270 2.293325 0.589373
0.232840 2.298512 0.590152
0.248530 2.273134 0.586073
0.264743 2.269244 0.585434
0.281168 2.271449 0.585779
0.297740 2.276385 0.586574
0.313609 2.265897 0.584925
0.330206 2.270680 0.585723
0.346982 2.277615 0.586878
0.363488 2.279116 0.587182
0.378494 2.258083 0.583906
0.394810 2.257748 0.583944
0.412027 2.269032 0.585850
0.427853 2.261837 0.584823
0.444127 2.260477 0.584741
0.459612 2.250442 0.583288
0.477630 2.267737 0.586213
0.493068 2.257550 0.584765
0.508506 2.248125 0.583453
0.525597 2.254442 0.584671
0.541984 2.253940 0.584815
0.554835 2.223622 0.580204
0.619647 2.218929 0.580560
0.636254 2.220421 0.581117
0.652355 2.218226 0.581099
0.669345 2.221864 0.582035
0.687101 2.230014 0.583713
0.704111 2.232908 0.584566
0.720522 2.231873 0.584806
0.736091 2.225811 0.584255
0.752338 2.223773 0.584369
0.767848 2.217599 0.583835
0.782705 2.208060 0.582775
0.798233 2.202353 0.582352
0.817090 2.213835 0.584726
0.833351 2.211600 0.584904
0.846800 2.195559 0.582865
0.860605 2.181782 0.581209
0.876982 2.180452 0.581591
0.894723 2.185222 0.582986
0.911114 2.183580 0.583362
0.929798 2.191844 0.585373
0.949466 2.203781 0.588010
0.960957 2.180795 0.584971
0.978621 2.183882 0.586210
0.997366 2.190998 0.588135
1.011950 2.181234 0.587320
1.025323 2.166972 0.585785
1.042810 2.168660 0.586893
1.059864 2.168470 0.587717
1.075227 2.161908 0.587516
1.093219 2.164820 0.588903
1.112352 2.171445 0.590932
1.126727 2.161151 0.590187
1.141647 2.152860 0.589795
1.160034 2.156242 0.591367
1.180289 2.165448 0.593939
1.198897 2.168808 0.595568
1.215801 2.166425 0.596264
1.226302 2.143868 0.593604
1.241179 2.135294 0.593305
1.261932 2.144591 0.596035
1.279666 2.144377 0.597193
1.293659 2.132973 0.596485
1.309459 2.126931 0.596703
1.325598 2.121830 0.597100
1.344338 2.123972 0.598750
1.362652 2.124670 0.600179
-1.701291 2.492498 0.679117
-1.682378 2.487091 0.679095
-1.665501 2.486279 0.679764
-1.665243 2.520642 0.686494
-1.625603 2.473092 0.678728
-1.607221 2.470355 0.678712
-1.599493 2.490942 0.682682
-1.591344 2.511496 0.686533
-1.574218 2.513223 0.686954
-1.546577 2.492104 0.683238
-1.522915 2.479881 0.680974
-1.507069 2.485530 0.681742
-1.495001 2.500369 0.684015
-1.379496 2.451177 0.672184
-1.366333 2.466011 0.673866
-1.348572 2.469978 0.673565
-1.322512 2.453245 0.669582
-1.302547 2.451885 0.668215
-1.285198 2.457446 0.667986
-1.268089 2.463918 0.667856
-1.250415 2.469160 0.667457
-1.227521 2.460463 0.664607
-1.208200 2.461389 0.663379
-1.186844 2.456676 0.661150
-1.164972 2.450355 0.658621
-1.144694 2.448401 0.656821
-1.125596 2.449782 0.655573
-1.105450 2.448022 0.653776
-1.084535 2.443795 0.651554
-1.064729 2.442718 0.649864
-1.046935 2.447744 0.649204
-1.028015 2.449230 0.647947
-1.006074 2.440878 0.645041
-0.987654 2.443600 0.644007
-0.968193 2.442766 0.642388
-0.947728 2.438306 0.640178
-0.926057 2.429322 0.637234
-0.905693 2.424390 0.634988
-0.887099 2.425386 0.633748
-0.866547 2.419064 0.631318
-0.848356 2.421036 0.630284
-0.831343 2.427305 0.629978
-0.812916 2.428123 0.628798
-0.791072 2.415286 0.625403
-0.770340 2.406147 0.622648
-0.752476 2.408134 0.621742
-0.735155 2.412224 0.621204
-0.716991 2.412639 0.620093
-0.698395 2.410935 0.618665
-0.681292 2.415560 0.618291
-0.663023 2.414828 0.617075
-0.645055 2.415212 0.616068
-0.627948 2.419472 0.615712
-0.602973 2.385224 0.609188
-0.586571 2.391988 0.609295
-0.570174 2.398869 0.609444
-0.547262 2.371560 0.604144
-0.529460 2.370180 0.603028
-0.516105 2.393156 0.605824
-0.497225 2.385671 0.603782
-0.476884 2.368962 0.600302
-0.460691 2.376060 0.600636
-0.443725 2.378552 0.600261
-0.426624 2.380099 0.599760
-0.409462 2.381116 0.599198
-0.390230 2.367872 0.596406
-0.372407 2.363431 0.595031
-0.355939 2.368338 0.595155
-0.338206 2.363840 0.593818
-0.320926 2.362326 0.592975
-0.303977 2.363182 0.592526
-0.286411 2.358681 0.591256
-0.268332 2.349078 0.589208
-0.249987 2.336007 0.586640
-0.233025 2.334818 0.585957
-0.216602 2.338720 0.586089
-0.200246 2.343516 0.586380
-0.182605 2.334374 0.584511
-0.164620 2.320022 0.581850
-0.147906 2.319521 0.581371
-0.131584 2.323919 0.581673
-0.115835 2.336687 0.583296
-0.098200 2.322875 0.580795
-0.081651 2.324249 0.580677
-0.065388 2.330621 0.581352
-0.047807 2.313050 0.578322
-0.031082 2.309624 0.577508
-0.015420 2.329609 0.580345
0.001756 2.315390 0.577886
0.018261 2.316643 0.577846
0.034995 2.310409 0.576659
0.051608 2.306466 0.575843
0.068194 2.301912 0.574947
0.084647 2.302858 0.574919
0.100988 2.314348 0.576538
0.117479 2.318898 0.577096
0.134036 2.311029 0.575745
0.150524 2.304820 0.574666
0.166958 2.299025 0.573665
0.183506 2.307236 0.574845
0.199879 2.300130 0.573669
0.216300 2.298310 0.573325
0.232545 2.290211 0.572024
0.248762 2.283519 0.570953
0.264460 2.263677 0.567863
0.280835 2.265391 0.568120
0.296897 2.259569 0.567225
0.313199 2.259588 0.567246
0.329696 2.263132 0.567826
0.347406 2.286779 0.571528
0.363187 2.276154 0.569944
0.378592 2.261290 0.567717
0.394274 2.252034 0.566371
0.410772 2.254371 0.566832
0.427623 2.260644 0.567916
0.444306 2.264141 0.568585
0.460694 2.263898 0.568688
0.476523 2.257696 0.567884
0.494083 2.269187 0.569834
0.509897 2.262880 0.569041
0.526443 2.263649 0.569359
0.542250 2.257740 0.568657
0.556340 2.237722 0.565780
0.574253 2.249986 0.567927
0.602371 2.213579 0.562803
0.620450 2.226187 0.565051
0.636634 2.224526 0.565097
0.653826 2.229661 0.566218
0.668490 2.217685 0.564691
0.687368 2.233175 0.567459
0.704905 2.239288 0.568786
0.719591 2.227743 0.567375
0.735850 2.225883 0.567492
0.751524 2.220634 0.567098
0.769907 2.230506 0.569086
0.786311 2.229026 0.569318
0.801285 2.219926 0.568375
0.816307 2.211360 0.567533
0.831013 2.201454 0.566498
0.846263 2.194500 0.565944
0.861945 2.189757 0.565756
0.878889 2.190948 0.566523
0.894673 2.186608 0.566438
0.911184 2.185530 0.566890
0.928343 2.187146 0.567788
0.945710 2.189399 0.568811
0.960112 2.178954 0.567846
0.981168 2.196056 0.571269
0.995678 2.185949 0.570402
1.009840 2.174677 0.569368
1.025861 2.170832 0.569538
1.042705 2.170061 0.570220
1.059003 2.167087 0.570576
1.075106 2.163310 0.570827
1.097218 2.181047 0.574549
1.113358 2.176882 0.574791
1.127221 2.164770 0.573779
1.140663 2.151437 0.572590
1.160732 2.160528 0.575039
1.181943 2.172867 0.578045
1.198120 2.168291 0.578345
1.220377 2.183006 0.581801
1.224612 2.140595 0.576003
1.242662 2.141894 0.577326
1.262625 2.148741 0.579584
1.280979 2.150359 0.581016
1.294599 2.137799 0.580151
1.309489 2.129087 0.579935
1.324707 2.121363 0.579901
1.342422 2.120673 0.581046
1.365803 2.135466 0.584776
1.388153 2.146817 0.587969
-1.715866 2.422465 0.646812
-1.726274 2.473950 0.656703
-1.679229 2.510607 0.666564
-1.629254 2.441673 0.655413
-1.613021 2.442980 0.656139
-1.603337 2.458713 0.659221
-1.593937 2.475837 0.662427
-1.583722 2.492002 0.665355
-1.572456 2.506652 0.667909
-1.549014 2.495058 0.665854
-1.524596 2.481451 0.663342
-1.508959 2.487854 0.664145
-1.485395 2.476626 0.661823
-1.476621 2.499810 0.665279
-1.446531 2.473867 0.660242
-1.420919 2.458263 0.656879
-1.402761 2.460504 0.656470
-1.385430 2.465090 0.656372
-1.371390 2.478161 0.657631
-1.348164 2.468847 0.655011
-1.326171 2.462599 0.652846
-1.306021 2.461079 0.651418
-1.288935 2.467629 0.651293
-1.270373 2.470574 0.650505
-1.249343 2.467088 0.648588
-1.231508 2.472228 0.648078
-1.208607 2.463598 0.645227
-1.185402 2.453866 0.642169
-1.163831 2.448454 0.639813
-1.143861 2.447446 0.638173
-1.123699 2.445776 0.636410
-1.104960 2.448197 0.635313
-1.081217 2.435490 0.631716
-1.063993 2.442237 0.631324
-1.046507 2.448252 0.630809
-1.025403 2.442850 0.628426
-1.004606 2.438084 0.626159
-0.986057 2.440342 0.625050
-0.965916 2.437183 0.623072
-0.946777 2.437108 0.621612
-0.926746 2.433739 0.619637
-0.905726 2.426557 0.617069
-0.885605 2.422098 0.614965
-0.866459 2.420804 0.613394
-0.845933 2.414092 0.610980
-0.830988 2.428016 0.611889
-0.815085 2.438543 0.612273
-0.790044 2.413263 0.606982
-0.770016 2.406852 0.604728
-0.752978 2.412176 0.604363
-0.734380 2.410949 0.602986
-0.714306 2.403104 0.600593
-0.697791 2.410213 0.600585
-0.680442 2.413657 0.600026
-0.663620 2.419409 0.599853
-0.643004 2.407463 0.596935
-0.621634 2.391104 0.593362
-0.604117 2.392561 0.592603
-0.585746 2.389561 0.591176
-0.565798 2.378068 0.588458
-0.548102 2.377604 0.587482
-0.532187 2.386503 0.587984
-0.514517 2.385902 0.587038
-0.495174 2.375487 0.584601
-0.479799 2.387509 0.585655
-0.461671 2.383396 0.584243
-0.444891 2.387178 0.584071
-0.428318 2.392282 0.584125
-0.409600 2.383321 0.582043
-0.390676 2.372159 0.579649
-0.374178 2.377112 0.579750
-0.356318 2.372260 0.578372
-0.337828 2.362092 0.576205
-0.320661 2.361316 0.575496
-0.304191 2.365933 0.575631
-0.286394 2.359501 0.574102
-0.266841 2.336869 0.570132
-0.250228 2.339077 0.569963
-0.232966 2.335051 0.568866
-0.216484 2.338289 0.568892
-0.199271 2.333943 0.567785
-0.181841 2.326548 0.566237
-0.164498 2.319166 0.564709
-0.148207 2.323752 0.565012
-0.133749 2.352756 0.569021
-0.115986 2.339164 0.566607
-0.097934 2.319192 0.563251
-0.081131 2.316098 0.562461
-0.065043 2.324733 0.563455
-0.048287 2.322087 0.562764
-0.031627 2.320741 0.562285
-0.015118 2.322399 0.562274
0.001032 2.333438 0.563689
0.017923 2.325749 0.562301
0.034723 2.318547 0.561002
0.051405 2.313169 0.559992
0.068171 2.301121 0.557996
0.084715 2.295824 0.557028
0.101158 2.294887 0.556730
0.117550 2.300184 0.557381
0.134001 2.299882 0.557206
0.150454 2.301780 0.557373
0.166991 2.312662 0.558902
0.183453 2.308635 0.558208
0.199825 2.301362 0.557040
0.216140 2.294458 0.555942
0.232460 2.290089 0.555236
0.248724 2.285073 0.554447
0.264573 2.269424 0.552078
0.280712 2.264636 0.551349
0.297043 2.265024 0.551409
0.313130 2.260227 0.550705
0.330309 2.276503 0.553172
0.346548 2.273914 0.552825
0.363047 2.275704 0.553147
0.378750 2.265324 0.551658
0.394655 2.258962 0.550784
0.410370 2.250750 0.549645
0.426883 2.253133 0.550109
0.444481 2.267709 0.552416
0.460443 2.262640 0.551789
0.475883 2.252470 0.550409
0.492414 2.253997 0.550799
0.509528 2.260803 0.551997
0.525611 2.257475 0.551686
0.541503 2.252613 0.551159
0.555960 2.235922 0.548866
0.569655 2.214185 0.545827
0.587554 2.226663 0.547950
0.602258 2.214093 0.546318
0.619879 2.223414 0.547998
0.638228 2.237081 0.550350
0.654542 2.235895 0.550480
0.670270 2.230774 0.550032
0.686168 2.226899 0.549788
0.702711 2.227091 0.550174
0.720140 2.232444 0.551358
0.735328 2.224234 0.550508
0.751842 2.223856 0.550860
0.767560 2.218927 0.550540
0.789664 2.248566 0.555483
0.802842 2.229570 0.553065
0.815587 2.209128 0.550442
0.829806 2.196881 0.549079
0.847068 2.199924 0.550061
0.864167 2.201875 0.550898
0.879953 2.197434 0.550781
0.896606 2.196972 0.551291
0.913431 2.197118 0.551915
0.930232 2.196974 0.552517
0.946154 2.192895 0.552537
0.960776 2.183349 0.551738
0.972789 2.163287 0.549342
0.991566 2.171056 0.551246
1.009182 2.173752 0.552394
1.027274 2.177996 0.553806
1.046747 2.187130 0.556001
1.060419 2.174105 0.554793
1.075859 2.167826 0.554650
1.095424 2.176396 0.556836
1.113575 2.179464 0.558196
1.128365 2.170570 0.557719
1.142424 2.159283 0.556890
1.158735 2.155714 0.557288
1.175034 2.152017 0.557691
1.200059 2.176488 0.562541
1.210419 2.153238 0.559925
1.223322 2.138495 0.558663
1.238981 2.132506 0.558800
1.261914 2.148565 0.562450
1.282097 2.155695 0.564720
1.298359 2.150857 0.565120
1.312281 2.139179 0.564452
1.327053 2.130064 0.564210
1.344397 2.128236 0.565153
1.357865 2.115524 0.564373
1.377494 2.119780 0.566335
-1.697701 2.544819 0.654707
-1.619195 2.452539 0.640364
-1.603789 2.456447 0.641333
-1.589366 2.463011 0.642630
-1.578553 2.477999 0.645215
-1.539688 2.472080 0.644069
-1.521582 2.472635 0.643913
-1.505169 2.477443 0.644356
-1.487569 2.480026 0.644323
-1.466216 2.474332 0.642813
-1.448069 2.476368 0.642489
-1.427435 2.472863 0.641152
-1.408300 2.473168 0.640358
-1.391972 2.480584 0.640654
-1.373291 2.482623 0.639982
-1.353574 2.482339 0.638853
-1.327123 2.465178 0.634886
-1.310034 2.471731 0.634756
-1.290064 2.471092 0.633390
-1.272983 2.478154 0.633233
-1.251792 2.474486 0.631280
-1.231131 2.472193 0.629515
-1.207665 2.462121 0.626460
-1.183712 2.450378 0.623115
-1.163514 2.448900 0.621415
-1.146075 2.455265 0.620962
-1.127077 2.457194 0.619780
-1.103884 2.446616 0.616586
-1.083514 2.444107 0.614687
-1.062296 2.438782 0.612341
-1.043321 2.440125 0.611062
-1.023553 2.438836 0.609372
-1.005036 2.441359 0.608296
-0.984318 2.436565 0.606076
-0.965505 2.437757 0.604816
-0.942591 2.424865 0.601361
-0.919059 2.409164 0.597495
-0.903346 2.420167 0.597831
-0.885176 2.422542 0.596836
-0.863969 2.413695 0.594118
-0.844855 2.412056 0.592547
-0.829244 2.423378 0.593008
-0.816009 2.444068 0.594933
-0.791257 2.419970 0.589969
-0.772086 2.417074 0.588307
-0.751679 2.408738 0.585839
-0.732697 2.405766 0.584225
-0.714701 2.406624 0.583225
-0.696612 2.406865 0.582157
-0.679691 2.412077 0.581874
-0.661034 2.409350 0.580408
-0.641343 2.401413 0.578182
-0.623107 2.399809 0.576944
-0.603330 2.390341 0.574547
-0.584099 2.382895 0.572486
-0.565222 2.376656 0.570637
-0.549735 2.387721 0.571418
-0.533162 2.393249 0.571389
-0.511815 2.372329 0.567419
-0.494106 2.370780 0.566381
-0.478053 2.378619 0.566772
-0.462382 2.388985 0.567561
-0.446533 2.398639 0.568263
-0.428140 2.392357 0.566613
-0.408271 2.375717 0.563450
-0.391443 2.378503 0.563199
-0.373493 2.373354 0.561793
-0.355605 2.368085 0.560393
-0.337062 2.357285 0.558197
-0.321566 2.369325 0.559401
-0.305171 2.374780 0.559651
-0.287250 2.367559 0.558049
-0.268540 2.352597 0.555328
-0.250812 2.345160 0.553739
-0.233860 2.344295 0.553138
-0.216508 2.339137 0.551925
-0.199136 2.333066 0.550597
-0.181764 2.326182 0.549169
-0.164475 2.319317 0.547763
-0.148779 2.331177 0.549118
-0.133158 2.345282 0.550817
-0.116854 2.351493 0.551374
-0.097741 2.316428 0.545913
-0.081157 2.316539 0.545613
-0.064833 2.321001 0.545964
-0.048253 2.321253 0.545716
-0.031395 2.315625 0.544625
-0.014807 2.314783 0.544247
0.001427 2.322640 0.545152
0.017867 2.326466 0.545484
0.034792 2.315026 0.543606
0.051530 2.306580 0.542179
0.068043 2.305180 0.541793
0.084571 2.301761 0.541126
0.101171 2.289039 0.539120
0.117593 2.284998 0.538391
0.133959 2.290129 0.539009
0.150384 2.299936 0.540318
0.166811 2.297374 0.539843
0.183342 2.305421 0.540922
0.199677 2.297040 0.539627
0.215953 2.289345 0.538446
0.232425 2.291938 0.538771
0.248860 2.292390 0.538797
0.264840 2.279620 0.536917
0.281134 2.277588 0.536608
0.297688 2.281747 0.537211
0.313947 2.278935 0.536814
0.329443 2.262256 0.534416
0.346483 2.274613 0.536247
0.362554 2.269613 0.535570
0.378746 2.266949 0.535244
0.394470 2.258000 0.534019
0.411530 2.267401 0.535471
0.428218 2.271036 0.536099
0.443900 2.262452 0.534965
0.459391 2.252511 0.533646
0.474953 2.244148 0.532569
0.491302 2.244288 0.532741
0.508591 2.253240 0.534209
0.524967 2.252954 0.534347
0.540363 2.243971 0.533232
0.555107 2.230074 0.531415
0.571144 2.227545 0.531267
0.588972 2.239024 0.533175
0.606403 2.246565 0.534525
0.621764 2.238407 0.533600
0.639706 2.248765 0.535393
0.654017 2.233634 0.533478
0.669085 2.224276 0.532421
0.685443 2.223573 0.532645
0.702684 2.228234 0.533669
0.718354 2.223014 0.533264
0.734117 2.218473 0.532974
0.751450 2.222965 0.534025
0.770603 2.237144 0.536517
0.783096 2.214467 0.533615
0.800732 2.219841 0.534851
0.813649 2.200558 0.532477
0.829175 2.195109 0.532156
0.847370 2.202808 0.533791
0.864736 2.206019 0.534785
0.880749 2.202591 0.534820
0.895654 2.194084 0.534122
0.914157 2.201840 0.535851
0.930216 2.198404 0.535944
0.946155 2.194415 0.535976
0.962621 2.192620 0.536354
0.972823 2.164971 0.532905
0.988538 2.160434 0.532913
1.007555 2.168924 0.534887
1.031345 2.195382 0.539574
1.043980 2.178265 0.537773
1.060655 2.176649 0.538312
1.077825 2.176709 0.539127
1.094993 2.176558 0.539935
1.109952 2.168410 0.539564
1.126810 2.166929 0.540220
1.142689 2.161955 0.540374
1.156183 2.148954 0.539334
1.171057 2.140728 0.539039
1.198804 2.174267 0.545114
1.213030 2.163411 0.544473
1.220434 2.131305 0.540609
1.236619 2.127098 0.541018
1.258937 2.141431 0.544293
1.281138 2.154753 0.547448
1.295486 2.144341 0.546985
1.311497 2.138851 0.547300
1.328287 2.135534 0.547973
1.341626 2.122402 0.547148
1.357177 2.115570 0.547316
-1.709127 2.399722 0.609540
-1.763919 2.539663 0.633017
-1.708106 2.460429 0.621216
-1.702036 2.481045 0.625348
-1.694716 2.534826 0.635327
-1.670737 2.520899 0.633566
-1.634879 2.482211 0.627684
-1.609642 2.465789 0.625281
-1.583934 2.448491 0.622620
-1.563835 2.443451 0.621828
-1.545861 2.443400 0.621730
-1.527428 2.442760 0.621426
-1.515898 2.457979 0.623576
-1.504436 2.474089 0.625761
-1.488475 2.480643 0.626297
-1.470966 2.484118 0.626236
-1.445460 2.469252 0.623126
-1.426650 2.470228 0.622478
-1.407437 2.470540 0.621638
-1.391942 2.480165 0.622209
-1.376484 2.490356 0.622791
-1.340728 2.450294 0.615274
-1.324974 2.459975 0.615646
-1.306783 2.463804 0.615023
-1.288218 2.466872 0.614226
-1.270119 2.471335 0.613603
-1.252533 2.477351 0.613182
-1.232656 2.477350 0.611775
-1.207928 2.463985 0.608239
-1.183913 2.452188 0.604937
-1.163999 2.451626 0.603382
-1.146431 2.457738 0.602856
-1.126578 2.457260 0.601290
-1.103058 2.445757 0.598010
-1.083008 2.444240 0.596283
-1.065431 2.450115 0.595701
-1.043461 2.442326 0.593016
-1.024019 2.442118 0.591510
-1.004748 2.442268 0.590071
-0.988516 2.452193 0.590138
-0.966192 2.441931 0.587138
-0.944075 2.431792 0.584182
-0.920426 2.415777 0.580362
-0.900498 2.412045 0.578433
-0.884945 2.423616 0.578838
-0.864137 2.416197 0.576399
-0.843354 2.408351 0.573925
-0.825125 2.409637 0.572850
-0.807238 2.412044 0.571967
-0.791381 2.422294 0.572279
-0.769716 2.409356 0.569159
-0.750538 2.405835 0.567473
-0.733973 2.412864 0.567379
-0.715635 2.412346 0.566192
-0.699701 2.422062 0.566543
-0.682877 2.427974 0.566355
-0.661875 2.414821 0.563388
-0.642816 2.409884 0.561661
-0.623197 2.401791 0.559501
-0.604451 2.397336 0.557904
-0.583345 2.380587 0.554540
-0.565921 2.381676 0.553811
-0.550697 2.394182 0.554767
-0.531273 2.384382 0.552503
-0.511016 2.369194 0.549486
-0.492904 2.365177 0.548119
-0.477225 2.374982 0.548777
-0.460425 2.378353 0.548524
-0.439987 2.359091 0.545030
-0.423722 2.365151 0.545213
-0.404258 2.350246 0.542401
-0.390976 2.376313 0.545502
-0.373047 2.371160 0.544136
-0.354579 2.361504 0.542148
-0.337744 2.363281 0.541821
-0.320846 2.364490 0.541432
-0.304379 2.369090 0.541548
-0.287904 2.373778 0.541694
-0.268620 2.353939 0.538362
-0.251100 2.348386 0.537089
-0.233592 2.342252 0.535753
-0.216754 2.342076 0.535284
-0.199766 2.340118 0.534579
-0.182278 2.332223 0.533050
-0.164907 2.324648 0.531585
-0.148852 2.332289 0.532295
-0.132547 2.337395 0.532661
-0.115468 2.332191 0.531583
-0.098908 2.333824 0.531488
-0.080872 2.311825 0.528068
-0.064353 2.312436 0.527861
-0.047800 2.312344 0.527570
-0.031016 2.307271 0.526591
-0.014270 2.301834 0.525575
0.001738 2.313807 0.527029
0.017984 2.321934 0.527953
0.034809 2.312997 0.526487
0.051517 2.305231 0.525199
0.067973 2.306086 0.525140
0.084373 2.310773 0.525633
0.101048 2.294748 0.523225
0.117525 2.285861 0.521835
0.133865 2.303989 0.524257
0.150299 2.293855 0.522717
0.166657 2.286093 0.521524
0.183075 2.289308 0.521886
0.199567 2.295093 0.522621
0.215969 2.293993 0.522402
0.232411 2.294694 0.522447
0.248960 2.298557 0.522949
0.265085 2.289174 0.521602
0.281265 2.283240 0.520752
0.297711 2.284422 0.520914
0.313800 2.277957 0.520014
0.329755 2.269963 0.518911
0.346092 2.269693 0.518905
0.362649 2.272821 0.519388
0.377702 2.253106 0.516675
0.394649 2.262058 0.518001
0.411931 2.274153 0.519781
0.428566 2.276777 0.520244
0.444104 2.266253 0.518870
0.459008 2.249687 0.516659
0.474872 2.244657 0.516082
0.491059 2.243192 0.516019
0.506958 2.238979 0.515583
0.524909 2.253729 0.517829
0.540884 2.249813 0.517461
0.556109 2.239767 0.516243
0.573726 2.249700 0.517853
0.590905 2.255343 0.518874
0.607269 2.254323 0.518969
0.623364 2.251266 0.518792
0.637535 2.234756 0.516728
0.652816 2.226705 0.515873
0.666956 2.211488 0.514018
0.684858 2.221073 0.515685
0.702329 2.227274 0.516891
0.718608 2.225790 0.517025
0.733049 2.213476 0.515639
0.751179 2.222682 0.517321
0.768137 2.224749 0.518009
0.782835 2.214339 0.516941
0.797319 2.203165 0.515779
0.813353 2.200338 0.515822
0.828168 2.191377 0.515007
0.844566 2.190416 0.515350
0.863198 2.200015 0.517220
0.879255 2.196976 0.517306
0.894829 2.191692 0.517090
0.912177 2.194394 0.518036
0.928276 2.191338 0.518178
0.943414 2.184111 0.517741
0.959410 2.180603 0.517857
0.975672 2.178148 0.518146
0.988756 2.162799 0.516597
1.007540 2.170379 0.518375
1.025138 2.172878 0.519444
1.041514 2.170449 0.519824
1.057976 2.168240 0.520259
1.077730 2.177969 0.522450
1.092980 2.170948 0.522234
1.105859 2.155602 0.520827
1.120964 2.148313 0.520612
1.138049 2.147825 0.521415
1.154832 2.146134 0.522066
1.175003 2.155462 0.524359
1.190994 2.150720 0.524615
1.211942 2.161722 0.527214
1.222672 2.140110 0.525030
1.239978 2.139269 0.525933
1.258994 2.143433 0.527604
1.275406 2.139466 0.528095
1.287914 2.123912 0.526886
1.305992 2.124766 0.528140
1.323863 2.124785 0.529295
1.340331 2.120646 0.529853
1.357020 2.117028 0.530510
1.377386 2.123343 0.532685
-1.688420 2.483244 0.608933
-1.667390 2.474818 0.608139
-1.640322 2.490443 0.611299
-1.614517 2.473170 0.608773
-1.593178 2.465584 0.607653
-1.573261 2.461380 0.606950
-1.548465 2.446844 0.604516
-1.530313 2.447120 0.604297
-1.519006 2.463134 0.606438
-1.509688 2.484404 0.609295
-1.498928 2.503234 0.611663
-1.476530 2.495893 0.609837
-1.447905 2.474096 0.605667
-1.420139 2.454096 0.601698
-1.402917 2.459213 0.601564
-1.387793 2.469807 0.602202
-1.365642 2.463556 0.600151
-1.341585 2.452560 0.597305
-1.320859 2.449857 0.595688
-1.305533 2.461063 0.596161
-1.287701 2.466153 0.595639
-1.266912 2.463646 0.593908
-1.254920 2.484657 0.595739
-1.237003 2.490194 0.595163
-1.211862 2.475975 0.591551
-1.191197 2.473812 0.589761
-1.169955 2.469882 0.587689
-1.150365 2.470510 0.586298
-1.128392 2.464079 0.583838
-1.104171 2.450638 0.580327
-1.086997 2.457919 0.579932
-1.068640 2.461648 0.579005
-1.052749 2.473026 0.579223
-1.036778 2.484346 0.579434
-0.969627 2.455209 0.570797
-0.946531 2.441954 0.567447
-0.923275 2.427444 0.563943
-0.900882 2.415211 0.560805
-0.883066 2.418692 0.559993
-0.864885 2.420733 0.558991
-0.844187 2.413239 0.556628
-0.823690 2.405965 0.554328
-0.806060 2.409240 0.553582
-0.786852 2.406175 0.551947
-0.765610 2.394547 0.549107
-0.747925 2.396790 0.548294
-0.731517 2.404222 0.548250
-0.716323 2.416909 0.548980
-0.700284 2.426201 0.549244
-0.683462 2.432149 0.549054
-0.664958 2.430423 0.547798
-0.641352 2.404523 0.543138
-0.622881 2.401719 0.541789
-0.601700 2.385267 0.538539
-0.582637 2.378385 0.536673
-0.566151 2.384172 0.536621
-0.550122 2.392426 0.536939
-0.532080 2.389980 0.535775
-0.511437 2.372715 0.532559
-0.493946 2.372266 0.531729
-0.478729 2.384899 0.532751
-0.459670 2.374848 0.530625
-0.440574 2.363738 0.528378
-0.420716 2.346852 0.525353
-0.404776 2.354575 0.525778
-0.389340 2.366016 0.526739
-0.372662 2.369256 0.526579
-0.355133 2.366309 0.525582
-0.337557 2.362582 0.524498
-0.320379 2.361496 0.523801
-0.303015 2.358616 0.522875
-0.285978 2.358066 0.522292
-0.268802 2.356042 0.521524
-0.251470 2.352234 0.520529
-0.234507 2.351421 0.519965
-0.217915 2.354069 0.519895
-0.200854 2.351852 0.519174
-0.183176 2.342374 0.517473
-0.165241 2.328686 0.515214
-0.148799 2.331695 0.515262
-0.132267 2.333713 0.515190
-0.115275 2.329386 0.514264
-0.097946 2.319262 0.512562
-0.080758 2.309712 0.510956
-0.064101 2.307667 0.510390
-0.048647 2.327794 0.512866
-0.030939 2.304996 0.509497
-0.014310 2.301879 0.508829
0.001973 2.306725 0.509260
0.018093 2.317450 0.510504
0.034547 2.320112 0.510664
0.051453 2.305650 0.508505
0.067783 2.312580 0.509271
0.084434 2.303146 0.507823
0.100863 2.305495 0.507991
0.117341 2.303529 0.507585
0.133821 2.291678 0.505848
0.150218 2.290490 0.505573
0.166573 2.284764 0.504693
0.182969 2.286883 0.504891
0.199511 2.296582 0.506131
0.215869 2.293160 0.505600
0.232141 2.287523 0.504780
0.248497 2.286211 0.504560
0.264962 2.288240 0.504804
0.280915 2.276743 0.503224
0.296645 2.262493 0.501283
0.313348 2.270719 0.502404
0.329710 2.271007 0.502458
0.346191 2.273162 0.502778
0.362314 2.269165 0.502275
0.378514 2.266735 0.501996
0.395161 2.270692 0.502596
0.411806 2.274003 0.503121
0.427941 2.270529 0.502736
0.443784 2.263915 0.501936
0.458886 2.249683 0.500113
0.474215 2.239082 0.498795
0.490328 2.237168 0.498669
0.507011 2.240736 0.499302
0.522968 2.237226 0.498985
0.540580 2.248374 0.500675
0.558944 2.264834 0.503103
0.572914 2.244316 0.500509
0.589471 2.245352 0.500864
0.606573 2.250266 0.501761
0.621690 2.240275 0.500640
0.637018 2.232293 0.499806
0.651783 2.220840 0.498511
0.667633 2.217110 0.498284
0.683579 2.214066 0.498166
0.702270 2.228081 0.500396
0.717380 2.219570 0.499561
0.732446 2.211120 0.498748
0.748871 2.210719 0.499053
0.766056 2.214405 0.499935
0.781389 2.207727 0.499412
0.796865 2.201986 0.499033
0.812488 2.197118 0.498790
0.827428 2.188902 0.498103
0.841902 2.178624 0.497148
0.858706 2.179802 0.497789
0.876873 2.187128 0.499299
0.893087 2.185029 0.499527
0.911025 2.190558 0.500830
0.925440 2.180263 0.499961
0.941369 2.176706 0.500045
0.958064 2.176331 0.500591
0.979579 2.195606 0.503891
0.992920 2.180989 0.502500
1.006539 2.167854 0.501331
1.023789 2.169107 0.502190
1.040169 2.166814 0.502576
1.053581 2.153337 0.501417
1.072884 2.161737 0.503346
1.089601 2.160338 0.503925
1.105007 2.154153 0.503855
1.120560 2.148494 0.503880
1.133817 2.134991 0.502819
1.151868 2.137821 0.504088
1.173142 2.150982 0.506849
1.190206 2.149838 0.507610
1.206182 2.145054 0.507879
1.224146 2.146448 0.509052
1.242266 2.148067 0.510284
1.262565 2.156042 0.512454
1.272710 2.133173 0.510227
1.288240 2.126654 0.510364
1.305223 2.124331 0.511129
1.320825 2.117916 0.511325
1.339369 2.119757 0.512739
1.362454 2.133919 0.515968
-1.763540 2.530042 0.596431
-1.701625 2.472248 0.589154
-1.640274 2.450785 0.587261
-1.642258 2.491425 0.593673
-1.622932 2.488169 0.593297
-1.598443 2.474254 0.591185
-1.582253 2.478468 0.591721
-1.562012 2.474347 0.590878
-1.546798 2.481682 0.591670
-1.525766 2.476571 0.590464
-1.518185 2.502164 0.593817
-1.509950 2.527220 0.596981
-1.484329 2.512941 0.594088
-1.447894 2.473273 0.587273
-1.426558 2.468753 0.585695
-1.404540 2.462737 0.583816
-1.383085 2.458163 0.582084
-1.364836 2.461576 0.581486
-1.345174 2.461713 0.580333
-1.329657 2.472491 0.580715
-1.320496 2.499990 0.583532
-1.299842 2.498417 0.581963
-1.286304 2.515635 0.583143
-1.269744 2.525281 0.583158
-1.248219 2.521717 0.581189
-1.194283 2.540319 0.579471
-1.169598 2.527392 0.576074
-1.014305 2.540391 0.566036
-0.973194 2.468871 0.554414
-0.945435 2.439977 0.548922
-0.919950 2.417686 0.544409
-0.898465 2.408429 0.541778
-0.880638 2.411713 0.540944
-0.864139 2.419720 0.540798
-0.846522 2.423622 0.540094
-0.822222 2.402070 0.535850
-0.805838 2.410035 0.535768
-0.786904 2.408006 0.534315
-0.765406 2.395323 0.531409
-0.746325 2.391788 0.529806
-0.729925 2.399088 0.529731
-0.712691 2.402874 0.529194
-0.697838 2.416986 0.530105
-0.680263 2.419301 0.529412
-0.658930 2.404286 0.526364
-0.639671 2.398032 0.524552
-0.619906 2.388813 0.522363
-0.600923 2.382740 0.520633
-0.583238 2.382639 0.519747
-0.565974 2.384456 0.519147
-0.550361 2.394841 0.519734
-0.534240 2.402782 0.520010
-0.511899 2.376347 0.515651
-0.495275 2.380871 0.515513
-0.479264 2.389020 0.515886
-0.461578 2.387301 0.514948
-0.441370 2.369570 0.511877
-0.421826 2.354794 0.509233
-0.404657 2.354571 0.508569
-0.389474 2.367673 0.509714
-0.371795 2.363835 0.508605
-0.354349 2.361234 0.507684
-0.338721 2.371969 0.508566
-0.320281 2.361266 0.506602
-0.301747 2.348783 0.504423
-0.285050 2.350644 0.504177
-0.269493 2.362504 0.505280
-0.252626 2.363170 0.504909
-0.235609 2.362257 0.504345
-0.218874 2.363907 0.504140
-0.201276 2.356432 0.502741
-0.183372 2.344621 0.500786
-0.165498 2.331693 0.498701
-0.148307 2.325534 0.497530
-0.132202 2.332706 0.498139
-0.115607 2.333784 0.497956
-0.097806 2.316831 0.495407
-0.080493 2.305007 0.493552
-0.063976 2.304928 0.493263
-0.047299 2.301651 0.492565
-0.031679 2.319444 0.494657
-0.014621 2.307963 0.492907
0.001792 2.310099 0.492963
0.018267 2.310868 0.492852
0.035186 2.296804 0.490804
0.051066 2.318657 0.493490
0.067998 2.299054 0.490740
0.084389 2.301886 0.490950
0.100814 2.303809 0.491054
0.117331 2.294469 0.489691
0.133747 2.291803 0.489216
0.150126 2.284100 0.488092
0.166510 2.286870 0.488354
0.183029 2.298814 0.489831
0.199713 2.313919 0.491732
0.215767 2.292350 0.488838
0.231790 2.277234 0.486801
0.248152 2.277787 0.486829
0.264554 2.279173 0.486977
0.280645 2.272281 0.486053
0.296666 2.265113 0.485103
0.313271 2.271110 0.485889
0.329673 2.272156 0.486038
0.345884 2.269616 0.485729
0.361767 2.262093 0.484777
0.378424 2.266970 0.485462
0.395122 2.271634 0.486130
0.411894 2.276584 0.486848
0.427169 2.262432 0.485073
0.442964 2.255721 0.484284
0.458351 2.245074 0.482991
0.474035 2.238447 0.482237
0.489987 2.234984 0.481909
0.506610 2.238106 0.482457
0.522669 2.235674 0.482289
0.539874 2.243348 0.483461
0.557604 2.254698 0.485129
0.572669 2.243466 0.483842
0.587656 2.232308 0.482577
0.604317 2.234399 0.483068
0.619754 2.227312 0.482364
0.636288 2.228261 0.482731
0.652178 2.224626 0.482508
0.667970 2.220423 0.482224
0.684163 2.218894 0.482307
0.700858 2.220423 0.482808
0.718295 2.226189 0.483884
0.731815 2.208531 0.481879
0.747437 2.203662 0.481580
0.764453 2.206632 0.482333
0.780901 2.206224 0.482656
0.797429 2.206098 0.483032
0.813240 2.202134 0.482916
0.828409 2.194982 0.482393
0.842525 2.182849 0.481223
0.858614 2.180546 0.481377
0.876184 2.185112 0.482464
0.892431 2.183252 0.482714
0.910949 2.191463 0.484328
0.926719 2.187117 0.484285
0.942181 2.181459 0.484085
0.961175 2.190684 0.485899
0.978650 2.193109 0.486824
0.994290 2.187850 0.486739
1.007100 2.171423 0.485169
1.023346 2.168765 0.485471
1.039611 2.166088 0.485793
1.055547 2.162091 0.485957
1.068492 2.147081 0.484652
1.087511 2.154277 0.486376
1.105917 2.158854 0.487771
1.120721 2.150556 0.487440
1.136786 2.146648 0.487727
1.149153 2.130257 0.486333
1.169326 2.139967 0.488528
1.193448 2.161955 0.492436
1.209259 2.156490 0.492610
1.224170 2.148166 0.492413
1.243075 2.152229 0.493947
1.262775 2.158368 0.495796
1.274824 2.141194 0.494444
1.289559 2.132248 0.494251
1.305280 2.126218 0.494483
1.319274 2.115219 0.494044
1.335336 2.110152 0.494453
1.358339 2.124271 0.497573
1.382982 2.142249 0.501270
-0.976420 2.481329 0.537766
-0.947983 2.450310 0.532142
-0.919402 2.417442 0.526310
-0.900954 2.418841 0.525201
-0.881666 2.417033 0.523677
-0.863150 2.417727 0.522519
-0.844195 2.416565 0.521135
-0.822830 2.405951 0.518499
-0.805324 2.409602 0.517820
-0.787793 2.413043 0.517136
-0.767397 2.404830 0.514913
-0.746958 2.395851 0.512619
-0.726640 2.386748 0.510340
-0.709140 2.389066 0.509615
-0.692952 2.396978 0.509660
-0.676451 2.403587 0.509553
-0.658572 2.403942 0.508641
-0.638383 2.393259 0.506295
-0.620938 2.394956 0.505614
-0.602814 2.393171 0.504498
-0.582302 2.379063 0.501788
-0.566492 2.388203 0.502162
-0.549119 2.389329 0.501505
-0.534126 2.403162 0.502534
-0.515200 2.395644 0.500792
-0.494487 2.377275 0.497661
-0.476426 2.373217 0.496423
-0.457693 2.364644 0.494623
-0.439743 2.360209 0.493384
-0.421717 2.354809 0.492044
-0.407026 2.370895 0.493510
-0.388526 2.361818 0.491736
-0.371093 2.359456 0.490852
-0.355997 2.373768 0.492141
-0.339041 2.374850 0.491739
-0.321841 2.373902 0.491095
-0.302160 2.352505 0.487840
-0.285895 2.358096 0.488076
-0.269091 2.359216 0.487755
-0.252986 2.366665 0.488263
-0.236545 2.371363 0.488434
