ply
format ascii 1.0
comment ---
element vertex 1654
property float x
property float y
property float z
element face 0
property list uchar uint vertex_indices
end_header
-2.751636 -0.189654 0.942709
-2.758315 -0.175579 0.947728
-2.753002 -0.165366 0.942195
-2.750766 -0.154166 0.939374
-2.751776 -0.141862 0.939407
-2.752066 -0.129786 0.938804
-2.753982 -0.117116 0.939623
-2.754946 -0.104765 0.939597
-2.754182 -0.093044 0.938045
-2.766327 -0.076467 0.947794
-2.770773 -0.062701 0.950771
-2.770858 -0.050602 0.949906
-2.766956 -0.040112 0.945531
-2.764210 -0.029243 0.942145
-2.764207 -0.017327 0.941130
-2.762540 -0.006157 0.938628
-2.764620 0.006517 0.939363
-2.765645 0.018694 0.939136
-2.763887 0.029591 0.936440
-2.774916 0.046036 0.944833
-2.784805 0.062011 0.952172
-2.782755 0.072568 0.949066
-2.785062 0.084992 0.949694
-2.783639 0.095573 0.947024
-2.784373 0.107024 0.946167
-2.774768 0.113385 0.936296
-2.766440 0.120102 0.927484
-2.763283 0.129106 0.923094
-2.767969 0.141806 0.925420
-2.803961 0.170113 0.954671
-2.805097 0.180947 0.953763
-2.803288 0.190102 0.950256
-2.803571 0.200138 0.948488
-2.798288 0.207078 0.941881
-2.759090 0.195841 0.906162
-2.315907 -2.249179 0.901231
-2.332948 -2.255693 0.918951
-2.337397 -2.248366 0.922316
-2.342978 -2.241966 0.926821
-2.340525 -2.226905 0.922151
-2.342752 -2.216554 0.922621
-2.354208 -2.215456 0.933315
-2.357368 -2.205557 0.934560
-2.357278 -2.192175 0.932043
-2.355772 -2.177239 0.927829
-2.355875 -2.163788 0.925305
-2.357143 -2.151351 0.923968
-2.365012 -2.145170 0.929859
-2.372119 -2.138006 0.934776
-2.380078 -2.131424 0.940516
-2.384564 -2.121351 0.942302
-2.382707 -2.105239 0.937002
-2.385803 -2.093664 0.937085
-2.381365 -2.075150 0.928826
-2.388570 -2.067163 0.933279
-2.399119 -2.061994 0.941304
-2.392168 -2.041244 0.930160
-2.394192 -2.028440 0.928778
-2.397541 -2.016761 0.928797
-2.404197 -2.007855 0.932361
-2.410008 -1.998154 0.934964
-2.414980 -1.987697 0.936628
-2.420585 -1.977722 0.938945
-2.423527 -1.965554 0.938382
-2.425498 -1.952627 0.936773
-2.428455 -1.940525 0.936222
-2.432630 -1.929401 0.936971
-2.434115 -1.916218 0.934862
-2.434793 -1.902489 0.931915
-2.436327 -1.889487 0.929898
-2.441863 -1.879526 0.932127
-2.448211 -1.870158 0.935218
-2.452825 -1.859524 0.936493
-2.461138 -1.851550 0.941659
-2.464149 -1.839796 0.941281
-2.466763 -1.827816 0.940513
-2.462835 -1.811404 0.932963
-2.464558 -1.798999 0.931342
-2.470295 -1.789353 0.933919
-2.480036 -1.782354 0.940655
-2.484960 -1.772150 0.942418
-2.478491 -1.754641 0.932463
-2.477063 -1.740541 0.927762
-2.492212 -1.736936 0.940121
-2.503170 -1.730585 0.948167
-2.510135 -1.721716 0.952130
-2.502521 -1.704071 0.941234
-2.504384 -1.692258 0.940060
-2.500929 -1.677399 0.933513
-2.502032 -1.665311 0.931645
-2.507768 -1.655923 0.934502
-2.513384 -1.646460 0.937256
-2.518995 -1.636988 0.940022
-2.521775 -1.625968 0.939955
-2.525843 -1.615675 0.941209
-2.529922 -1.605402 0.942497
-2.531838 -1.594015 0.941640
-2.534094 -1.582848 0.941150
-2.532628 -1.569839 0.936972
-2.535277 -1.558970 0.936934
-2.537886 -1.548109 0.936879
-2.537401 -1.535785 0.933775
-2.537976 -1.524037 0.931755
-2.539954 -1.512999 0.931153
-2.545284 -1.503535 0.933887
-2.547299 -1.492553 0.933363
-2.548524 -1.481249 0.932081
-2.552675 -1.471266 0.933704
-2.558083 -1.461818 0.936575
-2.563325 -1.452278 0.939294
-2.564152 -1.440879 0.937700
-2.563463 -1.428903 0.934646
-2.560798 -1.416194 0.929690
-2.564297 -1.406003 0.930775
-2.567159 -1.395565 0.931254
-2.569940 -1.385103 0.931669
-2.572932 -1.374727 0.932303
-2.579769 -1.365761 0.936679
-2.585707 -1.356421 0.940186
-2.590978 -1.346807 0.943055
-2.587732 -1.334224 0.937707
-2.583068 -1.321249 0.931023
-2.584965 -1.310552 0.930685
-2.589617 -1.300761 0.933011
-2.598801 -1.292385 0.939694
-2.598999 -1.281129 0.937755
-2.596249 -1.269012 0.933013
-2.598608 -1.258487 0.933179
-2.602759 -1.248486 0.935069
-2.604711 -1.237840 0.934867
-2.598983 -1.225076 0.927362
-2.604134 -1.215361 0.930236
-2.609650 -1.205706 0.933460
-2.607499 -1.194041 0.929412
-2.608537 -1.183234 0.928405
-2.611074 -1.172809 0.928831
-2.615123 -1.162738 0.930693
-2.616588 -1.152049 0.930122
-2.622005 -1.142254 0.933288
-2.612345 -1.129141 0.922255
-2.627748 -1.121464 0.934835
-2.629947 -1.110916 0.934987
-2.630413 -1.100024 0.933521
-2.633199 -1.089597 0.934243
-2.637739 -1.079483 0.936612
-2.637705 -1.068520 0.934709
-2.640800 -1.058120 0.935740
-2.640426 -1.047132 0.933542
-2.646137 -1.037139 0.937026
-2.644153 -1.025922 0.933349
-2.642994 -1.014874 0.930455
-2.641981 -1.003884 0.927713
-2.642649 -0.993152 0.926543
-2.646259 -0.982808 0.928110
-2.658932 -0.973534 0.938069
-2.652400 -0.961920 0.930261
-2.649134 -0.950763 0.925493
-2.648183 -0.939902 0.922881
-2.653307 -0.929652 0.925878
-2.661626 -0.919642 0.931818
-2.672050 -0.909720 0.939690
-2.671271 -0.898824 0.937264
-2.659008 -0.887145 0.924315
-2.665702 -0.876854 0.928777
-2.664708 -0.866049 0.926198
-2.667280 -0.855456 0.926896
-2.667319 -0.844731 0.925286
-2.669973 -0.834121 0.926076
-2.677872 -0.823667 0.931654
-2.683692 -0.813071 0.935337
-2.685587 -0.802333 0.935450
-2.682827 -0.791515 0.931342
-2.686545 -0.780798 0.933134
-2.693586 -0.770052 0.937946
-2.693974 -0.759254 0.936730
-2.696606 -0.748438 0.937558
-2.694703 -0.737671 0.934292
-2.690616 -0.726983 0.929070
-2.702637 -0.715894 0.938410
-2.695390 -0.705329 0.930365
-2.711166 -0.693922 0.943091
-2.713325 -0.682962 0.943547
-2.710116 -0.672263 0.939185
-2.714500 -0.661158 0.941666
-2.717980 -0.650059 0.943342
-2.719090 -0.639087 0.942902
-2.717488 -0.628312 0.940045
-2.718222 -0.617359 0.939296
-2.723603 -0.605979 0.942719
-2.724551 -0.594954 0.942186
-2.725667 -0.583896 0.941817
-2.728819 -0.572599 0.943279
-2.731483 -0.561313 0.944317
-2.732019 -0.550243 0.943472
-2.731844 -0.539248 0.942009
-2.726403 -0.528944 0.935879
-2.730479 -0.517375 0.938230
-2.732333 -0.506066 0.938619
-2.736746 -0.494335 0.941292
-2.745416 -0.481865 0.947750
-2.738291 -0.471856 0.940222
-2.732526 -0.461687 0.933924
-2.735029 -0.450118 0.934963
-2.737483 -0.438509 0.935972
-2.747406 -0.425441 0.943594
-2.750704 -0.413518 0.945372
-2.750717 -0.402192 0.944266
-2.749308 -0.391137 0.941923
-2.752821 -0.379025 0.943935
-2.755471 -0.367033 0.945199
-2.754248 -0.355856 0.943071
-2.756327 -0.343900 0.943863
-2.759086 -0.331728 0.945266
-2.765191 -0.318672 0.949620
-2.769692 -0.305911 0.952576
-2.763285 -0.295875 0.945978
-2.753351 -0.286823 0.936311
-2.771318 -0.270316 0.951104
-2.774003 -0.257781 0.952515
-2.770547 -0.246922 0.948565
-2.770155 -0.235188 0.947310
-2.769924 -0.223381 0.946206
-2.767371 -0.212252 0.943085
-2.764989 -0.201075 0.940124
-2.767587 -0.188328 0.941517
-2.774319 -0.174188 0.946518
-2.775649 -0.161716 0.946810
-2.767978 -0.152227 0.939263
-2.764574 -0.141361 0.935439
-2.766974 -0.128501 0.936666
-2.769208 -0.115658 0.937743
-2.769753 -0.103391 0.937344
-2.771911 -0.090522 0.938335
-2.775902 -0.076940 0.940905
-2.781452 -0.062721 0.944809
-2.785896 -0.048876 0.947731
-2.785701 -0.036829 0.946609
-2.782506 -0.026021 0.942864
-2.786264 -0.012457 0.945113
-2.785098 -0.000935 0.943068
-2.781365 0.009435 0.938773
-2.778133 0.019904 0.934876
-2.799485 0.040924 0.952163
-2.797058 0.051661 0.948870
-2.796654 0.063175 0.947276
-2.795222 0.074114 0.944749
-2.793567 0.084817 0.941979
-2.791193 0.095043 0.938539
-2.790860 0.106069 0.936799
-2.789901 0.116652 0.934463
-2.784647 0.125001 0.928388
-2.793033 0.139801 0.933941
-2.813806 0.160661 0.950012
-2.819788 0.174188 0.953345
-2.840917 0.195266 0.969530
-2.825652 0.197791 0.954586
-2.834232 0.212281 0.959913
-2.831593 0.220821 0.955621
-2.801781 0.214826 0.928200
-2.352376 -2.284295 0.926781
-2.349821 -2.269500 0.922336
-2.353469 -2.261123 0.924698
-2.345387 -2.240188 0.913851
-2.359164 -2.241956 0.927241
-2.363371 -2.233431 0.929827
-2.370630 -2.227780 0.935668
-2.367917 -2.211736 0.930311
-2.365625 -2.196013 0.925313
-2.366073 -2.182916 0.923240
-2.372680 -2.175741 0.927851
-2.377343 -2.166426 0.930194
-2.378107 -2.153149 0.928132
-2.382952 -2.143661 0.930453
-2.386145 -2.132433 0.930857
-2.390656 -2.122306 0.932609
-2.396319 -2.113099 0.935523
-2.397968 -2.100062 0.933976
-2.400008 -2.087317 0.932788
-2.398412 -2.071259 0.927598
-2.410172 -2.067052 0.936813
-2.413181 -2.054960 0.936494
-2.414261 -2.041158 0.934054
-2.418385 -2.029968 0.934854
-2.421682 -2.018038 0.934731
-2.428373 -2.008926 0.938210
-2.431234 -1.996581 0.937567
-2.434688 -1.984730 0.937542
-2.439872 -1.974280 0.939343
-2.441869 -1.961272 0.937755
-2.445469 -1.949572 0.937867
-2.444667 -1.934473 0.933339
-2.449686 -1.923951 0.934961
-2.449969 -1.909843 0.931617
-2.452171 -1.897267 0.930310
-2.458436 -1.887755 0.933267
-2.464298 -1.877936 0.935809
-2.469714 -1.867796 0.937897
-2.474940 -1.857527 0.939799
-2.478336 -1.845987 0.939823
-2.481712 -1.834479 0.939850
-2.484637 -1.822710 0.939438
-2.475291 -1.802707 0.926433
-2.491376 -1.799930 0.939615
-2.495980 -1.789421 0.941008
-2.501237 -1.779362 0.943093
-2.505467 -1.768657 0.944151
-2.510570 -1.758533 0.946122
-2.513582 -1.747120 0.945992
-2.519329 -1.737436 0.948664
-2.523545 -1.726825 0.949806
-2.524832 -1.714485 0.948014
-2.518417 -1.697670 0.938494
-2.516088 -1.683431 0.933151
-2.517234 -1.671314 0.931346
-2.521220 -1.660872 0.932423
-2.528618 -1.652356 0.936938
-2.532069 -1.641634 0.937522
-2.531780 -1.628910 0.934402
-2.532762 -1.616949 0.932583
-2.540219 -1.608461 0.937231
-2.547043 -1.599604 0.941260
-2.544205 -1.585777 0.935733
-2.546592 -1.574696 0.935415
-2.550330 -1.564320 0.936454
-2.550631 -1.552276 0.934127
-2.549743 -1.539724 0.930661
-2.550456 -1.528008 0.928800
-2.556672 -1.518909 0.932364
-2.562022 -1.509382 0.935089
-2.566968 -1.499654 0.937432
-2.565518 -1.487076 0.933546
-2.564369 -1.474707 0.929985
-2.574023 -1.467047 0.936964
-2.580033 -1.457765 0.940400
-2.581047 -1.446378 0.938999
-2.579132 -1.433835 0.934784
-2.579638 -1.422340 0.932938
-2.577988 -1.410039 0.929034
-2.579471 -1.399021 0.928177
-2.581834 -1.388363 0.928188
-2.588010 -1.379137 0.931879
-2.599347 -1.371754 0.940530
-2.603651 -1.361738 0.942429
-2.604523 -1.350500 0.941051
-2.605923 -1.339475 0.940195
-2.602492 -1.326841 0.934742
-2.599268 -1.314364 0.929515
-2.604375 -1.304667 0.932248
-2.606050 -1.293852 0.931722
-2.608195 -1.283197 0.931656
-2.606136 -1.271276 0.927615
-2.610308 -1.261266 0.929498
-2.618773 -1.252480 0.935450
-2.616664 -1.240620 0.931406
-2.614376 -1.228774 0.927214
-2.619615 -1.219023 0.930137
-2.621497 -1.208350 0.929904
-2.622721 -1.197516 0.929062
-2.623148 -1.186499 0.927485
-2.628281 -1.176651 0.930332
-2.631386 -1.166285 0.931284
-2.642770 -1.157815 0.939986
-2.637443 -1.145486 0.933064
-2.639607 -1.134883 0.933157
-2.637817 -1.123446 0.929575
-2.641621 -1.113203 0.931217
-2.645836 -1.103017 0.933245
-2.653703 -1.093502 0.938669
-2.652327 -1.082204 0.935514
-2.656150 -1.071876 0.937192
-2.657478 -1.061095 0.936565
-2.659883 -1.050499 0.936943
-2.657546 -1.039142 0.932950
-2.659610 -1.028511 0.933033
-2.658827 -1.017460 0.930502
-2.660017 -1.006716 0.929798
-2.669668 -0.997112 0.936882
-2.673133 -0.986618 0.938277
-2.670934 -0.975416 0.934484
-2.673026 -0.964755 0.934637
-2.679047 -0.954514 0.938393
-2.683893 -0.944096 0.941075
-2.668734 -0.931718 0.925494
-2.682617 -0.922153 0.936442
-2.678796 -0.910954 0.931245
-2.684944 -0.900591 0.935139
-2.684806 -0.889722 0.933319
-2.681278 -0.878651 0.928433
-2.693920 -0.868587 0.938234
-2.697846 -0.857925 0.940125
-2.687311 -0.846561 0.928928
-2.690149 -0.835877 0.929859
-2.695227 -0.825247 0.932819
-2.699231 -0.814537 0.934811
-2.697191 -0.803661 0.931361
-2.693431 -0.792795 0.926378
-2.699091 -0.782073 0.929888
-2.713647 -0.771319 0.941398
-2.718957 -0.760424 0.944592
-2.719950 -0.749513 0.943916
-2.719028 -0.738627 0.941536
-2.727468 -0.727560 0.947554
-2.735993 -0.716393 0.953645
-2.715094 -0.706120 0.933443
-2.715957 -0.695241 0.932717
-2.724075 -0.684023 0.938475
-2.728152 -0.672920 0.940631
-2.731145 -0.661832 0.941831
-2.736097 -0.650584 0.944781
-2.735822 -0.639644 0.943094
-2.735334 -0.628723 0.941232
-2.741507 -0.617258 0.945294
-2.745976 -0.605866 0.947851
-2.742628 -0.595158 0.943495
-2.744994 -0.583910 0.944214
-2.751594 -0.572175 0.948688
-2.754431 -0.560779 0.949843
-2.744627 -0.550848 0.939855
-2.750169 -0.539105 0.943428
-2.751261 -0.527871 0.943088
-2.747350 -0.517300 0.938359
-2.746762 -0.506289 0.936574
-2.755867 -0.493819 0.943326
-2.765918 -0.481076 0.950914
-2.760412 -0.470717 0.944850
-2.755660 -0.460282 0.939473
-2.764776 -0.447469 0.946270
-2.770423 -0.435151 0.950036
-2.769073 -0.424050 0.947688
-2.767221 -0.413043 0.944921
-2.769941 -0.401125 0.946167
-2.769236 -0.389854 0.944437
-2.775867 -0.377013 0.949124
-2.774352 -0.365840 0.946718
-2.775208 -0.354128 0.946397
-2.779015 -0.341697 0.948661
-2.780370 -0.329770 0.948803
-2.780103 -0.318192 0.947549
-2.782479 -0.305927 0.948608
-2.782435 -0.294222 0.947578
-2.786953 -0.281288 0.950522
-2.791319 -0.268306 0.953345
-2.787911 -0.257376 0.949437
-2.787100 -0.245726 0.947796
-2.786861 -0.233891 0.946663
-2.786582 -0.222040 0.945507
-2.782481 -0.211312 0.941057
-2.780890 -0.199836 0.938788
-2.791023 -0.184670 0.946661
-2.789968 -0.172932 0.944867
-2.797024 -0.158531 0.950081
-2.784697 -0.150481 0.938572
-2.779857 -0.140027 0.933531
-2.785203 -0.126087 0.937271
-2.785012 -0.114021 0.936234
-2.785104 -0.101847 0.935437
-2.787368 -0.088872 0.936501
-2.789453 -0.075936 0.937399
-2.791213 -0.063103 0.938003
-2.795851 -0.049148 0.941062
-2.800625 -0.035101 0.944213
-2.805489 -0.020983 0.947415
-2.802680 -0.009951 0.944008
-2.801605 0.001713 0.942062
-2.802514 0.014142 0.941784
-2.807946 0.028443 0.945340
-2.809235 0.040953 0.945308
-2.810280 0.053290 0.945024
-2.808913 0.064477 0.942636
-2.804018 0.073956 0.937192
-2.806813 0.086775 0.938259
-2.806677 0.098151 0.936772
-2.813500 0.112660 0.941152
-2.808724 0.121603 0.935606
-2.808180 0.132377 0.933602
-2.810266 0.144270 0.933770
-2.831232 0.165323 0.949874
-2.832118 0.176444 0.948881
-2.834390 0.188096 0.948995
-2.841044 0.201824 0.952745
-2.853110 0.218222 0.960985
-2.852330 0.227883 0.958316
-2.836588 0.229489 0.943001
-2.345397 -2.272586 0.903488
-2.372039 -2.288873 0.931339
-2.379044 -2.283791 0.937306
-2.375665 -2.267534 0.931670
-2.368355 -2.247077 0.921587
-2.384086 -2.250266 0.936767
-2.381424 -2.234259 0.931563
-2.378048 -2.217419 0.925464
-2.378653 -2.204476 0.923627
-2.385260 -2.197328 0.928244
-2.388152 -2.186281 0.928674
-2.393775 -2.177713 0.931967
-2.396008 -2.165673 0.931455
-2.397439 -2.152733 0.929973
-2.399161 -2.139962 0.928717
-2.400426 -2.126666 0.926883
-2.405563 -2.116864 0.929154
-2.410021 -2.106302 0.930607
-2.413699 -2.094924 0.931147
-2.419745 -2.085572 0.934162
-2.421546 -2.072358 0.932564
-2.425170 -2.060709 0.932871
-2.430314 -2.050324 0.934754
-2.438577 -2.042529 0.939907
-2.446104 -2.033997 0.944225
-2.445175 -2.018332 0.939554
-2.450527 -2.007915 0.941516
-2.451027 -1.993522 0.938347
-2.454937 -1.981935 0.938767
-2.459131 -1.970580 0.939479
-2.460210 -1.956794 0.936931
-2.462691 -1.944166 0.935862
-2.466320 -1.932466 0.936002
-2.474403 -1.924161 0.940778
-2.473127 -1.908829 0.935849
-2.475298 -1.896165 0.934523
-2.479762 -1.885236 0.935588
-2.481967 -1.872710 0.934343
-2.488985 -1.863664 0.938070
-2.492820 -1.852373 0.938543
-2.495533 -1.840347 0.937892
-2.498942 -1.828855 0.937980
-2.506489 -1.820197 0.942309
-2.510803 -1.809366 0.943363
-2.518615 -1.800860 0.947988
-2.518879 -1.787441 0.944986
-2.518130 -1.773473 0.941001
-2.520556 -1.761621 0.940262
-2.525755 -1.751551 0.942345
-2.529155 -1.740391 0.942644
-2.534469 -1.730427 0.944887
-2.534812 -1.717506 0.942180
-2.530471 -1.701914 0.934837
-2.531979 -1.689880 0.933378
-2.535869 -1.679273 0.934321
-2.545955 -1.672188 0.941439
-2.550816 -1.662120 0.943382
-2.546277 -1.646901 0.936046
-2.550412 -1.636526 0.937328
-2.538963 -1.617860 0.923271
-2.558810 -1.615884 0.940082
-2.559443 -1.603735 0.937988
-2.555997 -1.589571 0.931924
-2.564495 -1.581529 0.937598
-2.570041 -1.571968 0.940391
-2.568061 -1.558727 0.935855
-2.566242 -1.545659 0.931512
-2.569157 -1.534918 0.931810
-2.571903 -1.524119 0.931965
-2.581171 -1.516324 0.938463
-2.582540 -1.504898 0.937314
-2.581345 -1.492377 0.933710
-2.582263 -1.480850 0.932176
-2.591601 -1.472972 0.938779
-2.596956 -1.463336 0.941549
-2.594359 -1.450387 0.936688
-2.595571 -1.439076 0.935512
-2.595775 -1.427396 0.933392
-2.595172 -1.415445 0.930521
-2.597508 -1.404685 0.930484
-2.598156 -1.393300 0.928851
-2.607186 -1.385066 0.935221
-2.611434 -1.375008 0.937040
-2.616711 -1.365302 0.939846
-2.615401 -1.353258 0.936410
-2.619868 -1.343260 0.938469
-2.623710 -1.333030 0.939944
-2.620988 -1.320623 0.935228
-2.617331 -1.307989 0.929654
-2.618453 -1.296957 0.928610
-2.615957 -1.284826 0.924176
-2.621485 -1.275196 0.927305
-2.619549 -1.263318 0.923434
-2.633576 -1.256121 0.934543
-2.636267 -1.245566 0.935024
-2.635464 -1.234044 0.932248
-2.633971 -1.222380 0.928845
-2.635407 -1.211538 0.928192
-2.636546 -1.200633 0.927274
-2.645723 -1.191751 0.933843
-2.651013 -1.181835 0.936795
-2.655481 -1.171685 0.938986
-2.651885 -1.159650 0.933706
-2.653674 -1.148896 0.933434
-2.653122 -1.137639 0.931006
-2.656488 -1.127242 0.932211
-2.655994 -1.116041 0.929861
-2.659179 -1.105600 0.930913
-2.663470 -1.095356 0.932989
-2.669938 -1.085485 0.937069
-2.674178 -1.075159 0.939101
-2.676453 -1.064465 0.939335
-2.668187 -1.052022 0.929923
-2.667934 -1.040984 0.927870
-2.675990 -1.031243 0.933421
-2.682716 -1.021227 0.937754
-2.684564 -1.010465 0.937637
-2.687829 -0.999892 0.938819
-2.689974 -0.989156 0.938987
-2.688871 -0.978020 0.936211
-2.689405 -0.967107 0.934934
-2.692947 -0.956534 0.936395
-2.687021 -0.944967 0.929286
-2.690179 -0.934367 0.930417
-2.681512 -0.922681 0.920869
-2.693199 -0.912827 0.929720
-2.696091 -0.902164 0.930631
-2.705385 -0.891938 0.937314
-2.703739 -0.880900 0.934147
-2.704193 -0.870023 0.932883
-2.713197 -0.859608 0.939306
-2.713423 -0.848686 0.937850
-2.705337 -0.837440 0.928959
-2.722291 -0.827167 0.942507
-2.717956 -0.816098 0.937000
-2.712939 -0.805079 0.930903
-2.715592 -0.794257 0.931673
-2.721820 -0.783449 0.935635
-2.732390 -0.772591 0.943468
-2.734329 -0.761634 0.943614
-2.733284 -0.750688 0.941118
-2.740003 -0.739651 0.945530
-2.746596 -0.728541 0.949832
-2.751316 -0.717409 0.952475
-2.737824 -0.706824 0.938999
-2.729617 -0.696202 0.930234
-2.736186 -0.685020 0.934553
-2.742157 -0.673792 0.938348
-2.746500 -0.662588 0.940710
-2.746675 -0.651596 0.939406
-2.750796 -0.640330 0.941589
-2.758044 -0.628778 0.946532
-2.758172 -0.617718 0.945219
-2.761102 -0.606408 0.946382
-2.761745 -0.595275 0.945547
-2.765059 -0.583864 0.947069
-2.767307 -0.572520 0.947666
-2.767264 -0.561400 0.946271
-2.764727 -0.550568 0.942710
-2.762758 -0.539688 0.939664
-2.772233 -0.527332 0.946628
-2.772566 -0.516097 0.945619
-2.772826 -0.504857 0.944562
-2.773639 -0.493519 0.944003
-2.776903 -0.481778 0.945591
-2.783374 -0.469466 0.949980
-2.787589 -0.457436 0.952416
-2.785088 -0.446499 0.949033
-2.785106 -0.435122 0.947854
-2.787021 -0.423374 0.948338
-2.791737 -0.411044 0.951261
-2.797055 -0.398514 0.954717
-2.794679 -0.387466 0.951527
-2.791881 -0.376511 0.947992
-2.791490 -0.365043 0.946557
-2.793274 -0.353070 0.947016
-2.801222 -0.339635 0.952807
-2.807489 -0.326467 0.957155
-2.801727 -0.316097 0.951150
-2.800310 -0.304692 0.948907
-2.803541 -0.292093 0.950681
-2.807803 -0.279151 0.953353
-2.805513 -0.267874 0.950404
-2.802220 -0.256867 0.946609
-2.802788 -0.244789 0.946146
-2.804543 -0.232332 0.946714
-2.801662 -0.221177 0.943317
-2.796451 -0.210725 0.937936
-2.799177 -0.197884 0.939368
-2.811667 -0.181932 0.949161
-2.814368 -0.168907 0.950577
-2.811059 -0.157774 0.946859
-2.813806 -0.144652 0.948322
-2.815294 -0.131898 0.948710
-2.809840 -0.121499 0.943172
-2.803065 -0.111620 0.936511
-2.801369 -0.100002 0.934183
-2.809577 -0.084791 0.940290
-2.814786 -0.070584 0.943826
-2.807611 -0.060986 0.936806
-2.810705 -0.047550 0.938514
-2.814786 -0.033705 0.941041
-2.817679 -0.020303 0.942535
-2.817622 -0.008087 0.941497
-2.815428 0.003211 0.938620
-2.819254 0.016939 0.940820
-2.820457 0.029548 0.940760
-2.822711 0.042555 0.941553
-2.836310 0.060457 0.951902
-2.822126 0.066158 0.938701
-2.826137 0.079742 0.940845
-2.827032 0.091851 0.940303
-2.833463 0.106403 0.944380
-2.835341 0.118781 0.944557
-2.831611 0.128392 0.939954
-2.824984 0.136427 0.932862
-2.839107 0.154285 0.943160
-2.838468 0.164908 0.940983
-2.840970 0.176912 0.941380
-2.847712 0.190897 0.945264
-2.855652 0.205383 0.950077
-2.859406 0.217625 0.951315
-2.862349 0.229297 0.951809
-2.811945 0.212908 0.907765
-2.354876 -2.278496 0.898470
-2.387055 -2.300455 0.932048
-2.394500 -2.295642 0.938363
-2.392354 -2.280505 0.934057
-2.394931 -2.270108 0.934791
-2.396484 -2.258439 0.934280
-2.396920 -2.245438 0.932429
-2.390774 -2.225647 0.923312
-2.395879 -2.217040 0.926307
-2.395184 -2.202473 0.922897
-2.400896 -2.194057 0.926311
-2.406074 -2.184902 0.929030
-2.410049 -2.174392 0.930340
-2.411262 -2.161096 0.928578
-2.416340 -2.151331 0.930878
-2.416688 -2.137013 0.928019
-2.419668 -2.125059 0.927905
-2.431958 -2.121474 0.937643
-2.429949 -2.104773 0.932064
-2.431753 -2.091494 0.930496
-2.436938 -2.081157 0.932464
-2.438281 -2.067397 0.930318
-2.443221 -2.056730 0.931934
-2.451319 -2.048685 0.936833
-2.455650 -2.037369 0.937729
-2.455814 -2.022573 0.934237
-2.459962 -2.011105 0.934908
-2.465037 -2.000382 0.936532
-2.465914 -1.986283 0.933777
-2.466982 -1.972405 0.931232
-2.477169 -1.965719 0.938140
-2.475953 -1.950141 0.933249
-2.483414 -1.941296 0.937329
-2.488539 -1.930656 0.939002
-2.490012 -1.917313 0.936938
-2.489822 -1.902830 0.933200
-2.495630 -1.892805 0.935623
-2.501900 -1.883114 0.938528
-2.499348 -1.867188 0.932474
-2.508617 -1.859662 0.938464
-2.507720 -1.845080 0.934163
-2.509619 -1.832525 0.932732
-2.517295 -1.823920 0.937157
-2.524068 -1.814691 0.940684
-2.529032 -1.804270 0.942410
-2.529900 -1.791226 0.940054
-2.528807 -1.777024 0.935776
-2.529353 -1.763971 0.933180
-2.533732 -1.753385 0.934441
-2.540103 -1.744042 0.937707
-2.544695 -1.733617 0.939224
-2.545912 -1.721203 0.937421
-2.544082 -1.707074 0.932643
-2.546525 -1.695540 0.932126
-2.553097 -1.686410 0.935704
-2.556061 -1.675232 0.935752
-2.557259 -1.663112 0.934093
-2.563517 -1.653824 0.937422
-2.569376 -1.644303 0.940376
-2.582006 -1.638370 0.949955
-2.581463 -1.625419 0.946690
-2.570219 -1.607031 0.933051
-2.577343 -1.598227 0.937320
-2.584135 -1.589219 0.941276
-2.581817 -1.575686 0.936426
-2.585093 -1.564973 0.937018
-2.585470 -1.552891 0.934835
-2.584467 -1.540218 0.931350
-2.594266 -1.532631 0.938286
-2.595656 -1.521125 0.937146
-2.607231 -1.514231 0.945795
-2.604739 -1.501015 0.940969
-2.601096 -1.487392 0.935077
-2.606932 -1.477928 0.938269
-2.610860 -1.467633 0.939650
-2.608739 -1.454837 0.935289
-2.607997 -1.442683 0.932267
-2.617457 -1.434658 0.938952
-2.622376 -1.424770 0.941330
-2.625455 -1.414154 0.941976
-2.622642 -1.401316 0.937068
-2.618045 -1.387903 0.930506
-2.639569 -1.384101 0.948589
-2.618477 -1.364837 0.926537
-2.628206 -1.356693 0.933518
-2.632391 -1.346556 0.935293
-2.635523 -1.336048 0.936088
-2.639415 -1.325788 0.937606
-2.642691 -1.315315 0.938555
-2.634012 -1.301060 0.928355
-2.641896 -1.292081 0.933633
-2.639448 -1.279907 0.929289
-2.645041 -1.270180 0.932444
-2.649761 -1.260162 0.934790
-2.652861 -1.249657 0.935639
-2.650971 -1.237770 0.931874
-2.653169 -1.227040 0.931909
-2.654045 -1.215968 0.930733
-2.646987 -1.202883 0.922248
-2.661801 -1.195380 0.933951
-2.666600 -1.185280 0.936414
-2.671468 -1.175164 0.938945
-2.675542 -1.164832 0.940748
-2.670332 -1.152402 0.934042
-2.672411 -1.141648 0.934036
-2.675662 -1.131143 0.935111
-2.678938 -1.120628 0.936214
-2.675457 -1.108763 0.931155
-2.676459 -1.097826 0.930203
-2.680734 -1.087507 0.932241
-2.688064 -1.077704 0.937060
-2.694253 -1.067636 0.940840
-2.700250 -1.057482 0.944443
-2.687663 -1.044315 0.931202
-2.697474 -1.034757 0.938277
-2.699368 -1.023938 0.938182
-2.700310 -1.012984 0.937236
-2.704402 -1.002462 0.939141
-2.707787 -0.991820 0.940411
-2.706001 -0.980529 0.937032
-2.707972 -0.969714 0.937046
-2.711101 -0.959021 0.938106
-2.712271 -0.948107 0.937414
-2.698928 -0.935795 0.923724
-2.706362 -0.925547 0.928672
-2.720709 -0.915807 0.939800
-2.724870 -0.905112 0.941811
-2.723500 -0.893985 0.938889
-2.710471 -0.882127 0.925587
-2.705698 -0.870937 0.919673
-2.722211 -0.860956 0.932717
-2.736740 -0.850694 0.943978
-2.740017 -0.839806 0.945234
-2.735824 -0.828631 0.939870
-2.730878 -0.817499 0.933860
-2.731635 -0.806570 0.932916
-2.738137 -0.795739 0.937064
-2.744340 -0.784836 0.940947
-2.735121 -0.773801 0.931223
-2.741714 -0.762862 0.935467
-2.750112 -0.751838 0.941299
-2.759485 -0.740707 0.947989
-2.756870 -0.729709 0.944138
-2.760254 -0.718595 0.945571
-2.759818 -0.707568 0.943661
-2.753740 -0.696767 0.936820
-2.753508 -0.685786 0.935120
-2.761510 -0.674399 0.940637
-2.758236 -0.663552 0.936300
-2.758556 -0.652523 0.935119
-2.768641 -0.640824 0.942470
-2.774957 -0.629284 0.946535
-2.778264 -0.617909 0.947982
-2.770226 -0.607475 0.939569
-2.776709 -0.595790 0.943805
-2.780787 -0.584261 0.945957
-2.780718 -0.573113 0.944519
-2.778717 -0.562173 0.941420
-2.777915 -0.551111 0.939378
-2.786106 -0.538946 0.945137
-2.787888 -0.527499 0.945356
-2.789297 -0.516070 0.945266
-2.790540 -0.504637 0.945046
-2.791380 -0.493235 0.944492
-2.795348 -0.481330 0.946650
-2.797943 -0.469581 0.947636
-2.795419 -0.458632 0.944228
-2.797300 -0.446940 0.944629
-2.800646 -0.434946 0.946302
-2.806000 -0.422521 0.949712
-2.810733 -0.410128 0.952598
-2.809216 -0.398882 0.950136
-2.811669 -0.386827 0.951093
-2.808192 -0.375955 0.946987
-2.803667 -0.365326 0.942004
-2.805467 -0.353327 0.942452
-2.817724 -0.338900 0.951850
-2.821597 -0.326251 0.954089
-2.820030 -0.314828 0.951699
-2.816135 -0.303968 0.947339
-2.823139 -0.290373 0.952289
-2.821999 -0.278766 0.950310
-2.818826 -0.267680 0.946616
-2.818180 -0.255915 0.945087
-2.825786 -0.241831 0.950591
-2.822653 -0.230671 0.946973
-2.817324 -0.220157 0.941506
-2.813679 -0.209177 0.937485
-2.832181 -0.191489 0.952264
-2.831403 -0.179510 0.950688
-2.830149 -0.167661 0.948718
-2.827558 -0.156233 0.945623
-2.827494 -0.143980 0.944675
-2.833425 -0.129689 0.948802
-2.829227 -0.118770 0.944361
-2.825529 -0.107714 0.940346
-2.823447 -0.096118 0.937697
-2.829777 -0.081493 0.942145
-2.829385 -0.069261 0.940909
-2.830216 -0.056575 0.940695
-2.832669 -0.043267 0.941834
-2.831069 -0.031515 0.939544
-2.829989 -0.019599 0.937673
-2.828608 -0.007848 0.935530
-2.832990 0.006199 0.938207
-2.836926 0.020072 0.940477
-2.837552 0.032548 0.939933
-2.838336 0.045034 0.939486
-2.841447 0.058465 0.940952
-2.848591 0.073624 0.945751
-2.842713 0.082968 0.939599
-2.849988 0.098084 0.944407
-2.856772 0.112949 0.948747
-2.854066 0.123362 0.945101
-2.850926 0.133402 0.941044
-2.861810 0.149946 0.948623
-2.859862 0.160273 0.945444
-2.851699 0.167382 0.937042
-2.853487 0.179147 0.936862
-2.867865 0.197046 0.947067
-2.883925 0.215773 0.958580
-2.883218 0.225930 0.956120
-2.869849 0.229357 0.943131
-2.852530 0.230391 0.926848
-2.391088 -2.312840 0.922346
-2.394438 -2.303858 0.924233
-2.407503 -2.304814 0.936513
-2.406512 -2.290731 0.933432
-2.401921 -2.272772 0.926344
-2.406036 -2.263618 0.928543
-2.408733 -2.252786 0.929086
-2.414365 -2.244691 0.932662
-2.406428 -2.222860 0.921543
-2.407254 -2.209671 0.919739
-2.414183 -2.202289 0.924360
-2.421964 -2.195486 0.929770
-2.422804 -2.181805 0.927662
-2.424816 -2.169132 0.926714
-2.430522 -2.159807 0.929604
-2.438856 -2.152743 0.935183
-2.442629 -2.141298 0.935841
-2.443064 -2.126727 0.932906
-2.449599 -2.117595 0.936342
-2.447336 -2.100541 0.930466
-2.448744 -2.086758 0.928415
-2.453053 -2.075482 0.929365
-2.460053 -2.066458 0.933082
-2.464976 -2.055582 0.934590
-2.466845 -2.042111 0.932896
-2.468610 -2.028582 0.931085
-2.469222 -2.014148 0.928077
-2.474231 -2.003327 0.929610
-2.482786 -1.995321 0.934783
-2.482788 -1.980505 0.931151
-2.495422 -1.975612 0.940481
-2.495026 -1.960566 0.936460
-2.499862 -1.949600 0.937804
-2.504605 -1.938580 0.939061
-2.509344 -1.927578 0.940326
-2.505874 -1.910595 0.933289
-2.508973 -1.898529 0.932944
-2.516150 -1.889425 0.936736
-2.519744 -1.877781 0.936930
-2.521808 -1.865120 0.935612
-2.522619 -1.851675 0.933071
-2.520937 -1.836636 0.928075
-2.527308 -1.827120 0.931163
-2.535322 -1.818686 0.935903
-2.540497 -1.808371 0.937831
-2.541016 -1.795081 0.935163
-2.545769 -1.784571 0.936725
-2.546280 -1.771428 0.934120
-2.548611 -1.759501 0.933348
-2.552727 -1.748722 0.934366
-2.560908 -1.740416 0.939400
-2.567883 -1.731356 0.943264
-2.561590 -1.714513 0.934155
-2.562934 -1.702269 0.932569
-2.566579 -1.691401 0.933259
-2.565135 -1.677707 0.929021
-2.572233 -1.668846 0.933124
-2.580165 -1.660411 0.938048
-2.583975 -1.649717 0.938989
-2.590346 -1.640400 0.942428
-2.599545 -1.632540 0.948608
-2.596714 -1.618423 0.943204
-2.589242 -1.602070 0.933378
-2.601098 -1.595556 0.942166
-2.599640 -1.582382 0.938184
-2.599141 -1.569763 0.935154
-2.600999 -1.558343 0.934409
-2.601202 -1.546183 0.932109
-2.608712 -1.537461 0.936797
-2.615216 -1.528233 0.940532
-2.614594 -1.515779 0.937509
-2.618742 -1.505494 0.939037
-2.624118 -1.495739 0.941741
-2.630780 -1.486511 0.945671
-2.629370 -1.473858 0.941987
-2.623823 -1.459575 0.934432
-2.625224 -1.448235 0.933454
-2.626715 -1.436962 0.932580
-2.634364 -1.428124 0.937504
-2.639643 -1.418318 0.940208
-2.642884 -1.407716 0.941011
-2.651706 -1.399181 0.947044
-2.647954 -1.386003 0.941337
-2.655670 -1.377007 0.946349
-2.644611 -1.361387 0.933884
-2.642816 -1.349134 0.930077
-2.646685 -1.338848 0.931551
-2.655356 -1.330129 0.937485
-2.659077 -1.319737 0.938832
-2.657909 -1.307791 0.935666
-2.662963 -1.297820 0.938265
-2.660651 -1.285592 0.934075
-2.660949 -1.274202 0.932311
-2.665089 -1.263953 0.934095
-2.666758 -1.252986 0.933615
-2.669427 -1.242306 0.934063
-2.672924 -1.231847 0.935278
-2.674352 -1.220832 0.934606
-2.667090 -1.207607 0.926000
-2.675514 -1.198418 0.931747
-2.686726 -1.189827 0.940030
-2.690601 -1.179386 0.941619
-2.693138 -1.168618 0.941995
-2.693439 -1.157347 0.940348
-2.693618 -1.146073 0.938601
-2.694082 -1.134886 0.937125
-2.692756 -1.123354 0.934038
-2.692819 -1.112142 0.932224
-2.692406 -1.100863 0.929991
-2.692556 -1.089720 0.928278
-2.695674 -1.079131 0.929252
-2.711266 -1.070672 0.941457
-2.705672 -1.058530 0.934595
-2.714441 -1.048772 0.940653
-2.713139 -1.037384 0.937672
-2.711084 -1.025926 0.934030
-2.714810 -1.015329 0.935576
-2.718511 -1.004704 0.937104
-2.723408 -0.994208 0.939703
-2.725081 -0.983279 0.939427
-2.724979 -0.972145 0.937578
-2.730283 -0.961623 0.940552
-2.731778 -0.950663 0.940139
-2.730749 -0.939460 0.937493
-2.733923 -0.928669 0.938588
-2.735281 -0.917704 0.938079
-2.740781 -0.907065 0.941245
-2.737319 -0.895727 0.936487
-2.737200 -0.884671 0.934699
-2.745456 -0.874135 0.940312
-2.747645 -0.863186 0.940573
-2.748103 -0.852144 0.939317
-2.749497 -0.841149 0.938895
-2.746131 -0.829983 0.934299
-2.746058 -0.818968 0.932610
-2.755419 -0.808187 0.939206
-2.756407 -0.797159 0.938463
-2.759144 -0.786152 0.939259
-2.762440 -0.775124 0.940551
-2.758576 -0.764074 0.935596
-2.771998 -0.752959 0.945742
-2.768669 -0.741910 0.941276
-2.767706 -0.730864 0.938888
-2.770674 -0.719738 0.939933
-2.777000 -0.708477 0.943906
-2.773583 -0.697510 0.939420
-2.773598 -0.686440 0.937929
-2.774507 -0.675331 0.937226
-2.777941 -0.664073 0.938722
-2.785869 -0.652501 0.944113
-2.786284 -0.641342 0.943011
-2.789646 -0.629961 0.944467
-2.790458 -0.618743 0.943731
-2.791161 -0.607523 0.942914
-2.794050 -0.596092 0.943992
-2.794445 -0.584867 0.942934
-2.794325 -0.573685 0.941448
-2.794470 -0.562471 0.940203
-2.797441 -0.550922 0.941400
-2.801990 -0.539137 0.943958
-2.805872 -0.527373 0.945955
-2.803959 -0.516329 0.942999
-2.805741 -0.504780 0.943222
-2.813502 -0.492323 0.948569
-2.810786 -0.481353 0.944972
-2.816455 -0.469075 0.948551
-2.817325 -0.457500 0.948046
-2.811636 -0.447016 0.941967
-2.819978 -0.434106 0.947857
-2.829168 -0.420919 0.954474
-2.828341 -0.409490 0.952580
-2.827225 -0.398105 0.950457
-2.826926 -0.386547 0.949046
-2.827728 -0.374740 0.948586
-2.815742 -0.365626 0.937299
-2.826800 -0.351573 0.945565
-2.831032 -0.338897 0.948055
-2.834496 -0.326317 0.949906
-2.839758 -0.313236 0.953289
-2.833162 -0.302959 0.946664
-2.834728 -0.290685 0.946952
-2.834745 -0.278757 0.945947
-2.834733 -0.266804 0.944931
-2.836082 -0.254450 0.945077
-2.837436 -0.242045 0.945239
-2.836095 -0.230349 0.943144
-2.834599 -0.218682 0.940932
-2.845201 -0.203428 0.948903
-2.853276 -0.188768 0.954752
-2.852841 -0.176594 0.953456
-2.844525 -0.166874 0.945555
-2.841739 -0.155456 0.942307
-2.845958 -0.141752 0.944940
-2.847785 -0.128768 0.945569
-2.848064 -0.116264 0.944903
-2.838595 -0.107120 0.936079
-2.841928 -0.093557 0.937970
-2.844407 -0.080246 0.939141
-2.846904 -0.066890 0.940318
-2.846863 -0.054447 0.939366
-2.849197 -0.041107 0.940384
-2.849653 -0.028472 0.939820
-2.840611 -0.019580 0.931323
-2.849503 -0.003671 0.937754
-2.855432 0.011118 0.941685
-2.862007 0.026207 0.946123
-2.861084 0.038191 0.944291
-2.856210 0.048421 0.939144
-2.857060 0.060988 0.938720
-2.856929 0.073055 0.937442
-2.862156 0.087407 0.940565
-2.869365 0.102616 0.945277
-2.876026 0.117551 0.949480
-2.867749 0.125535 0.941270
-2.865671 0.136191 0.938143
-2.874786 0.151992 0.944203
-2.880948 0.166330 0.947757
-2.870437 0.172475 0.937511
-2.874410 0.185457 0.939144
-2.895439 0.206795 0.954733
-2.905706 0.222773 0.961387
-2.904440 0.232810 0.958505
-2.893783 0.237816 0.947871
-2.912030 0.257518 0.960852
-2.378492 -2.295056 0.893064
-2.406538 -2.312179 0.921408
-2.414590 -2.307709 0.928125
-2.417786 -2.297873 0.929501
-2.408568 -2.275036 0.917475
-2.409502 -2.262536 0.916199
-2.424542 -2.264093 0.929847
-2.424345 -2.249977 0.927114
-2.425029 -2.236593 0.925212
-2.425144 -2.222507 0.922602
-2.435415 -2.218163 0.930646
-2.439089 -2.207169 0.931587
-2.441545 -2.194850 0.931141
-2.441709 -2.180247 0.928195
-2.448233 -2.171503 0.931855
-2.449417 -2.157653 0.929824
-2.452675 -2.145636 0.929898
-2.458301 -2.135669 0.932379
-2.462976 -2.124731 0.933799
-2.463538 -2.110074 0.930885
-2.464149 -2.095466 0.927990
-2.474869 -2.089594 0.935531
-2.477709 -2.076830 0.934868
-2.481153 -2.064568 0.934804
-2.482837 -2.050831 0.932911
-2.486907 -2.039095 0.933459
-2.483362 -2.021158 0.926202
-2.488953 -2.010717 0.928299
-2.495046 -2.000655 0.930897
-2.501857 -1.991133 0.934216
-2.499705 -1.974632 0.928440
-2.510775 -1.968398 0.936074
-2.513897 -1.956049 0.935665
-2.520430 -1.946298 0.938709
-2.522298 -1.933095 0.937071
-2.521739 -1.918200 0.933027
-2.521611 -1.903737 0.929453
-2.526593 -1.893020 0.931020
-2.531985 -1.882612 0.933012
-2.533952 -1.869849 0.931618
-2.537858 -1.858489 0.932180
-2.541667 -1.847105 0.932671
-2.541688 -1.833240 0.929446
-2.549249 -1.824445 0.933696
-2.555806 -1.814974 0.936970
-2.558430 -1.802977 0.936397
-2.566249 -1.794327 0.940948
-2.566428 -1.780879 0.938037
-2.566598 -1.767524 0.935157
-2.568856 -1.755533 0.934353
-2.575816 -1.746421 0.938152
-2.582730 -1.737263 0.941920
-2.586535 -1.726274 0.942691
-2.587422 -1.713635 0.940666
-2.583041 -1.698082 0.933586
-2.583536 -1.685413 0.931260
-2.589917 -1.676069 0.934630
-2.596187 -1.666647 0.937908
-2.598887 -1.655294 0.937777
-2.602746 -1.644591 0.938780
-2.608140 -1.634705 0.941272
-2.611281 -1.623656 0.941630
-2.609994 -1.610394 0.937793
-2.610339 -1.598035 0.935542
-2.612661 -1.586710 0.935198
-2.614390 -1.575133 0.934315
-2.619022 -1.564977 0.936203
-2.623814 -1.554893 0.938256
-2.622148 -1.541822 0.934231
-2.621873 -1.529468 0.931548
-2.625205 -1.518790 0.932285
-2.633160 -1.510154 0.937379
-2.640181 -1.501057 0.941601
-2.646392 -1.491570 0.945069
-2.649715 -1.480842 0.945844
-2.645019 -1.466822 0.939146
-2.640445 -1.452970 0.932597
-2.638225 -1.440167 0.928275
-2.643871 -1.430513 0.931293
-2.651768 -1.421690 0.936406
-2.657377 -1.411943 0.939399
-2.654165 -1.398907 0.934231
-2.669318 -1.392616 0.946069
-2.666170 -1.379653 0.940992
-2.664291 -1.367219 0.937111
-2.657979 -1.353336 0.929172
-2.661195 -1.342773 0.930027
-2.669206 -1.333781 0.935295
-2.677387 -1.324775 0.940716
-2.686630 -1.316032 0.947108
-2.688675 -1.304984 0.946909
-2.680762 -1.290941 0.937623
-2.679471 -1.278993 0.934413
-2.678675 -1.267240 0.931673
-2.678535 -1.255717 0.929547
-2.682732 -1.245423 0.931377
-2.688884 -1.235632 0.934987
-2.694106 -1.225549 0.937754
-2.694858 -1.214287 0.936474
-2.698929 -1.203873 0.938208
-2.700192 -1.192757 0.937410
-2.705493 -1.182606 0.940265
-2.709913 -1.172215 0.942327
-2.710900 -1.161030 0.941302
-2.708351 -1.149094 0.937108
-2.709205 -1.137935 0.935988
-2.710715 -1.126926 0.935466
-2.711797 -1.115840 0.934568
-2.709988 -1.104214 0.931094
-2.709043 -1.092797 0.928406
-2.716265 -1.082874 0.933024
-2.719144 -1.072138 0.933765
-2.733313 -1.063262 0.944567
-2.723451 -1.050398 0.933971
-2.731064 -1.040360 0.938935
-2.730805 -1.029092 0.936907
-2.719801 -1.016338 0.925364
-2.734683 -1.007225 0.936780
-2.739305 -0.996633 0.939099
-2.740712 -0.985612 0.938579
-2.742049 -0.974586 0.938005
-2.742811 -0.963502 0.936932
-2.747419 -0.952825 0.939256
-2.751273 -0.942038 0.940919
-2.751892 -0.930928 0.939741
-2.755779 -0.920107 0.941441
-2.752306 -0.908675 0.936691
-2.753671 -0.897656 0.936196
-2.758827 -0.886889 0.939027
-2.757483 -0.875683 0.936176
-2.760510 -0.864747 0.937156
-2.761678 -0.853699 0.936519
-2.761854 -0.842611 0.935027
-2.764488 -0.831623 0.935686
-2.769914 -0.820701 0.938778
-2.782997 -0.809908 0.948525
-2.774858 -0.798591 0.939841
-2.776517 -0.787501 0.939678
-2.781843 -0.776422 0.942699
-2.782331 -0.765291 0.941537
-2.783186 -0.754161 0.940702
-2.783431 -0.743039 0.939352
-2.783729 -0.731920 0.938058
-2.788743 -0.720691 0.940842
-2.793645 -0.709411 0.943532
-2.792408 -0.698303 0.940944
-2.791022 -0.687221 0.938244
-2.795489 -0.675876 0.940585
-2.803576 -0.664284 0.946037
-2.803884 -0.653068 0.944820
-2.806092 -0.641724 0.945244
-2.805572 -0.630553 0.943344
-2.798855 -0.619874 0.936161
-2.802447 -0.608404 0.937806
-2.807093 -0.596792 0.940358
-2.813957 -0.584908 0.944808
-2.812768 -0.573764 0.942402
-2.810677 -0.562726 0.939245
-2.810529 -0.551485 0.937757
-2.821638 -0.538880 0.945848
-2.826623 -0.526909 0.948739
-2.826818 -0.515504 0.947575
-2.837397 -0.502644 0.955226
-2.834145 -0.491648 0.951165
-2.827923 -0.481125 0.944612
-2.835334 -0.468525 0.949607
-2.840906 -0.456119 0.953055
-2.836652 -0.445289 0.948217
-2.838195 -0.433477 0.948290
-2.848856 -0.419975 0.956062
-2.848519 -0.408383 0.954573
-2.847786 -0.396849 0.952768
-2.847736 -0.385164 0.951553
-2.843796 -0.374256 0.947087
-2.845380 -0.362201 0.947280
-2.843602 -0.350832 0.944665
-2.846983 -0.338301 0.946394
-2.849553 -0.325885 0.947456
-2.851195 -0.313628 0.947752
-2.856442 -0.300443 0.951080
-2.845381 -0.291224 0.940778
-2.854507 -0.276955 0.947375
-2.850311 -0.266024 0.942849
-2.851817 -0.253584 0.943101
-2.852957 -0.241192 0.943060
-2.849236 -0.230114 0.938978
-2.850347 -0.217663 0.938938
-2.856920 -0.203561 0.943457
-2.865931 -0.188611 0.950010
-2.865309 -0.176461 0.948551
-2.858827 -0.166119 0.942230
-2.856938 -0.154364 0.939739
-2.859566 -0.141134 0.941006
-2.862341 -0.127794 0.942398
-2.862323 -0.115339 0.941474
-2.863760 -0.102361 0.941757
-2.866666 -0.088831 0.943255
-2.863092 -0.077567 0.939384
-2.862077 -0.065409 0.937628
-2.865314 -0.051681 0.939383
-2.866612 -0.038645 0.939521
-2.868904 -0.025218 0.940468
-2.870908 -0.011888 0.941160
-2.872594 0.001319 0.941569
-2.878497 0.016220 0.945432
-2.883135 0.030639 0.948223
-2.880847 0.042186 0.945279
-2.878354 0.053558 0.942137
-2.869863 0.062258 0.934033
-2.871683 0.075261 0.934375
-2.883029 0.092409 0.942496
-2.894797 0.109789 0.950906
-2.888164 0.118847 0.944171
-2.891645 0.132359 0.945681
-2.884723 0.140931 0.938623
-2.892694 0.156315 0.943699
-2.894262 0.168582 0.943479
-2.897867 0.181696 0.944864
-2.906869 0.197327 0.950585
-2.909116 0.209540 0.950733
-2.924031 0.227944 0.961124
-2.922697 0.238094 0.958227
-2.922255 0.248494 0.955999
-2.903414 0.249177 0.938800
-2.439265 -2.355120 0.942194
-2.421005 -2.322905 0.920926
-2.427165 -2.316273 0.925500
-2.429497 -2.305387 0.925883
-2.428163 -2.290521 0.922261
-2.429972 -2.278698 0.921852
-2.438709 -2.273649 0.928634
-2.443426 -2.264276 0.931044
-2.438859 -2.245505 0.923567
-2.450781 -2.242814 0.933320
-2.449393 -2.226891 0.928984
-2.458619 -2.221064 0.935667
-2.461492 -2.208941 0.935597
-2.459409 -2.192032 0.930275
-2.462142 -2.179579 0.929900
-2.467152 -2.169118 0.931814
-2.463965 -2.151073 0.925163
-2.468668 -2.140169 0.926630
-2.477851 -2.133152 0.932656
-2.484662 -2.123874 0.936164
-2.485628 -2.109402 0.933617
-2.485914 -2.094358 0.930348
-2.497472 -2.088931 0.938583
-2.497459 -2.073613 0.934960
-2.496790 -2.057815 0.930669
-2.503101 -2.047826 0.933468
-2.507892 -2.036563 0.934708
-2.506012 -2.019949 0.929199
-2.510741 -2.008694 0.930379
-2.514499 -1.996686 0.930582
-2.517942 -1.984464 0.930475
-2.524489 -1.974650 0.933489
-2.532610 -1.966007 0.938075
-2.528898 -1.948516 0.930866
-2.533757 -1.937505 0.932230
-2.540137 -1.927623 0.935119
-2.535663 -1.909954 0.927270
-2.547276 -1.903872 0.935375
-2.552825 -1.893456 0.937491
-2.545503 -1.874169 0.926960
-2.554835 -1.866474 0.932853
-2.560883 -1.856519 0.935532
-2.563056 -1.843995 0.934438
-2.569203 -1.834149 0.937256
-2.568452 -1.819842 0.933374
-2.574508 -1.810001 0.936152
-2.578481 -1.798851 0.936927
-2.582561 -1.787804 0.937833
-2.580769 -1.773184 0.933087
-2.586965 -1.763532 0.936094
-2.594316 -1.754566 0.940231
-2.594904 -1.741589 0.937881
-2.596498 -1.729280 0.936531
-2.599760 -1.717993 0.936812
-2.604509 -1.707584 0.938540
-2.607254 -1.696070 0.938376
-2.609324 -1.684225 0.937594
-2.625948 -1.680327 0.950684
-2.615012 -1.661514 0.937587
-2.617542 -1.650047 0.937322
-2.620084 -1.638623 0.937093
-2.620310 -1.626050 0.934701
-2.620054 -1.613304 0.931884
-2.622458 -1.601954 0.931604
-2.634823 -1.595514 0.940711
-2.635063 -1.583112 0.938429
-2.637474 -1.571803 0.938210
-2.637575 -1.559444 0.935850
-2.634981 -1.545905 0.930999
-2.634989 -1.533644 0.928608
-2.648430 -1.527430 0.938757
-2.652728 -1.517071 0.940391
-2.653278 -1.505090 0.938555
-2.659496 -1.495561 0.941998
-2.663037 -1.484882 0.942969
-2.661319 -1.472047 0.939090
-2.657740 -1.458538 0.933520
-2.660525 -1.447650 0.933848
-2.659504 -1.435291 0.930686
-2.665624 -1.425725 0.934115
-2.672937 -1.416569 0.938643
-2.678377 -1.406666 0.941454
-2.686298 -1.397632 0.946543
-2.685077 -1.385288 0.943270
-2.676386 -1.370402 0.933196
-2.673704 -1.357727 0.928642
-2.679737 -1.348046 0.932050
-2.685648 -1.338283 0.935350
-2.690752 -1.328220 0.937919
-2.698916 -1.319090 0.943268
-2.701622 -1.308207 0.943668
-2.699085 -1.295746 0.939333
-2.695728 -1.283113 0.934276
-2.694427 -1.271152 0.931099
-2.693949 -1.259473 0.928680
-2.698499 -1.249217 0.930805
-2.704074 -1.239209 0.933855
-2.710948 -1.229500 0.938073
-2.713481 -1.218626 0.938395
-2.712901 -1.206975 0.935933
-2.713072 -1.195544 0.934159
-2.717953 -1.185253 0.936607
-2.725189 -1.175468 0.941160
-2.727856 -1.164600 0.941634
-2.722431 -1.151974 0.934908
-2.724319 -1.140983 0.934709
-2.731196 -1.131012 0.938953
-2.733268 -1.120031 0.938929
-2.729266 -1.107890 0.933527
-2.731261 -1.096933 0.933455
-2.735635 -1.086402 0.935493
-2.736914 -1.075307 0.934799
-2.736255 -1.063900 0.932404
-2.760483 -1.056498 0.951957
-2.745772 -1.042844 0.937189
-2.752013 -1.032480 0.940886
-2.751525 -1.021112 0.938670
-2.752921 -1.010027 0.938119
-2.754674 -0.998993 0.937889
-2.756164 -0.987926 0.937435
-2.753718 -0.976405 0.933546
-2.757884 -0.965661 0.935449
-2.763768 -0.955064 0.938853
-2.765674 -0.944026 0.938788
-2.765501 -0.932794 0.936921
-2.768117 -0.921821 0.937490
-2.776937 -0.911325 0.943455
-2.776273 -0.900046 0.941182
-2.781456 -0.889183 0.943990
-2.784554 -0.878148 0.944993
-2.772752 -0.866275 0.933109
-2.777527 -0.855368 0.935585
-2.781236 -0.844373 0.937142
-2.787825 -0.833452 0.941188
-2.794402 -0.822466 0.945224
-2.795196 -0.811272 0.944279
-2.799409 -0.800144 0.946286
-2.797493 -0.788901 0.943030
-2.798803 -0.777713 0.942557
-2.801110 -0.766521 0.942948
-2.798940 -0.755337 0.939512
-2.797802 -0.744176 0.936975
-2.800888 -0.732962 0.938061
-2.807729 -0.721631 0.942361
-2.811396 -0.710319 0.943954
-2.816473 -0.698919 0.946755
-2.817489 -0.687633 0.946101
-2.814218 -0.676543 0.941811
-2.816051 -0.665223 0.941876
-2.818435 -0.653852 0.942420
-2.822001 -0.642376 0.943976
-2.823390 -0.631015 0.943693
-2.820715 -0.619952 0.939979
-2.809309 -0.609651 0.928895
-2.827398 -0.596843 0.942776
-2.832765 -0.585031 0.945898
-2.829733 -0.574004 0.941939
-2.824895 -0.563202 0.936475
-2.825202 -0.551869 0.935364
-2.831045 -0.539863 0.938929
-2.841282 -0.527227 0.946195
-2.849329 -0.514747 0.951619
-2.857481 -0.502145 0.957137
-2.850351 -0.491627 0.949837
-2.845810 -0.480795 0.944733
-2.848250 -0.468917 0.945496
-2.851482 -0.456866 0.946934
-2.851377 -0.445319 0.945593
-2.855603 -0.433003 0.947885
-2.850503 -0.422294 0.942402
-2.860190 -0.408876 0.949277
-2.864634 -0.396325 0.951785
-2.864645 -0.384576 0.950610
-2.863495 -0.373040 0.948484
-2.860659 -0.361846 0.944973
-2.860135 -0.350160 0.943402
-2.859499 -0.338478 0.941755
-2.867127 -0.324882 0.946985
-2.873395 -0.311483 0.951092
-2.880379 -0.297801 0.955801
-2.879645 -0.285911 0.954123
-2.864210 -0.277727 0.940291
-2.876664 -0.262451 0.949563
-2.883691 -0.248430 0.954349
-2.874444 -0.238721 0.945695
-2.872767 -0.226983 0.943314
-2.870245 -0.215472 0.940249
-2.872557 -0.202548 0.941187
-2.877644 -0.188734 0.944419
-2.881996 -0.175044 0.947052
-2.880298 -0.163145 0.944708
-2.874040 -0.152681 0.938623
-2.874701 -0.140029 0.938239
-2.879358 -0.126021 0.941144
-2.881158 -0.112888 0.941703
-2.883404 -0.099555 0.942627
-2.881381 -0.087665 0.940048
-2.880514 -0.075373 0.938416
-2.886990 -0.060419 0.942800
-2.883981 -0.048873 0.939404
-2.885238 -0.035763 0.939494
-2.889415 -0.021527 0.941960
-2.889807 -0.008718 0.941314
-2.888949 0.003584 0.939630
-2.892861 0.017761 0.941822
-2.898274 0.032567 0.945213
-2.901778 0.046606 0.947016
-2.896910 0.057115 0.941964
-2.901094 0.071362 0.944257
-2.893810 0.080619 0.937178
-2.913649 0.101623 0.952125
-2.907412 0.111152 0.945819
-2.905913 0.122639 0.943324
-2.906116 0.134771 0.942166
-2.916883 0.151681 0.949522
-2.918852 0.164446 0.949687
-2.912439 0.173095 0.943015
-2.918598 0.187572 0.946460
-2.926790 0.202945 0.951482
-2.937167 0.219317 0.958197
-2.932761 0.228247 0.952926
-2.941315 0.243479 0.958037
-2.944468 0.255855 0.958732
-2.958702 0.273775 0.968264
-2.437578 -2.348778 0.924329
-2.434420 -2.332430 0.919116
-2.433619 -2.318393 0.916269
-2.448123 -2.319955 0.929365
-2.444708 -2.302768 0.923530
-2.447429 -2.291683 0.924012
-2.454176 -2.284424 0.928580
-2.461966 -2.277924 0.934106
-2.464971 -2.266426 0.934521
-2.467250 -2.254035 0.934073
-2.469161 -2.241132 0.933144
-2.474067 -2.230953 0.935221
-2.478466 -2.220113 0.936675
-2.478329 -2.204872 0.933360
-2.478392 -2.189763 0.930187
-2.482492 -2.178308 0.931098
-2.478823 -2.159706 0.923980
-2.481277 -2.146651 0.923094
-2.492328 -2.141166 0.930931
-2.497153 -2.130021 0.932351
-2.497492 -2.114920 0.929168
-2.501801 -2.103251 0.929991
-2.508350 -2.093441 0.933048
-2.514276 -2.083040 0.935443
-2.513628 -2.067154 0.931195
-2.517351 -2.054929 0.931344
-2.522032 -2.043489 0.932448
-2.520744 -2.027284 0.927579
-2.534563 -2.023111 0.937803
-2.531987 -2.006003 0.931672
-2.534209 -1.992739 0.930341
-2.540529 -1.982657 0.933091
-2.544742 -1.970984 0.933761
-2.540578 -1.953131 0.926183
-2.546053 -1.942530 0.928145
-2.554008 -1.933737 0.932556
-2.559902 -1.923442 0.934952
-2.561404 -1.910058 0.933067
-2.572001 -1.903100 0.940093
-2.577021 -1.892232 0.941684
-2.570499 -1.873548 0.932077
-2.579370 -1.865414 0.937468
-2.579959 -1.851756 0.934849
-2.580938 -1.838451 0.932646
-2.586681 -1.828313 0.935074
-2.588875 -1.815923 0.934106
-2.593592 -1.805188 0.935594
-2.599195 -1.795027 0.937953
-2.604132 -1.784467 0.939696
-2.600962 -1.769029 0.933717
-2.606275 -1.758794 0.935876
