ply
format ascii 1.0
comment ---
element vertex 1649
property float x
property float y
property float z
element face 0
property list uchar uint vertex_indices
end_header
-4.583769 -5.450593 0.627147
-4.587191 -5.434389 0.626122
-4.584822 -5.413930 0.623902
-4.575584 -5.388523 0.620281
-4.585470 -5.378116 0.620497
-4.581402 -5.357352 0.617880
-4.582287 -5.340666 0.616233
-4.588650 -5.328354 0.615649
-4.599124 -5.319308 0.615843
-4.602798 -5.305511 0.614650
-4.603966 -5.290198 0.612928
-4.606912 -5.276486 0.611523
-4.602699 -5.258003 0.608686
-4.607199 -5.246046 0.607519
-1.859728 -6.115220 0.445534
-1.869594 -6.115160 0.446660
-1.879373 -6.119904 0.448350
-1.890019 -6.112676 0.448471
-1.901323 -6.094834 0.447183
-1.911744 -6.097144 0.448417
-1.922153 -6.104388 0.450239
-1.933099 -6.103570 0.450981
-1.944050 -6.107379 0.452274
-1.955313 -6.107174 0.453004
-1.966770 -6.105332 0.453478
-1.978528 -6.095319 0.452847
-1.990258 -6.090236 0.452812
-2.001965 -6.094359 0.453937
-2.013810 -6.101220 0.455384
-2.025857 -6.099650 0.455698
-2.037992 -6.095434 0.455633
-2.050191 -6.092096 0.455652
-2.062502 -6.093750 0.456300
-2.074859 -6.092210 0.456504
-2.087162 -6.085109 0.455956
-2.099831 -6.092863 0.457344
-2.112249 -6.087729 0.457018
-2.124799 -6.086397 0.457181
-2.137328 -6.083769 0.457161
-2.149804 -6.079614 0.456930
-2.162161 -6.073203 0.456393
-2.178448 -6.140954 0.465676
-2.196289 -6.223812 0.476974
-2.210956 -6.243436 0.479901
-2.224046 -6.236819 0.479349
-2.240458 -6.276594 0.484965
-2.259091 -6.339927 0.493730
-2.274843 -6.360797 0.496862
-2.289654 -6.368529 0.498255
-2.304368 -6.374354 0.499406
-2.317789 -6.366234 0.498705
-2.330692 -6.353801 0.497436
-2.341803 -6.325688 0.494078
-2.356353 -6.330895 0.495188
-2.371585 -6.341548 0.497043
-2.384995 -6.336311 0.496782
-2.397839 -6.327001 0.495986
-2.412997 -6.336087 0.497678
-2.427478 -6.339534 0.498628
-2.440352 -6.331300 0.498018
-2.453149 -6.323080 0.497423
-2.467055 -6.322762 0.497911
-2.481750 -6.327553 0.499106
-2.495023 -6.323132 0.499069
-2.507651 -6.315021 0.498546
-2.518792 -6.298558 0.496899
-2.530888 -6.288456 0.496129
-2.545787 -6.294514 0.497576
-2.563612 -6.316118 0.501168
-2.580641 -6.332336 0.504048
-2.595658 -6.337291 0.505407
-2.609124 -6.334116 0.505668
-2.621908 -6.327675 0.505493
-2.635108 -6.323454 0.505638
-2.645794 -6.307544 0.504181
-2.656276 -6.291332 0.502691
-2.667299 -6.278168 0.501629
-2.678490 -6.266214 0.500745
-2.691886 -6.264151 0.501247
-2.704108 -6.257131 0.501071
-2.717322 -6.254388 0.501505
-2.729001 -6.245448 0.501083
-2.742062 -6.242224 0.501473
-2.754465 -6.236458 0.501518
-2.770141 -6.243279 0.503350
-2.785952 -6.250240 0.505220
-2.802772 -6.260537 0.507581
-2.818052 -6.264783 0.509104
-2.828660 -6.252201 0.508248
-2.839632 -6.241199 0.507623
-2.851418 -6.233237 0.507439
-2.868633 -6.243685 0.509903
-2.882106 -6.241273 0.510539
-2.894268 -6.234545 0.510565
-2.906455 -6.227985 0.510624
-2.920884 -6.228566 0.511725
-2.931887 -6.218375 0.511275
-2.947099 -6.221209 0.512727
-2.958659 -6.212848 0.512560
-2.973268 -6.213628 0.513736
-2.987463 -6.213039 0.514725
-3.003283 -6.216994 0.516394
-3.018151 -6.218002 0.517644
-3.035855 -6.226741 0.520050
-3.048692 -6.221724 0.520436
-3.047472 -6.178658 0.515173
-3.041051 -6.122787 0.507977
-3.054430 -6.120437 0.508748
-3.069028 -6.121178 0.509993
-3.092525 -6.107799 0.510278
-3.093057 -6.073231 0.506213
-3.071592 -5.985383 0.494048
-3.073670 -5.956815 0.490834
-3.084441 -5.949667 0.490873
-3.096714 -5.946119 0.491468
-3.109457 -5.943630 0.492233
-3.121374 -5.939169 0.492702
-3.138339 -5.946167 0.494948
-3.155401 -5.953078 0.497197
-3.162107 -5.936720 0.495849
-3.178667 -5.942214 0.497902
-3.189855 -5.935818 0.498113
-3.200986 -5.929325 0.498313
-3.215740 -5.930505 0.499725
-3.230458 -5.931450 0.501112
-3.242885 -5.927516 0.501740
-3.258684 -5.930413 0.503459
-3.273846 -5.931827 0.504957
-3.285368 -5.925828 0.505283
-3.297628 -5.921288 0.505849
-3.312642 -5.922074 0.507279
-3.330777 -5.928710 0.509665
-3.342406 -5.922693 0.510023
-3.353896 -5.916414 0.510344
-3.367759 -5.914552 0.511390
-3.383406 -5.915877 0.512969
-3.398032 -5.915181 0.514230
-3.409088 -5.907947 0.514428
-3.418656 -5.898084 0.514196
-3.433653 -5.897853 0.515564
-3.450794 -5.901222 0.517544
-3.468683 -5.905672 0.519723
-3.485521 -5.908097 0.521583
-3.500054 -5.906448 0.522775
-3.513167 -5.902328 0.523563
-3.536395 -5.914847 0.527179
-3.546237 -5.905103 0.527043
-3.554249 -5.892460 0.526417
-3.570125 -5.892517 0.527965
-3.586286 -5.892881 0.529583
-3.597699 -5.885654 0.529909
-3.611485 -5.882113 0.530882
-3.632303 -5.889293 0.533732
-3.646981 -5.886852 0.534930
-3.666731 -5.891945 0.537464
-3.690117 -5.902205 0.540932
-3.702612 -5.896046 0.541537
-3.715514 -5.890452 0.542254
-3.730573 -5.887935 0.543531
-3.742164 -5.880349 0.543921
-3.755333 -5.874993 0.544722
-3.778480 -5.883593 0.548050
-3.792419 -5.879066 0.549041
-3.806109 -5.874126 0.549974
-3.823787 -5.874558 0.551902
-3.844063 -5.878323 0.554466
-3.862692 -5.879652 0.556614
-3.876449 -5.874336 0.557564
-3.892857 -5.872429 0.559164
-3.910890 -5.872499 0.561157
-3.925691 -5.868237 0.562368
-3.933209 -5.854604 0.561840
-3.948345 -5.850666 0.563148
-3.985490 -5.874134 0.569677
-3.998643 -5.867273 0.570500
-4.010528 -5.858801 0.571036
-4.032391 -5.862425 0.573915
-4.043795 -5.853207 0.574353
-4.073015 -5.865207 0.578928
-4.087448 -5.859327 0.580073
-4.100788 -5.852083 0.580976
-4.117147 -5.848275 0.582579
-4.134314 -5.845263 0.584369
-4.153926 -5.844883 0.586717
-4.162576 -5.831958 0.586594
-4.177541 -5.826110 0.587909
-4.204328 -5.833225 0.591871
-4.239136 -5.848773 0.597604
-4.250702 -5.838606 0.598162
-4.270350 -5.837091 0.600518
-4.289532 -5.834884 0.602773
-4.312181 -5.836144 0.605788
-4.327996 -5.830017 0.607310
-4.339062 -5.818861 0.607809
-4.351120 -5.808697 0.608538
-4.365582 -5.800929 0.609799
-4.397324 -5.810439 0.614780
-4.416904 -5.807421 0.617142
-4.433875 -5.801643 0.618948
-4.450522 -5.795418 0.620691
-4.467638 -5.789521 0.622539
-4.489223 -5.787773 0.625333
-4.509368 -5.784446 0.627821
-4.527261 -5.778821 0.629836
-4.548330 -5.776017 0.632515
-4.570519 -5.774055 0.635422
-4.582454 -5.762524 0.636194
-4.585614 -5.743038 0.635156
-4.597307 -5.731335 0.635893
-4.591867 -5.704424 0.633111
-4.594426 -5.684836 0.631990
-4.592409 -5.661425 0.629945
-4.593469 -5.640907 0.628541
-4.597561 -5.623174 0.627760
-4.593469 -5.598671 0.625325
-4.596031 -5.580031 0.624242
-4.595778 -5.559245 0.622591
-4.589358 -5.533635 0.619703
-4.587690 -5.512238 0.617769
-4.589745 -5.494117 0.616574
-4.589828 -5.474653 0.614976
-4.591665 -5.456843 0.613714
-4.594340 -5.439939 0.612601
-4.599625 -5.425307 0.611983
-4.600462 -5.407475 0.610466
-4.603189 -5.391375 0.609298
-4.588284 -5.362241 0.604669
-4.584424 -5.341889 0.602179
-4.583221 -5.323882 0.600182
-4.582045 -5.306238 0.598165
-4.589927 -5.295537 0.597860
-4.591775 -5.280719 0.596361
-4.590805 -5.264202 0.594291
-4.590935 -5.248821 0.592402
-4.592759 -5.234974 0.590803
-1.861046 -6.090936 0.430926
-1.870012 -6.105064 0.433733
-1.879757 -6.110761 0.435471
-1.890668 -6.099063 0.435027
-1.901258 -6.095693 0.435555
-1.911991 -6.092559 0.436063
-1.922714 -6.093297 0.437004
-1.933000 -6.110306 0.439923
-1.944516 -6.099824 0.439380
-1.955647 -6.104926 0.440734
-1.967033 -6.107731 0.441761
-1.978713 -6.104468 0.441986
-1.990645 -6.092441 0.441070
-2.002424 -6.095269 0.441981
-2.014332 -6.100488 0.443159
-2.026420 -6.097929 0.443326
-2.038586 -6.094022 0.443290
-2.050850 -6.096419 0.444024
-2.063143 -6.091584 0.443818
-2.075472 -6.087087 0.443630
-2.087976 -6.089763 0.444333
-2.100387 -6.085340 0.444117
-2.113045 -6.088753 0.444883
-2.125491 -6.083792 0.444571
-2.138156 -6.084513 0.444973
-2.150874 -6.085514 0.445404
-2.163903 -6.092070 0.446539
-2.179929 -6.152745 0.454590
-2.198460 -6.245843 0.466801
-2.212960 -6.260978 0.469051
-2.227171 -6.269547 0.470465
-2.243253 -6.302457 0.475008
-2.259667 -6.335450 0.479574
-2.275510 -6.357633 0.482765
-2.290157 -6.363662 0.483892
-2.303808 -6.358268 0.483560
-2.317256 -6.351313 0.483035
-2.331339 -6.351249 0.483409
-2.345548 -6.352389 0.483951
-2.360022 -6.355821 0.484801
-2.374295 -6.357261 0.485409
-2.386361 -6.340415 0.483661
-2.397726 -6.319314 0.481371
-2.413637 -6.334487 0.483800
-2.427583 -6.334126 0.484228
-2.441659 -6.334713 0.484796
-2.455437 -6.333208 0.485106
-2.468872 -6.329511 0.485145
-2.482865 -6.329625 0.485697
-2.497263 -6.332247 0.486594
-2.510486 -6.327557 0.486549
-2.524123 -6.325543 0.486869
-2.532632 -6.294211 0.483348
-2.547516 -6.300081 0.484732
-2.561942 -6.303103 0.485758
-2.578631 -6.317888 0.488357
-2.595604 -6.333343 0.491067
-2.613079 -6.350500 0.494026
-2.622329 -6.326362 0.491521
-2.634872 -6.319067 0.491263
-2.646313 -6.306863 0.490361
-2.658106 -6.296732 0.489747
-2.667007 -6.273991 0.487453
-2.677824 -6.260536 0.486408
-2.690654 -6.256200 0.486598
-2.704163 -6.254799 0.487195
-2.716884 -6.250110 0.487363
-2.730460 -6.248952 0.488020
-2.743489 -6.245567 0.488388
-2.755549 -6.238437 0.488260
-2.766801 -6.228384 0.487743
-2.782856 -6.236553 0.489722
-2.799406 -6.246124 0.491912
-2.815865 -6.254904 0.494013
-2.830456 -6.256633 0.495164
-2.840138 -6.241092 0.493949
-2.857056 -6.250709 0.496213
-2.872434 -6.254693 0.497717
-2.883230 -6.243267 0.497097
-2.893893 -6.231651 0.496456
-2.904778 -6.220990 0.495953
-2.921955 -6.230347 0.498255
-2.936329 -6.230589 0.499298
-2.948144 -6.222881 0.499236
-2.963163 -6.224898 0.500551
-2.976227 -6.220935 0.501035
-2.988999 -6.216102 0.501405
-3.005282 -6.221346 0.503216
-3.018579 -6.217860 0.503799
-3.034957 -6.222911 0.505610
-3.052941 -6.232086 0.508029
-3.048567 -6.180363 0.501716
-3.039150 -6.116508 0.493625
-3.048809 -6.104468 0.492981
-3.078725 -6.145167 0.499981
-3.092129 -6.105681 0.496498
-3.067924 -5.975340 0.479671
-3.073102 -5.954432 0.477698
-3.083022 -5.945283 0.477452
-3.096529 -5.944712 0.478478
-3.107651 -5.938464 0.478670
-3.123819 -5.943859 0.480601
-3.139807 -5.948575 0.482445
-3.149940 -5.939903 0.482300
-3.165226 -5.942734 0.483885
-3.182292 -5.949262 0.486040
-3.193056 -5.941866 0.486108
-3.201969 -5.930562 0.485587
-3.214827 -5.927728 0.486354
-3.227803 -5.925071 0.487156
-3.241566 -5.923969 0.488205
-3.257278 -5.926731 0.489857
-3.271914 -5.927128 0.491159
-3.283953 -5.922215 0.491651
-3.295697 -5.916702 0.492057
-3.314522 -5.924952 0.494610
-3.330792 -5.927968 0.496367
-3.343910 -5.924791 0.497168
-3.354131 -5.916110 0.497113
-3.368781 -5.915716 0.498368
-3.384020 -5.916278 0.499786
-3.396677 -5.912000 0.500449
-3.409098 -5.907258 0.501047
-3.418451 -5.897024 0.500774
-3.435652 -5.900683 0.502732
-3.454848 -5.907601 0.505231
-3.471623 -5.910065 0.507033
-3.486298 -5.908762 0.508241
-3.499929 -5.905590 0.509158
-3.515857 -5.906176 0.510699
-3.531986 -5.906942 0.512286
-3.543252 -5.899610 0.512557
-3.553165 -5.890104 0.512476
-3.571237 -5.893702 0.514570
-3.590335 -5.898708 0.516919
-3.599717 -5.888246 0.516709
-3.616591 -5.889472 0.518461
-3.629509 -5.884456 0.519183
-3.649754 -5.890529 0.521788
-3.669844 -5.896102 0.524334
-3.682840 -5.890849 0.525065
-3.696238 -5.886144 0.525901
-3.715078 -5.889327 0.528104
-3.730122 -5.886808 0.529350
-3.744358 -5.883028 0.530394
-3.761763 -5.883659 0.532221
-3.770936 -5.872570 0.532028
-3.796722 -5.884626 0.535891
-3.807566 -5.875727 0.536113
-3.823296 -5.873497 0.537522
-3.843957 -5.877806 0.540110
-3.864485 -5.881687 0.542654
-3.879888 -5.878543 0.543973
-3.889023 -5.867074 0.543820
-3.907540 -5.867837 0.545880
-3.925490 -5.867685 0.547804
-3.941012 -5.864268 0.549161
-3.961243 -5.866681 0.551607
-3.979882 -5.866882 0.553681
-3.997049 -5.865075 0.555416
-4.013805 -5.862614 0.557057
-4.026451 -5.855022 0.557771
-4.053157 -5.864304 0.561660
-4.068348 -5.859495 0.562952
-4.084986 -5.856291 0.564572
-4.101660 -5.852994 0.566204
-4.116598 -5.847548 0.567457
-4.136445 -5.847638 0.569797
-4.161608 -5.853566 0.573300
-4.170983 -5.841397 0.573348
-4.184957 -5.834375 0.574414
-4.213370 -5.843230 0.578613
-4.236374 -5.845783 0.581632
-4.255048 -5.843374 0.583717
-4.267325 -5.833918 0.584438
-4.286568 -5.831827 0.586655
-4.306945 -5.830744 0.589115
-4.324493 -5.826497 0.590979
-4.339106 -5.819065 0.592230
-4.352986 -5.810786 0.593337
-4.369158 -5.804755 0.594934
-4.390077 -5.803370 0.597526
-4.415494 -5.806252 0.601050
-4.433913 -5.801935 0.603122
-4.448353 -5.793569 0.604378
-4.468420 -5.790561 0.606797
-4.486908 -5.785853 0.608894
-4.507994 -5.783453 0.611522
-4.527630 -5.779492 0.613854
-4.547379 -5.775465 0.616207
-4.564999 -5.769305 0.618129
-4.575843 -5.756832 0.618687
-4.587422 -5.745021 0.619400
-4.594060 -5.728772 0.619130
-4.599281 -5.711346 0.618587
-4.591421 -5.682529 0.615454
-4.592103 -5.661482 0.614037
-4.593928 -5.641613 0.612856
-4.591901 -5.618633 0.610924
-4.593124 -5.598650 0.609640
-4.595177 -5.579560 0.608522
-4.598181 -5.561454 0.607589
-4.598091 -5.540993 0.606051
-4.586954 -5.511785 0.602367
-4.587080 -5.492075 0.600869
-4.588089 -5.473325 0.599533
-4.590557 -5.455978 0.598466
-4.596545 -5.441624 0.598057
-4.599341 -5.424989 0.597016
-4.597049 -5.404693 0.594984
-4.579465 -5.373086 0.590036
-4.593144 -5.365621 0.590997
-4.589463 -5.345301 0.588646
-4.589748 -5.328292 0.587019
-4.581642 -5.305444 0.583795
-4.571957 -5.281885 0.580259
-4.579557 -5.271255 0.579918
-4.587961 -5.261444 0.579684
-4.601131 -5.255250 0.580287
-4.598137 -5.237879 0.577873
-1.861635 -6.078304 0.417881
-1.869276 -6.114170 0.423141
-1.880452 -6.096641 0.422067
-1.890622 -6.098805 0.423271
-1.901219 -6.096456 0.423894
-1.912001 -6.093611 0.424411
-1.922709 -6.096148 0.425524
-1.933668 -6.097149 0.426410
-1.944273 -6.113918 0.429147
-1.955744 -6.111311 0.429517
-1.967289 -6.110944 0.430114
-1.978764 -6.120831 0.431911
-1.990893 -6.103922 0.430429
-2.002870 -6.098087 0.430247
-2.014894 -6.094993 0.430363
-2.026987 -6.095996 0.430945
-2.039180 -6.091796 0.430865
-2.051435 -6.089144 0.430946
-2.063794 -6.090495 0.431493
-2.076195 -6.089077 0.431680
-2.088557 -6.083228 0.431307
-2.101231 -6.089564 0.432409
-2.113730 -6.086356 0.432330
-2.126256 -6.083537 0.432287
-2.138879 -6.082896 0.432502
-2.151783 -6.087987 0.433416
-2.164451 -6.086737 0.433546
-2.200289 -6.262109 0.455729
-2.214633 -6.273423 0.457427
-2.229021 -6.283637 0.458994
-2.244575 -6.308277 0.462351
-2.260452 -6.333923 0.465844
-2.275311 -6.344288 0.467458
-2.289252 -6.343036 0.467643
-2.302686 -6.336443 0.467175
-2.317152 -6.341095 0.468112
-2.331849 -6.347585 0.469290
-2.347181 -6.359436 0.471149
-2.360887 -6.355764 0.471090
-2.375363 -6.359014 0.471907
-2.388182 -6.348414 0.471010
-2.401007 -6.338680 0.470232
-2.413450 -6.326763 0.469192
-2.428003 -6.331205 0.470214
-2.443185 -6.339815 0.471775
-2.457856 -6.344347 0.472842
-2.471118 -6.339219 0.472711
-2.483972 -6.331774 0.472301
-2.498763 -6.336845 0.473484
-2.512168 -6.333191 0.473582
-2.523506 -6.317551 0.472177
-2.544017 -6.355242 0.477544
-2.552514 -6.323940 0.474180
-2.564764 -6.314584 0.473610
-2.577961 -6.310663 0.473744
-2.594382 -6.323479 0.476030
-2.610745 -6.335320 0.478212
-2.623499 -6.328813 0.478064
-2.635075 -6.316882 0.477232
-2.646351 -6.304007 0.476288
-2.658432 -6.295313 0.475892
-2.667465 -6.273254 0.473780
-2.676627 -6.252608 0.471854
-2.687730 -6.241067 0.471112
-2.702463 -6.245160 0.472411
-2.715894 -6.243623 0.472992
-2.729537 -6.242893 0.473692
-2.742807 -6.240610 0.474203
-2.754456 -6.232013 0.473898
-2.783476 -6.236819 0.476212
-2.801710 -6.252582 0.479155
-2.819915 -6.267552 0.482016
-2.832351 -6.261447 0.482104
-2.840831 -6.241673 0.480385
-2.852944 -6.234866 0.480393
-2.870566 -6.246675 0.482898
-2.882833 -6.240266 0.482983
-2.895312 -6.234621 0.483178
-2.908646 -6.231764 0.483758
-2.923358 -6.233201 0.484928
-2.940726 -6.242678 0.487199
-2.959296 -6.255385 0.489927
-2.965170 -6.229467 0.487421
-2.978648 -6.226669 0.488063
-2.990211 -6.218244 0.487944
-3.003142 -6.213851 0.488385
-3.018070 -6.215088 0.489608
-3.034169 -6.219410 0.491269
-3.048853 -6.219584 0.492370
-3.054688 -6.195680 0.490144
-3.042406 -6.124000 0.481265
-3.062690 -6.139799 0.484543
-3.087436 -6.166594 0.489383
-3.088559 -6.132102 0.485657
-3.093706 -6.108554 0.483454
-3.097740 -6.082728 0.480920
-3.066203 -5.970097 0.466087
-3.072551 -5.952102 0.464606
-3.083646 -5.945801 0.464786
-3.095214 -5.940647 0.465134
-3.111654 -5.946847 0.467114
-3.127538 -5.951481 0.468885
-3.138779 -5.945317 0.469113
-3.150879 -5.941101 0.469628
-3.166532 -5.944729 0.471287
-3.181284 -5.946167 0.472641
-3.194076 -5.943196 0.473364
-3.204341 -5.934770 0.473295
-3.214467 -5.926119 0.473195
-3.230646 -5.930162 0.474969
-3.243683 -5.927504 0.475766
-3.256200 -5.923717 0.476404
-3.269459 -5.921378 0.477265
-3.281764 -5.917063 0.477839
-3.295868 -5.916253 0.478946
-3.311010 -5.917345 0.480348
-3.329349 -5.924424 0.482666
-3.344166 -5.924518 0.483945
-3.358654 -5.923856 0.485121
-3.370116 -5.917454 0.485434
-3.383425 -5.914453 0.486272
-3.394275 -5.906913 0.486423
-3.408257 -5.905035 0.487450
-3.424035 -5.906252 0.488966
-3.440950 -5.909310 0.490781
-3.456165 -5.909206 0.492120
-3.470619 -5.907661 0.493248
-3.484423 -5.904903 0.494198
-3.498655 -5.902787 0.495259
-3.513094 -5.900923 0.496372
-3.527982 -5.899698 0.497598
-3.539933 -5.893566 0.498058
-3.555796 -5.893741 0.499532
-3.575668 -5.900183 0.502025
-3.591974 -5.900707 0.503590
-3.608618 -5.901608 0.505233
-3.616556 -5.888846 0.504681
-3.631479 -5.886919 0.505891
-3.651742 -5.893001 0.508423
-3.666854 -5.891064 0.509668
-3.678294 -5.883552 0.510010
-3.695616 -5.884713 0.511794
-3.715099 -5.888854 0.514093
-3.732447 -5.889678 0.515864
-3.748442 -5.888395 0.517305
-3.756312 -5.875471 0.516811
-3.770892 -5.872059 0.517923
-3.791759 -5.877293 0.520515
-3.810130 -5.878832 0.522509
-3.824483 -5.874708 0.523562
-3.846718 -5.881137 0.526441
-3.867887 -5.885854 0.529058
-3.872046 -5.867800 0.527771
-3.889955 -5.867948 0.529642
-3.901452 -5.859600 0.530058
-3.930264 -5.873507 0.534386
-3.954333 -5.880936 0.537623
-3.968587 -5.875665 0.538656
-3.980554 -5.867456 0.539188
-3.995546 -5.862966 0.540399
-4.009043 -5.856546 0.541286
-4.031483 -5.860923 0.544139
-4.048028 -5.857938 0.545699
-4.072067 -5.863751 0.548886
-4.088355 -5.860112 0.550390
-4.102023 -5.853281 0.551336
-4.114813 -5.845364 0.552103
-4.129998 -5.840143 0.553393
-4.154580 -5.845499 0.556681
-4.177536 -5.848719 0.559617
-4.185975 -5.835474 0.559496
-4.212347 -5.842083 0.563148
-4.234291 -5.843506 0.565866
-4.249361 -5.837232 0.567155
-4.263748 -5.830120 0.568312
-4.280944 -5.825908 0.570057
-4.304343 -5.828086 0.573081
-4.323418 -5.825481 0.575217
-4.341988 -5.822172 0.577254
-4.361408 -5.819561 0.579467
-4.376900 -5.812777 0.580889
-4.393750 -5.807247 0.582593
-4.412897 -5.803868 0.584765
-4.433938 -5.802180 0.587319
-4.451266 -5.796651 0.589132
-4.465213 -5.787710 0.590279
-4.485613 -5.784879 0.592713
-4.507870 -5.783617 0.595513
-4.527132 -5.779316 0.597721
-4.547216 -5.775616 0.600091
-4.561826 -5.766691 0.601389
-4.575078 -5.756450 0.602427
-4.586574 -5.744575 0.603129
-4.596546 -5.731321 0.603541
-4.595930 -5.708689 0.601915
-4.593071 -5.684290 0.599873
-4.589892 -5.659860 0.597787
-4.590666 -5.639091 0.596473
-4.589932 -5.617227 0.594881
-4.592360 -5.598259 0.593897
-4.595078 -5.579710 0.592972
-4.595812 -5.559695 0.591671
-4.590631 -5.535039 0.589254
-4.589039 -5.513622 0.587516
-4.587059 -5.492161 0.585702
-4.586443 -5.472071 0.584138
-4.591826 -5.456995 0.583682
-4.591716 -5.437806 0.582187
-4.590493 -5.418034 0.580472
-4.582680 -5.393502 0.577525
-4.572601 -5.367652 0.574150
-4.570741 -5.348447 0.572274
-4.587236 -5.343298 0.573730
-4.597163 -5.333376 0.573944
-4.595437 -5.315094 0.572004
-4.581158 -5.288033 0.567769
-4.575094 -5.267415 0.565003
-4.587330 -5.260295 0.565501
-4.605386 -5.257492 0.566992
-4.607142 -5.243360 0.565524
-1.857779 -6.134250 0.412690
-1.868933 -6.117236 0.411768
-1.879413 -6.112998 0.412244
-1.890673 -6.097147 0.411345
-1.901196 -6.097307 0.412224
-1.911992 -6.095455 0.412828
-1.922813 -6.096853 0.413761
-1.933555 -6.105186 0.415452
-1.944568 -6.112391 0.416973
-1.956012 -6.112280 0.417608
-1.967746 -6.106513 0.417546
-1.979479 -6.105228 0.417964
-1.991300 -6.106143 0.418602
-2.003313 -6.101726 0.418583
-2.015419 -6.094934 0.418253
-2.027556 -6.094022 0.418580
-2.039779 -6.092309 0.418785
-2.052045 -6.086267 0.418457
-2.064442 -6.089484 0.419194
-2.076904 -6.090490 0.419652
-2.089361 -6.087799 0.419658
-2.101856 -6.085432 0.419687
-2.114450 -6.085429 0.419983
-2.126934 -6.081153 0.419765
-2.139555 -6.080403 0.419955
-2.152384 -6.083810 0.420632
-2.165306 -6.087940 0.421392
-2.181314 -6.147710 0.428746
-2.202260 -6.280874 0.444819
-2.216035 -6.281796 0.445221
-2.229877 -6.283429 0.445710
-2.246382 -6.320880 0.450466
-2.262187 -6.344764 0.453621
-2.276636 -6.349578 0.454516
-2.290452 -6.346671 0.454500
-2.303822 -6.339281 0.453959
-2.318410 -6.345088 0.455003
-2.333077 -6.351150 0.456091
-2.346917 -6.348987 0.456208
-2.360306 -6.343025 0.455881
-2.374882 -6.347720 0.456845
-2.389217 -6.350094 0.457546
-2.402531 -6.344254 0.457273
-2.414534 -6.328890 0.455865
-2.427163 -6.319219 0.455154
-2.443045 -6.333247 0.457318
-2.459369 -6.349375 0.459755
-2.471634 -6.337558 0.458828
-2.487826 -6.351686 0.461060
-2.500210 -6.341216 0.460324
-2.512158 -6.328695 0.459350
-2.526144 -6.328825 0.459929
-2.542102 -6.340188 0.461895
-2.557276 -6.346528 0.463266
-2.569109 -6.334392 0.462393
-2.576442 -6.299062 0.458683
-2.591588 -6.305645 0.460126
-2.608888 -6.322659 0.462872
-2.624060 -6.328358 0.464244
-2.636059 -6.318521 0.463714
-2.646037 -6.299591 0.462067
-2.654095 -6.272633 0.459430
-2.664934 -6.259210 0.458477
-2.673311 -6.235483 0.456247
-2.687388 -6.237096 0.457184
-2.701325 -6.237953 0.458040
-2.714153 -6.234109 0.458322
-2.728286 -6.235579 0.459283
-2.741738 -6.234188 0.459898
-2.753123 -6.224720 0.459506
-2.766684 -6.223774 0.460200
-2.785996 -6.244231 0.463622
-2.803256 -6.256295 0.466002
-2.818658 -6.261117 0.467479
-2.832067 -6.258589 0.468033
-2.838738 -6.232608 0.465594
-2.851624 -6.228619 0.465975
-2.867138 -6.233462 0.467503
-2.880734 -6.231681 0.468192
-2.899931 -6.248017 0.471236
-2.911399 -6.238994 0.471013
-2.925800 -6.239345 0.472015
-2.940932 -6.241811 0.473305
-2.956696 -6.245990 0.474833
-2.971294 -6.246405 0.475882
-2.978583 -6.225080 0.474085
-2.988686 -6.212443 0.473429
-3.001287 -6.207200 0.473753
-3.030792 -6.208731 0.476020
-3.046359 -6.211482 0.477436
-3.051393 -6.146777 0.470893
-3.064849 -6.144311 0.471619
-3.089176 -6.169950 0.476146
-3.084689 -6.049193 0.463009
-3.062841 -5.960837 0.452019
-3.073669 -5.953828 0.452104
-3.084984 -5.948032 0.452361
-3.097528 -5.945154 0.453023
-3.112426 -5.947706 0.454444
-3.127426 -5.950293 0.455881
-3.140446 -5.948187 0.456678
-3.151196 -5.940909 0.456762
-3.164309 -5.938912 0.457588
-3.179953 -5.942370 0.459188
-3.193735 -5.941588 0.460203
-3.205443 -5.936264 0.460587
-3.224425 -5.946280 0.463150
-3.233275 -5.934805 0.462676
-3.243086 -5.925447 0.462505
-3.256397 -5.923300 0.463367
-3.267892 -5.917419 0.463701
-3.280130 -5.913017 0.464253
-3.293751 -5.911305 0.465200
-3.312259 -5.918994 0.467520
-3.328410 -5.921847 0.469154
-3.343180 -5.921881 0.470391
-3.359885 -5.925413 0.472152
-3.372063 -5.920326 0.472660
-3.383446 -5.913755 0.472956
-3.393307 -5.904430 0.472849
-3.407355 -5.902696 0.473873
-3.426952 -5.910729 0.476362
-3.443484 -5.913064 0.478020
-3.455085 -5.906638 0.478378
-3.468700 -5.903677 0.479264
-3.484381 -5.904160 0.480681
-3.498354 -5.901616 0.481652
-3.511470 -5.897562 0.482404
-3.525230 -5.894516 0.483319
-3.539064 -5.891515 0.484252
-3.555486 -5.892617 0.485829
-3.574089 -5.897042 0.487935
-3.593106 -5.901892 0.490128
-3.606928 -5.898363 0.491037
-3.618822 -5.891774 0.491478
-3.628100 -5.881162 0.491297
-3.651186 -5.891592 0.494436
-3.666292 -5.889667 0.495650
-3.678447 -5.883240 0.496164
-3.696045 -5.884817 0.497965
-3.715032 -5.888238 0.500081
-3.738492 -5.897905 0.503225
-3.748426 -5.887879 0.503222
-3.760042 -5.880278 0.503619
-3.773278 -5.874942 0.504395
-3.791298 -5.876199 0.506263
-3.806141 -5.872906 0.507406
-3.824538 -5.874356 0.509350
-3.854424 -5.891121 0.513853
-3.866972 -5.884231 0.514471
-3.870084 -5.864821 0.513012
-3.878846 -5.853021 0.512825
-3.911120 -5.871801 0.517798
-3.918685 -5.858283 0.517360
-3.943365 -5.866645 0.520647
-3.959636 -5.864066 0.522105
-3.980981 -5.867701 0.524654
-3.993937 -5.860704 0.525404
-4.009580 -5.856950 0.526735
-4.024808 -5.852581 0.527982
-4.046511 -5.855896 0.530596
-4.069447 -5.860429 0.533462
-4.089534 -5.861321 0.535726
-4.100610 -5.851466 0.536117
-4.115829 -5.846396 0.537379
-4.132958 -5.843416 0.539040
-4.149730 -5.839881 0.540633
-4.169341 -5.839404 0.542809
-4.193161 -5.843424 0.545841
-4.208127 -5.837373 0.547075
-4.228553 -5.837199 0.549419
-4.242495 -5.829781 0.550461
-4.259866 -5.825964 0.552199
-4.279728 -5.824648 0.554439
-4.309474 -5.833551 0.558642
-4.326568 -5.828846 0.560332
-4.342684 -5.822987 0.561835
-4.364618 -5.822965 0.564488
-4.377758 -5.813781 0.565422
-4.394015 -5.807666 0.566974
-4.413311 -5.804450 0.569124
-4.435271 -5.803683 0.571793
-4.451183 -5.796776 0.573296
-4.468031 -5.790658 0.574986
-4.483926 -5.783496 0.576498
-4.510340 -5.786211 0.580026
-4.530104 -5.782373 0.582281
-4.547425 -5.776083 0.584072
-4.564263 -5.769221 0.585775
-4.577688 -5.759123 0.586837
-4.587215 -5.745447 0.587171
-4.594051 -5.729379 0.587010
-4.595281 -5.708405 0.585810
-4.590838 -5.682615 0.583569
-4.588793 -5.659182 0.581791
-4.588036 -5.637092 0.580266
-4.591518 -5.618836 0.579535
-4.592334 -5.598475 0.578317
-4.589973 -5.575652 0.576520
-4.585619 -5.551434 0.574365
-4.586011 -5.531408 0.573080
-4.583640 -5.509361 0.571291
-4.585894 -5.491318 0.570339
-4.591632 -5.476270 0.570009
-4.591516 -5.456763 0.568608
-4.585938 -5.433246 0.566211
-4.579687 -5.409565 0.563687
-4.582968 -5.393583 0.562856
-4.579006 -5.372331 0.560713
-4.568889 -5.346792 0.557459
-4.583393 -5.340102 0.558554
-4.598365 -5.333876 0.559689
-4.614492 -5.328619 0.560983
-4.608469 -5.307371 0.558348
-4.576040 -5.267500 0.551080
-4.576925 -5.252187 0.549620
-4.588779 -5.244975 0.550029
-4.616377 -5.249024 0.553111
-1.858982 -6.112885 0.398583
-1.868796 -6.117295 0.400024
-1.879336 -6.113017 0.400473
-1.890154 -6.106436 0.400622
-1.901213 -6.097699 0.400485
-1.911976 -6.097820 0.401277
-1.922810 -6.100485 0.402307
-1.933698 -6.106771 0.403698
-1.944961 -6.108300 0.404521
-1.956850 -6.093971 0.403537
-1.968518 -6.089581 0.403618
-1.980008 -6.099021 0.405207
-1.991804 -6.102617 0.406110
-2.003810 -6.101128 0.406411
-2.015938 -6.096336 0.406310
-2.028123 -6.092744 0.406314
-2.040374 -6.090887 0.406487
-2.052715 -6.092194 0.406993
-2.065114 -6.090870 0.407182
-2.077641 -6.093888 0.407843
-2.090096 -6.089384 0.407638
-2.102659 -6.088591 0.407839
-2.115170 -6.084837 0.407694
-2.127609 -6.078998 0.407303
-2.140126 -6.075661 0.407189
-2.153067 -6.081823 0.408149
-2.166284 -6.091877 0.409551
-2.182104 -6.147431 0.416137
-2.202664 -6.273403 0.430762
-2.216341 -6.273324 0.431033
-2.230311 -6.277377 0.431780
-2.248351 -6.335836 0.438751
-2.263954 -6.356187 0.441382
-2.278884 -6.366111 0.442832
-2.292706 -6.362438 0.442734
-2.306102 -6.354584 0.442166
-2.319994 -6.352594 0.442281
-2.333911 -6.351058 0.442459
-2.347318 -6.344963 0.442124
-2.360399 -6.336533 0.441531
-2.375607 -6.346948 0.443123
-2.390074 -6.350497 0.443939
-2.403342 -6.344360 0.443650
-2.415124 -6.327425 0.442123
-2.427434 -6.315561 0.441193
-2.440567 -6.310325 0.441044
-2.456363 -6.323637 0.443065
-2.472441 -6.337961 0.445222
-2.485311 -6.330810 0.444896
-2.502474 -6.350780 0.447750
-2.514426 -6.338082 0.446805
-2.525589 -6.321439 0.445408
-2.538730 -6.316969 0.445449
-2.552681 -6.317184 0.446053
-2.564723 -6.307011 0.445450
-2.581923 -6.324494 0.448120
-2.589529 -6.291719 0.444872
-2.608245 -6.316201 0.448405
-2.618680 -6.298892 0.447006
-2.633826 -6.304843 0.448378
-2.640972 -6.273047 0.445271
-2.650899 -6.255285 0.443838
-2.661007 -6.239020 0.442590
-2.674558 -6.238417 0.443224
-2.687164 -6.233700 0.443378
-2.701776 -6.237486 0.444567
-2.714016 -6.231271 0.444564
-2.730457 -6.242117 0.446635
-2.744274 -6.242068 0.447404
-2.751779 -6.217443 0.445201
-2.763229 -6.208633 0.444922
-2.784818 -6.237872 0.449295
-2.800380 -6.243843 0.450851
-2.814757 -6.245215 0.451859
-2.826431 -6.236856 0.451684
-2.842740 -6.244764 0.453522
-2.852596 -6.230237 0.452604
-2.864450 -6.222782 0.452565
-2.879277 -6.225257 0.453767
-2.889629 -6.212989 0.453146
-2.913455 -6.244016 0.457935
-2.927503 -6.243190 0.458768
-2.937998 -6.231265 0.458219
-2.953933 -6.236136 0.459787
-2.965400 -6.227323 0.459643
-2.976579 -6.217792 0.459414
-2.988474 -6.210488 0.459471
-3.004416 -6.214853 0.461019
-3.017632 -6.211257 0.461566
-3.026570 -6.195726 0.460593
-3.029344 -6.163604 0.457489
-3.043985 -6.164321 0.458600
-3.056974 -6.160474 0.459132
-3.069761 -6.156064 0.459600
-3.090219 -6.171508 0.462653
-3.101873 -6.163894 0.462724
-3.083009 -6.043973 0.449159
-3.065213 -5.965666 0.439908
-3.073945 -5.953521 0.439328
-3.084435 -5.945761 0.439327
-3.096096 -5.940831 0.439706
-3.111322 -5.944200 0.441194
-3.123764 -5.940949 0.441811
-3.138849 -5.943649 0.443231
-3.150308 -5.938019 0.443545
-3.163283 -5.935754 0.444316
-3.179817 -5.941195 0.446137
-3.189243 -5.931016 0.445854
-3.212261 -5.949961 0.449535
-3.225234 -5.947135 0.450270
-3.232724 -5.932819 0.449438
-3.238864 -5.915929 0.448249
-3.255098 -5.919844 0.449924
-3.268945 -5.918733 0.450917
-3.280216 -5.912395 0.451194
-3.299244 -5.921312 0.453600
-3.316452 -5.926358 0.455484
-3.327222 -5.918793 0.455614
-3.343614 -5.921940 0.457256
-3.356953 -5.919150 0.458073
-3.370960 -5.917528 0.459063
-3.384783 -5.915471 0.460002
-3.395312 -5.907344 0.460083
-3.409431 -5.905706 0.461097
-3.428767 -5.913241 0.463440
-3.441882 -5.909542 0.464182
-3.453810 -5.903724 0.464625
-3.467439 -5.900820 0.465499
-3.483079 -5.901264 0.466870
-3.499084 -5.902174 0.468323
-3.513029 -5.899498 0.469263
-3.525287 -5.893959 0.469791
-3.538381 -5.889759 0.470526
-3.553911 -5.889440 0.471846
-3.568132 -5.886897 0.472849
-3.585011 -5.888469 0.474479
-3.602975 -5.891568 0.476356
-3.614273 -5.884129 0.476662
-3.629010 -5.881975 0.477776
-3.648150 -5.886406 0.479905
-3.665300 -5.887612 0.481562
-3.678566 -5.882867 0.482327
-3.694197 -5.881551 0.483631
-3.719237 -5.893844 0.487053
-3.736848 -5.895009 0.488784
-3.751132 -5.891242 0.489766
-3.763386 -5.884519 0.490301
-3.775800 -5.877998 0.490878
-3.790135 -5.874115 0.491884
-3.804078 -5.869613 0.492807
-3.823632 -5.872680 0.494949
-3.851974 -5.887383 0.498977
-3.869706 -5.887466 0.500701
-3.880924 -5.878764 0.501034
-3.891211 -5.868841 0.501180
-3.903352 -5.861346 0.501732
-3.925662 -5.866897 0.504428
-3.944873 -5.868224 0.506465
-3.953263 -5.855703 0.506248
-3.972766 -5.857127 0.508348
-3.996126 -5.863119 0.511238
-4.011269 -5.858745 0.512433
-4.025376 -5.853011 0.513423
-4.039104 -5.846744 0.514343
-4.065784 -5.855840 0.517889
-4.082422 -5.852720 0.519400
-4.098207 -5.848468 0.520744
-4.117055 -5.847648 0.522705
-4.140102 -5.851461 0.525500
-4.152866 -5.843314 0.526257
-4.167893 -5.837661 0.527470
-4.191189 -5.841131 0.530313
-4.213968 -5.843754 0.533051
-4.228685 -5.837289 0.534217
-4.242194 -5.829420 0.535158
-4.259327 -5.825370 0.536810
-4.287752 -5.833191 0.540639
-4.308457 -5.832502 0.542980
-4.328134 -5.830525 0.545126
-4.346400 -5.826894 0.547006
-4.364974 -5.823412 0.548950
-4.379049 -5.815193 0.550049
-4.391057 -5.804811 0.550770
-4.419136 -5.810390 0.554518
-4.437116 -5.805659 0.556372
-4.451842 -5.797592 0.557624
-4.468543 -5.791342 0.559252
-4.486906 -5.786557 0.561194
-4.510282 -5.786375 0.564064
-4.530060 -5.782562 0.566271
-4.548821 -5.777626 0.568292
-4.564801 -5.769969 0.569807
-4.578391 -5.760024 0.570889
-4.587998 -5.746420 0.571254
-4.595554 -5.730993 0.571256
-4.597624 -5.710751 0.570276
-4.594253 -5.685879 0.568330
-4.587151 -5.658008 0.565731
-4.589429 -5.638540 0.564831
-4.591133 -5.618742 0.563837
-4.589472 -5.596274 0.562250
-4.583336 -5.570293 0.559875
-4.584997 -5.551095 0.558891
-4.584089 -5.529982 0.557452
-4.581977 -5.508130 0.555801
-4.587461 -5.492670 0.555483
-4.591930 -5.476559 0.554974
-4.585905 -5.452337 0.552621
-4.571870 -5.422195 0.548869
-4.573834 -5.404943 0.547894
-4.584943 -5.394966 0.548483
-4.591615 -5.381740 0.548276
-4.580950 -5.355641 0.545062
-4.579618 -5.336971 0.543435
-4.595105 -5.331085 0.544659
-4.608619 -5.323864 0.545503
-4.616969 -5.313039 0.545429
-4.564536 -5.258633 0.535039
-4.576202 -5.251024 0.535480
-4.606576 -5.256859 0.539018
-1.860515 -6.086835 0.384158
-1.868512 -6.120072 0.388551
-1.879067 -6.116681 0.389073
-1.889871 -6.111668 0.389378
-1.900868 -6.105718 0.389537
-1.911960 -6.100555 0.389734
-1.923256 -6.093661 0.389701
-1.933966 -6.105405 0.391609
-1.945374 -6.103904 0.392067
-1.957137 -6.094969 0.391691
-1.968859 -6.090491 0.391752
-1.980410 -6.099385 0.393210
-1.992259 -6.102468 0.394014
-2.004298 -6.101606 0.394362
-2.016436 -6.101320 0.394742
-2.028678 -6.097523 0.394717
-2.040970 -6.091259 0.394400
-2.053339 -6.092068 0.394825
-2.065824 -6.095740 0.395541
-2.078235 -6.089051 0.395118
-2.090788 -6.089225 0.395423
-2.103361 -6.088178 0.395585
-2.115898 -6.084891 0.395492
-2.128314 -6.078082 0.395008
-2.140935 -6.077150 0.395158
-2.153869 -6.082776 0.396019
-2.166935 -6.089540 0.397004
-2.188525 -6.249868 0.414769
-2.202793 -6.261711 0.416328
-2.217181 -6.273482 0.417885
-2.231473 -6.282136 0.419107
-2.248193 -6.322315 0.423793
-2.265162 -6.360702 0.428298
-2.279958 -6.368787 0.429490
-2.293943 -6.366862 0.429593
-2.307003 -6.355284 0.428643
-2.320425 -6.348554 0.428236
-2.334710 -6.350852 0.428834
-2.348901 -6.352112 0.429331
-2.362854 -6.351197 0.429601
-2.377051 -6.352455 0.430124
-2.391607 -6.356583 0.430979
-2.404715 -6.349053 0.430555
-2.416966 -6.335605 0.429486
-2.428813 -6.320156 0.428205
-2.441999 -6.315217 0.428104
-2.455858 -6.315195 0.428565
-2.469736 -6.315296 0.429055
-2.486514 -6.333944 0.431635
-2.502891 -6.348967 0.433829
-2.516449 -6.346089 0.434035
-2.527309 -6.327521 0.432490
-2.538910 -6.314165 0.431540
-2.550206 -6.299780 0.430483
-2.566619 -6.313742 0.432640
-2.585392 -6.339356 0.436137
-2.599661 -6.340514 0.436885
-2.602261 -6.283079 0.430986
-2.614439 -6.275145 0.430715
-2.629920 -6.283280 0.432289
-2.645576 -6.291781 0.433922
-2.651949 -6.257431 0.430662
-2.664999 -6.254304 0.430985
-2.678781 -6.254421 0.431694
-2.691750 -6.250952 0.432003
-2.703117 -6.240809 0.431551
-2.719787 -6.252755 0.433667
-2.736164 -6.262940 0.435597
-2.746847 -6.250134 0.434870
-2.754046 -6.224215 0.432619
-2.767901 -6.224440 0.433424
-2.779911 -6.217659 0.433419
-2.798008 -6.233298 0.436058
-2.811046 -6.230059 0.436495
-2.825822 -6.232948 0.437665
-2.836726 -6.222172 0.437230
-2.853352 -6.231156 0.439147
-2.865583 -6.224966 0.439275
-2.869776 -6.192337 0.436256
-2.885909 -6.199386 0.437975
-2.906887 -6.221539 0.441521
-2.927270 -6.240978 0.444767
-2.938566 -6.231580 0.444558
-2.947115 -6.213975 0.443362
-2.960579 -6.211499 0.444000
-2.972703 -6.205009 0.444158
-2.989343 -6.211697 0.445930
-3.009574 -6.228326 0.448934
-3.023153 -6.225564 0.449581
-3.024799 -6.189563 0.446147
-3.031963 -6.169578 0.444674
-3.045110 -6.166176 0.445249
-3.061554 -6.171512 0.446916
-3.078024 -6.176623 0.448570
-3.091943 -6.174844 0.449376
-3.090225 -6.096539 0.441625
-3.091943 -6.065154 0.438698
-3.064217 -5.962237 0.426713
-3.074147 -5.953041 0.426541
-3.084514 -5.944997 0.426518
-3.095775 -5.939137 0.426777
-3.108983 -5.937828 0.427622
-3.123195 -5.938727 0.428760
-3.135925 -5.936109 0.429454
-3.149297 -5.934861 0.430332
-3.164789 -5.938207 0.431813
-3.181296 -5.943555 0.433568
-3.196438 -5.945694 0.434918
-3.210897 -5.946191 0.436063
-3.223254 -5.942114 0.436618
-3.229091 -5.924417 0.435383
-3.238676 -5.914721 0.435200
-3.254148 -5.917097 0.436621
-3.268408 -5.916847 0.437703
-3.281627 -5.914403 0.438502
-3.294455 -5.911115 0.439196
-3.315899 -5.924500 0.442139
-3.328573 -5.920613 0.442774
-3.339110 -5.912621 0.442859
-3.354826 -5.914399 0.444275
-3.369385 -5.913853 0.445386
-3.383940 -5.913182 0.446490
-3.400132 -5.915360 0.447997
-3.416290 -5.917298 0.449483
-3.430316 -5.915272 0.450434
-3.442510 -5.909934 0.450935
-3.455461 -5.905892 0.451623
-3.469327 -5.903373 0.452532
-3.486215 -5.905913 0.454161
-3.500973 -5.904678 0.455273
-3.514962 -5.902050 0.456199
-3.526310 -5.894985 0.456506
-3.540769 -5.893005 0.457543
-3.556483 -5.892951 0.458867
-3.570595 -5.890200 0.459818
-3.583543 -5.885524 0.460502
-3.601105 -5.888025 0.462234
-3.615963 -5.886143 0.463348
-3.627049 -5.878373 0.463615
-3.646962 -5.884017 0.465854
-3.664973 -5.886546 0.467657
-3.681030 -5.885969 0.469021
-3.697771 -5.886263 0.470531
-3.715559 -5.887931 0.472263
-3.736120 -5.893423 0.474585
-3.749612 -5.888545 0.475377
-3.763218 -5.883772 0.476198
-3.775879 -5.877611 0.476821
-3.788947 -5.871981 0.477538
-3.809587 -5.876717 0.479849
-3.825770 -5.875132 0.481218
-3.844409 -5.876731 0.483097
-3.865588 -5.881530 0.485494
-3.883936 -5.882329 0.487299
-3.894072 -5.872184 0.487422
-3.907138 -5.865869 0.488154
-3.926331 -5.867380 0.490133
-3.945305 -5.868412 0.492064
-3.954949 -5.857484 0.492122
-3.971192 -5.854832 0.493510
-3.998733 -5.866030 0.497144
-4.015441 -5.863560 0.498619
-4.029283 -5.857473 0.499533
-4.048286 -5.857523 0.501466
-4.056914 -5.845023 0.501376
-4.080564 -5.850296 0.504218
-4.101325 -5.851901 0.506494
-4.125857 -5.857647 0.509492
-4.143861 -5.855596 0.511233
-4.155065 -5.845654 0.511679
-4.165999 -5.835389 0.512089
-4.191729 -5.841611 0.515311
-4.214389 -5.844116 0.517948
-4.234025 -5.843051 0.520013
-4.251431 -5.839372 0.521665
-4.268945 -5.835657 0.523342
-4.293854 -5.839659 0.526397
-4.311578 -5.835787 0.528120
-4.325674 -5.827970 0.529181
-4.344369 -5.824825 0.531097
-4.362495 -5.820924 0.532913
-4.375577 -5.811738 0.533816
-4.392622 -5.806473 0.535451
-4.416266 -5.807638 0.538286
-4.433084 -5.801804 0.539890
-4.449780 -5.795716 0.541478
-4.469822 -5.792735 0.543673
-4.487326 -5.787131 0.545418
-4.507142 -5.783578 0.547579
-4.528394 -5.781194 0.549998
-4.548504 -5.777542 0.552215
-4.563758 -5.769227 0.553575
-4.578475 -5.760330 0.554847
-4.585331 -5.744240 0.554744
-4.594937 -5.730677 0.555135
-4.598617 -5.711872 0.554499
-4.596356 -5.687965 0.552841
-4.593862 -5.664083 0.551160
-4.590979 -5.640100 0.549426
-4.591765 -5.619495 0.548337
-4.584740 -5.592471 0.545913
-4.585210 -5.572046 0.544786
-4.586888 -5.552827 0.543869
-4.586259 -5.531902 0.542559
-4.588398 -5.513466 0.541720
-4.589696 -5.494551 0.540733
-4.590826 -5.475723 0.539710
-4.574374 -5.443226 0.535712
-4.573454 -5.423399 0.534332
-4.585059 -5.413567 0.535041
-4.586134 -5.395749 0.533961
-4.592944 -5.382565 0.533819
-4.583440 -5.357278 0.530939
-4.579990 -5.336949 0.529050
-4.597097 -5.332196 0.530535
-4.600430 -5.317427 0.529710
-4.556728 -5.268746 0.521135
-4.575302 -5.265835 0.522765
-4.603154 -5.269648 0.525856
-4.629303 -5.272248 0.528609
-4.675836 -5.289185 0.534597
-1.856088 -6.152321 0.379105
-1.868656 -6.116200 0.376372
-1.878917 -6.118597 0.377452
-1.889676 -6.115602 0.377945
-1.900683 -6.110837 0.378215
-1.911804 -6.106681 0.378502
-1.923038 -6.103141 0.378809
-1.934455 -6.098380 0.378948
-1.945622 -6.104791 0.380188
-1.957269 -6.101666 0.380417
-1.968955 -6.101729 0.380935
-1.980727 -6.104299 0.381677
-1.992798 -6.097058 0.381377
-2.004801 -6.100833 0.382180
-2.016945 -6.104639 0.382961
-2.029233 -6.102574 0.383110
-2.041564 -6.091547 0.382307
-2.053944 -6.090115 0.382475
-2.066434 -6.092912 0.383065
-2.078967 -6.092906 0.383348
-2.091499 -6.090377 0.383356
-2.103977 -6.084930 0.383049
-2.116475 -6.080482 0.382836
-2.129183 -6.082073 0.383245
-2.141844 -6.081431 0.383417
-2.154754 -6.085861 0.384117
-2.167694 -6.089689 0.384752
-2.188713 -6.238772 0.400589
-2.203518 -6.260323 0.403098
-2.217376 -6.263974 0.403739
-2.232257 -6.281709 0.405863
-2.249399 -6.327445 0.410937
-2.265519 -6.354731 0.414088
-2.280459 -6.364888 0.415451
-2.293910 -6.357242 0.414951
-2.307257 -6.349314 0.414429
-2.320666 -6.342823 0.414069
-2.334751 -6.343515 0.414478
-2.350131 -6.356157 0.416163
-2.364492 -6.358749 0.416800
-2.377691 -6.351305 0.416386
-2.390811 -6.343845 0.415982
-2.405025 -6.345555 0.416565
-2.419378 -6.348208 0.417262
-2.431558 -6.334846 0.416268
-2.445442 -6.334397 0.416662
-2.458969 -6.331551 0.416814
-2.471688 -6.323553 0.416428
-2.485977 -6.326068 0.417181
-2.501587 -6.336601 0.418811
-2.516747 -6.343790 0.420099
-2.530735 -6.343685 0.420619
-2.543040 -6.333955 0.420114
-2.550090 -6.295583 0.416523
-2.566887 -6.311760 0.418840
-2.584312 -6.330356 0.421441
-2.597963 -6.328606 0.421851
-2.606951 -6.303538 0.419735
-2.616592 -6.282769 0.418090
-2.632559 -6.293078 0.419850
-2.646067 -6.291361 0.420311
-2.655902 -6.272881 0.418942
-2.668256 -6.266350 0.418894
-2.683809 -6.273976 0.420418
-2.692016 -6.249762 0.418438
-2.705124 -6.246974 0.418833
-2.720775 -6.254629 0.420400
-2.737006 -6.264205 0.422197
-2.750834 -6.263817 0.422900
-2.763178 -6.257585 0.422962
-2.771978 -6.238011 0.421536
-2.791918 -6.260559 0.424847
-2.805276 -6.258083 0.425362
-2.814337 -6.240128 0.424139
-2.822923 -6.220996 0.422784
-2.834272 -6.211990 0.422580
-2.854504 -6.233456 0.425851
-2.866997 -6.228126 0.426087
-2.876868 -6.214191 0.425346
-2.890073 -6.211391 0.425886
-2.910833 -6.232650 0.429205
-2.930930 -6.251014 0.432213
-2.939405 -6.232755 0.431005
-2.950154 -6.221840 0.430649
-2.961524 -6.212983 0.430536
-2.974333 -6.208498 0.430938
-2.992796 -6.220429 0.433269
-3.015435 -6.243820 0.436963
-3.027455 -6.236437 0.437061
-3.033601 -6.212805 0.435245
-3.039838 -6.189957 0.433515
-3.044724 -6.163970 0.431406
-3.057446 -6.159424 0.431844
-3.077495 -6.174099 0.434585
-3.091067 -6.171461 0.435271
-3.096036 -6.146788 0.433315
-3.099502 -6.118850 0.430957
-3.088136 -6.054667 0.424201
-3.063379 -5.959208 0.413610
-3.073631 -5.950836 0.413558
-3.086310 -5.948344 0.414228
-3.098814 -5.945373 0.414846
-3.113097 -5.946485 0.415972
-3.123973 -5.939607 0.416122
-3.137112 -5.937905 0.416916
-3.149238 -5.933844 0.417425
-3.164533 -5.936762 0.418809
-3.178869 -5.937380 0.419917
-3.194978 -5.941679 0.421495
-3.207959 -5.939071 0.422218
-3.220073 -5.934566 0.422707
-3.230760 -5.927062 0.422823
-3.244024 -5.924906 0.423620
-3.256995 -5.922074 0.424339
-3.269891 -5.919022 0.425037
-3.282203 -5.914752 0.425585
-3.297834 -5.916961 0.426974
-3.316078 -5.924063 0.429006
-3.329795 -5.922181 0.429890
-3.341384 -5.916171 0.430244
-3.355417 -5.914746 0.431202
-3.369545 -5.913397 0.432179
-3.385152 -5.914659 0.433509
-3.399742 -5.913914 0.434585
-3.417152 -5.918113 0.436326
-3.429523 -5.913139 0.436863
-3.439541 -5.904004 0.436850
-3.454589 -5.903669 0.438019
-3.471290 -5.906048 0.439564
-3.487861 -5.908021 0.441068
-3.502767 -5.907013 0.442183
-3.516529 -5.903982 0.443034
-3.529124 -5.898957 0.443622
-3.544220 -5.897974 0.444771
-3.558765 -5.895983 0.445794
-3.572732 -5.892972 0.446688
-3.586182 -5.889064 0.447468
-3.600312 -5.886161 0.448397
-3.617633 -5.888118 0.450017
-3.633667 -5.887918 0.451351
-3.646266 -5.882364 0.451946
-3.663356 -5.883527 0.453500
-3.678475 -5.881589 0.454631
-3.696735 -5.884171 0.456420
-3.714214 -5.885412 0.458038
-3.727727 -5.880755 0.458826
-3.747327 -5.884741 0.460874
-3.760975 -5.880072 0.461690
-3.772557 -5.872441 0.462087
-3.795866 -5.881087 0.464875
-3.815653 -5.884568 0.466934
-3.829331 -5.879505 0.467757
-3.842676 -5.873929 0.468519
-3.861459 -5.875563 0.470368
-3.879683 -5.876263 0.472101
-3.897579 -5.876355 0.473766
-3.910535 -5.869866 0.474461
-3.929339 -5.870851 0.476304
-3.946035 -5.868959 0.477734
-3.954484 -5.856532 0.477575
-3.973089 -5.856849 0.479383
-3.998761 -5.865727 0.482538
-4.016194 -5.864161 0.484114
-4.033584 -5.862390 0.485682
-4.052235 -5.861983 0.487490
-4.067942 -5.857889 0.488746
-4.083304 -5.853275 0.489943
-4.111683 -5.863770 0.493567
-4.126706 -5.858408 0.494703
-4.144180 -5.855758 0.496299
-4.155836 -5.846345 0.496831
-4.158348 -5.826608 0.495704
-4.182832 -5.831539 0.498605
-4.207159 -5.835997 0.501473
-4.231748 -5.840447 0.504383
-4.264115 -5.853031 0.508689
-4.280098 -5.847563 0.510042
-4.299429 -5.845535 0.512001
-4.310596 -5.834714 0.512511
-4.324101 -5.826310 0.513451
-4.342843 -5.823247 0.515327
-4.364397 -5.822892 0.517704
-4.379033 -5.815284 0.518869
-4.394804 -5.808723 0.520242
-4.411663 -5.803127 0.521813
-4.430686 -5.799530 0.523768
-4.449087 -5.795146 0.525620
-4.470512 -5.793527 0.528000
-4.488139 -5.788049 0.529727
-4.506264 -5.782897 0.531546
-4.529116 -5.782040 0.534178
-4.547261 -5.776561 0.536006
-4.564588 -5.770181 0.537699
-4.577640 -5.759764 0.538670
-4.585806 -5.744874 0.538822
-4.591443 -5.727753 0.538557
-4.592458 -5.706613 0.537527
-4.594767 -5.686776 0.536728
-4.597745 -5.667670 0.536053
-4.591215 -5.640503 0.533801
-4.593385 -5.621070 0.533012
-4.594715 -5.601088 0.532091
-4.590908 -5.576982 0.530324
-4.591929 -5.557155 0.529362
-4.592987 -5.537554 0.528406
-4.591993 -5.516490 0.527112
-4.591393 -5.495988 0.525881
-4.585185 -5.471256 0.523730
-4.580728 -5.448250 0.521861
-4.587105 -5.434049 0.521746
-4.589072 -5.416595 0.520898
-4.593559 -5.401322 0.520440
-4.593764 -5.383007 0.519272
-4.572818 -5.349033 0.514689
-4.576229 -5.333848 0.514002
-4.589671 -5.326346 0.514889
-4.613105 -5.326307 0.517327
-4.576980 -5.282994 0.510273
-4.594435 -5.279077 0.511693
-4.600922 -5.267441 0.511338
-4.592499 -5.245513 0.508608
-4.706195 -5.293815 0.523415
-1.861057 -6.074342 0.359739
-1.868836 -6.112029 0.364186
-1.879016 -6.116502 0.365416
-1.889533 -6.118843 0.366401
-1.900881 -6.108554 0.366122
-1.911847 -6.108725 0.366812
-1.923293 -6.101500 0.366742
-1.934527 -6.102797 0.367461
-1.945836 -6.106961 0.368423
-1.957341 -6.110748 0.369313
-1.969409 -6.098476 0.368593
-1.981293 -6.096780 0.368876
-1.993197 -6.100860 0.369697
-2.005307 -6.099754 0.369978
-2.017475 -6.104636 0.370824
-2.029799 -6.099249 0.370632
-2.042154 -6.092591 0.370291
-2.054543 -6.088309 0.370165
-2.067019 -6.088693 0.370485
-2.079608 -6.091943 0.371074
-2.092165 -6.089949 0.371131
-2.104708 -6.086494 0.371032
-2.117124 -6.078791 0.370502
-2.129850 -6.080811 0.370934
-2.142614 -6.082625 0.371342
-2.155335 -6.082636 0.371569
-2.168411 -6.089315 0.372461
-2.189243 -6.234273 0.387186
-2.203946 -6.254368 0.389440
-2.218501 -6.269121 0.391165
-2.233639 -6.290116 0.393525
-2.250583 -6.332514 0.398044
-2.266975 -6.362853 0.401367
-2.281489 -6.367532 0.402123
-2.294167 -6.351161 0.400772
-2.307411 -6.342539 0.400208
-2.321394 -6.342268 0.400496
-2.336062 -6.348677 0.401470
-2.350113 -6.348882 0.401831
-2.363545 -6.343652 0.401653
-2.377278 -6.341433 0.401793
-2.390268 -6.333390 0.401355
-2.404694 -6.337214 0.402133
-2.419749 -6.345526 0.403383
-2.433625 -6.344693 0.403718
-2.447560 -6.344338 0.404115
-2.462419 -6.350296 0.405171
-2.474980 -6.340733 0.404655
-2.488648 -6.338812 0.404933
-2.502219 -6.336386 0.405173
-2.516640 -6.339180 0.405964
-2.530343 -6.337588 0.406318
-2.540561 -6.316223 0.404645
-2.553163 -6.309143 0.404454
-2.567209 -6.310166 0.405115
-2.585696 -6.334406 0.408201
-2.598491 -6.328217 0.408145
-2.610503 -6.318342 0.407716
-2.623769 -6.314980 0.407976
-2.634037 -6.297392 0.406761
-2.645909 -6.287991 0.406409
-2.657177 -6.276161 0.405811
-2.670157 -6.272391 0.406070
-2.683635 -6.270852 0.406575
-2.697572 -6.271240 0.407297
-2.707968 -6.256685 0.406446
-2.723429 -6.263385 0.407860
-2.737861 -6.265570 0.408809
-2.754154 -6.274897 0.410534
-2.765864 -6.266029 0.410328
-2.783990 -6.281717 0.412765
-2.798449 -6.283047 0.413677
-2.809184 -6.270590 0.413114
-2.817399 -6.249397 0.411612
-2.824881 -6.226235 0.409895
-2.843184 -6.241268 0.412330
-2.856658 -6.239202 0.412919
-2.872264 -6.244216 0.414293
-2.883203 -6.233554 0.413963
-2.899069 -6.239073 0.415415
-2.915949 -6.247512 0.417204
-2.930195 -6.247281 0.418049
-2.941661 -6.238332 0.417940
-2.951699 -6.225181 0.417367
-2.963673 -6.218088 0.417472
-2.977508 -6.216558 0.418205
-2.999398 -6.238320 0.421558
-3.016177 -6.244673 0.423203
-3.028119 -6.237065 0.423288
-3.040293 -6.230179 0.423459
-3.047389 -6.209448 0.422063
-3.040925 -6.152565 0.416548
-3.050485 -6.139774 0.416038
