ply
format ascii 1.0
comment ---
element vertex 1681
property float x
property float y
property float z
element face 0
property list uchar uint vertex_indices
end_header
-3.561522 1.939869 0.042307
-3.557719 1.959715 0.042523
-3.562237 1.988025 0.042636
-3.560496 2.010328 0.042840
-3.551887 2.025836 0.043142
-3.539262 2.037289 0.043503
-3.579662 2.103718 0.043183
-3.551517 2.099434 0.043759
-3.548620 2.121522 0.044016
-3.532017 2.129196 0.044454
-3.530097 2.152596 0.044711
-3.540644 2.189758 0.044820
-3.532048 2.206420 0.045176
-3.543861 2.245758 0.045287
-3.527328 2.253970 0.045754
-3.522457 2.275266 0.046084
-3.515414 2.294279 0.046446
-3.516372 2.322626 0.046720
-3.510075 2.342886 0.047086
-3.510737 2.371459 0.047377
-3.508963 2.397484 0.047704
-3.503479 2.419366 0.048080
-3.497256 2.440562 0.048471
-3.500436 2.473372 0.048763
-3.496125 2.497408 0.049146
-3.492018 2.521942 0.049533
-3.474941 2.530523 0.050065
-3.480044 2.567041 0.050366
-3.470363 2.585214 0.050830
-3.458023 2.600103 0.051326
-3.462714 2.637182 0.051653
-3.449062 2.650714 0.052173
-3.451799 2.685989 0.052535
-3.444290 2.708039 0.053005
-3.419938 2.707568 0.053642
-3.406523 2.721778 0.054175
-3.389037 2.730447 0.054750
-3.375712 2.744852 0.055289
-3.355054 2.749033 0.055897
-3.324093 2.738475 0.056595
-3.310526 2.752393 0.057142
-3.284261 2.748010 0.057798
-3.257459 2.742541 0.058457
-3.227011 2.731368 0.059143
-3.198574 2.722751 0.059810
-3.177371 2.724636 0.060420
-3.156938 2.727519 0.061024
-3.136821 2.730734 0.061626
-3.110598 2.724329 0.062271
-3.082280 2.714296 0.062928
-3.062500 2.717369 0.063527
-3.042973 2.720701 0.064124
-3.019667 2.717784 0.064744
-2.993724 2.710288 0.065379
-2.973335 2.711597 0.065980
-2.948579 2.705440 0.066605
-2.927695 2.705473 0.067207
-2.903838 2.700236 0.067824
-2.882510 2.699037 0.068428
-2.861240 2.697707 0.069031
-2.848953 2.711960 0.069598
-2.830169 2.714756 0.070193
-2.799795 2.696559 0.070829
-2.763292 2.666610 0.071478
-2.748034 2.674865 0.072057
-2.732993 2.683510 0.072639
-2.715226 2.687022 0.073231
-2.694052 2.683936 0.073830
-2.674112 2.682955 0.074427
-2.652308 2.678125 0.075027
-2.637165 2.686096 0.075620
-2.616145 2.682359 0.076220
-2.586926 2.661833 0.076820
-2.566988 2.659536 0.077416
-2.548943 2.660893 0.078014
-2.528887 2.657899 0.078612
-2.507970 2.652828 0.079208
-2.489450 2.652565 0.079809
-2.458980 2.626281 0.080384
-2.447107 2.639855 0.081000
-2.415261 2.609345 0.081562
-2.396258 2.606694 0.082159
-2.385698 2.622970 0.082791
-2.368432 2.624058 0.083403
-2.343926 2.608145 0.083981
-2.328397 2.612817 0.084604
-2.312700 2.617035 0.085231
-2.292970 2.611437 0.085836
-2.270838 2.599632 0.086425
-2.250482 2.591761 0.087025
-2.231549 2.587100 0.087637
-2.213713 2.584951 0.088260
-2.196127 2.583231 0.088888
-2.180048 2.585264 0.089534
-2.160769 2.578689 0.090151
-2.141719 2.572399 0.090771
-2.125915 2.574662 0.091432
-2.110085 2.576774 0.092099
-2.093915 2.577851 0.092767
-2.073236 2.565942 0.093375
-2.058825 2.571718 0.094078
-2.042407 2.571631 0.094757
-2.026178 2.571983 0.095445
-2.009922 2.572139 0.096139
-1.992022 2.567116 0.096807
-1.973422 2.559621 0.097463
-1.954513 2.550794 0.098115
-1.936655 2.544971 0.098790
-1.920935 2.545884 0.099518
-1.908305 2.557069 0.100329
-1.891984 2.555987 0.101060
-1.876798 2.558709 0.101828
-1.868135 2.584427 0.102791
-1.860584 2.614983 0.103814
-1.886198 2.767730 0.105902
-1.882376 2.816579 0.107163
-1.869134 2.831495 0.108150
-1.855633 2.845924 0.109149
-1.842714 2.863155 0.110191
-1.823573 2.856001 0.111013
-1.770716 2.851934 0.113694
-1.759272 2.877354 0.114895
-1.740378 2.870571 0.115759
-1.721551 2.863745 0.116628
-1.703885 2.861982 0.117561
-1.686124 2.859638 0.118493
-1.667151 2.851177 0.119356
-1.648368 2.843190 0.120227
-1.630511 2.839502 0.121154
-1.613937 2.842326 0.122169
-1.597712 2.847101 0.123216
-1.580830 2.848356 0.124221
-1.562829 2.843118 0.125138
-1.542087 2.821213 0.125816
-1.525744 2.824557 0.126847
-1.509144 2.826251 0.127854
-1.491711 2.822369 0.128774
-1.474150 2.817028 0.129663
-1.457828 2.819467 0.130664
-1.441447 2.821166 0.131645
-1.426164 2.830524 0.132738
-1.409197 2.826969 0.133611
-1.390379 2.807609 0.134200
-1.373695 2.803477 0.135019
-1.358042 2.806823 0.135943
-1.342084 2.806514 0.136780
-1.326054 2.804124 0.137553
-1.310216 2.801818 0.138297
-1.294528 2.799060 0.138999
-1.279323 2.799228 0.139720
-1.264174 2.797810 0.140374
-1.249572 2.800225 0.141060
-1.235357 2.804974 0.141750
-1.223318 2.835797 0.142897
-3.934873 0.860527 0.026349
-3.914806 0.865672 0.026782
-3.909261 0.878273 0.026935
-3.901710 0.890107 0.027091
-3.883514 0.896675 0.027397
-3.886464 0.914369 0.027316
-3.896763 0.936257 0.027081
-3.899233 0.954367 0.026953
-3.895830 0.969609 0.026901
-3.890034 0.983763 0.026868
-3.882854 0.997326 0.026838
-3.877321 1.011951 0.026761
-3.878375 1.030431 0.026553
-3.884377 1.051944 0.026245
-3.883460 1.069747 0.026043
-3.883528 1.088295 0.025811
-3.881992 1.106073 0.025599
-3.881624 1.124688 0.025358
-3.875469 1.139975 0.025213
-3.868465 1.154813 0.025080
-3.866156 1.172577 0.024860
-3.858606 1.187191 0.024733
-3.853518 1.203372 0.024562
-3.852759 1.222351 0.024313
-3.854216 1.242854 0.024025
-3.853132 1.261843 0.023785
-3.852087 1.280951 0.023549
-3.851701 1.300586 0.023304
-3.847612 1.317846 0.023133
-3.847711 1.337979 0.022889
-3.848969 1.359007 0.022630
-3.851151 1.380791 0.022359
-3.845251 1.397080 0.022248
-3.837379 1.412000 0.022183
-3.831857 1.428581 0.022081
-3.827715 1.446178 0.021962
-3.825815 1.465446 0.021807
-3.820100 1.482000 0.021736
-3.813545 1.497958 0.021689
-3.814686 1.519679 0.021502
-3.816919 1.542354 0.021302
-3.787535 1.604538 0.021344
-3.739071 1.608728 0.022090
-3.759502 1.646502 0.021593
-3.735604 1.648618 0.021984
-3.660155 1.608111 0.023410
-3.600859 1.579977 0.024526
-3.587518 1.589563 0.024738
-3.585067 1.608292 0.024741
-3.598778 1.640929 0.024430
-3.597566 1.661072 0.024424
-3.595885 1.680943 0.024436
-3.593257 1.700113 0.024474
-3.590318 1.719127 0.024527
-3.587590 1.738446 0.024583
-3.594022 1.766163 0.024464
-3.590967 1.785516 0.024542
-3.582949 1.800431 0.024727
-3.572795 1.813408 0.024961
-3.571007 1.834238 0.025036
-3.571633 1.857510 0.025071
-3.565310 1.874355 0.025251
-3.581448 1.912927 0.024991
-3.579471 1.934378 0.025099
-3.574122 1.952696 0.025281
-3.570225 1.972569 0.025440
-3.568311 1.994572 0.025568
-3.567777 2.018156 0.025675
-3.559031 2.033598 0.025950
-3.573773 2.073244 0.025770
-3.576713 2.101170 0.025829
-3.540360 2.088271 0.026664
-3.530607 2.103016 0.026982
-3.540522 2.138791 0.026924
-3.544688 2.168835 0.026985
-3.545192 2.195248 0.027123
-3.532453 2.207422 0.027524
-3.511165 2.210154 0.028093
-3.523780 2.250588 0.028016
-3.521646 2.274943 0.028229
-3.524999 2.305787 0.028344
-3.519291 2.326593 0.028637
-3.516090 2.350486 0.028887
-3.514344 2.376320 0.029116
-3.511645 2.401305 0.029369
-3.503181 2.419678 0.029735
-3.492324 2.435306 0.030150
-3.486875 2.457592 0.030469
-3.496177 2.498185 0.030522
-3.481411 2.509536 0.031023
-3.470574 2.525803 0.031456
-3.472084 2.557753 0.031669
-3.470090 2.585639 0.031952
-3.460040 2.603487 0.032384
-3.462632 2.637884 0.032596
-3.459158 2.664778 0.032921
-3.454017 2.689771 0.033282
-3.445175 2.710086 0.033711
-3.430380 2.722543 0.034249
-3.406094 2.722085 0.034953
-3.394477 2.738844 0.035440
-3.384238 2.757633 0.035908
-3.362189 2.759992 0.036579
-3.335740 2.755941 0.037324
-3.311155 2.754261 0.038038
-3.280574 2.743659 0.038851
-3.251540 2.734888 0.039637
-3.230367 2.737325 0.040294
-3.198401 2.723511 0.041126
-3.170915 2.715950 0.041884
-3.153450 2.723263 0.042482
-3.134540 2.728295 0.043105
-3.110420 2.725131 0.043809
-3.086919 2.722661 0.044504
-3.063412 2.719921 0.045198
-3.033974 2.707418 0.045981
-3.012403 2.707171 0.046645
-2.990999 2.706985 0.047307
-2.969704 2.706769 0.047968
-2.950964 2.710603 0.048592
-2.924145 2.700684 0.049332
-2.903408 2.700715 0.049985
-2.889120 2.711658 0.050550
-2.872077 2.717833 0.051155
-2.855732 2.725165 0.051753
-2.831633 2.718647 0.052455
-2.794204 2.687791 0.053329
-2.768642 2.677644 0.054045
-2.748323 2.676718 0.054694
-2.734926 2.688446 0.055259
-2.715823 2.689502 0.055896
-2.698507 2.693784 0.056514
-2.675223 2.686481 0.057203
-2.652161 2.679245 0.057889
-2.627597 2.668690 0.058591
-2.606577 2.664749 0.059253
-2.587043 2.663518 0.059900
-2.566386 2.659773 0.060559
-2.548911 2.662309 0.061188
-2.531242 2.664312 0.061821
-2.516280 2.671885 0.062431
-2.480151 2.634227 0.063238
-2.469185 2.649884 0.063815
-2.437814 2.621071 0.064572
-2.411894 2.603444 0.065278
-2.399058 2.614552 0.065880
-2.380832 2.613514 0.066527
-2.362035 2.610962 0.067181
-2.342590 2.606657 0.067842
-2.326373 2.609684 0.068483
-2.310173 2.612660 0.069129
-2.290254 2.606538 0.069800
-2.267922 2.594169 0.070484
-2.248516 2.588574 0.071154
-2.231874 2.589632 0.071814
-2.216099 2.592771 0.072475
-2.199618 2.594011 0.073144
-2.179688 2.586082 0.073827
-2.158335 2.573989 0.074514
-2.140035 2.569643 0.075196
-2.125918 2.576473 0.075876
-2.111351 2.582110 0.076564
-2.089543 2.567376 0.077259
-2.075817 2.575169 0.077959
-2.058842 2.573637 0.078662
-2.040024 2.566498 0.079367
-2.022419 2.562644 0.080078
-2.007497 2.566692 0.080802
-1.991083 2.566151 0.081527
-1.970152 2.551318 0.082235
-1.951781 2.544050 0.082957
-1.936807 2.547431 0.083705
-1.924016 2.558012 0.084478
-1.907838 2.557518 0.085235
-1.893610 2.563554 0.086016
-1.878566 2.566881 0.086800
-1.867277 2.583486 0.087637
-1.857952 2.607661 0.088517
-1.901361 2.825400 0.090153
-1.879947 2.809833 0.090960
-1.869799 2.836351 0.091950
-1.861095 2.869416 0.092991
-1.846358 2.879926 0.093950
-1.827273 2.873314 0.094836
-1.743959 2.889181 0.099655
-1.720231 2.860336 0.100434
-1.703152 2.861224 0.101413
-1.685503 2.859377 0.102379
-1.668083 2.858512 0.103359
-1.649767 2.853040 0.104308
-1.630468 2.842157 0.105216
-1.613045 2.840550 0.106201
-1.597471 2.848817 0.107275
-1.580514 2.849707 0.108290
-1.559319 2.826163 0.109081
-1.541733 2.822418 0.110049
-1.524654 2.821345 0.111040
-1.508739 2.827274 0.112101
-1.491773 2.826490 0.113091
-1.474737 2.824839 0.114067
-1.457617 2.822092 0.115022
-1.440885 2.821446 0.115991
-1.424491 2.822692 0.116970
-1.408311 2.825006 0.117949
-1.390712 2.815400 0.118768
-1.374136 2.812613 0.119649
-1.357990 2.812261 0.120539
-1.341170 2.804629 0.121310
-1.325564 2.806351 0.122176
-1.309513 2.802305 0.122936
-1.293910 2.800723 0.123698
-1.278737 2.801623 0.124460
-1.263333 2.797799 0.125119
-1.248006 2.791996 0.125712
-1.233101 2.788116 0.126290
-1.217122 2.766566 0.126566
-3.912716 0.849345 0.012143
-3.932739 0.874464 0.011732
-3.928677 0.887947 0.011819
-3.908413 0.893433 0.012232
-3.893404 0.901720 0.012500
-3.891236 0.916837 0.012458
-3.897523 0.936672 0.012202
-3.892305 0.950725 0.012175
-3.889212 0.966126 0.012077
-3.887061 0.982257 0.011936
-3.885783 0.999082 0.011756
-3.880649 1.013973 0.011644
-3.883924 1.033749 0.011327
-3.887406 1.053888 0.010990
-3.889784 1.073627 0.010663
-3.886952 1.090548 0.010444
-3.886154 1.108800 0.010169
-3.882468 1.125486 0.009953
-3.876300 1.140785 0.009789
-3.870361 1.156287 0.009615
-3.865826 1.172710 0.009406
-3.860847 1.188927 0.009207
-3.856032 1.205304 0.009004
-3.859283 1.226851 0.008611
-3.856105 1.244434 0.008371
-3.853769 1.262631 0.008114
-3.851131 1.280706 0.007867
-3.853565 1.302204 0.007503
-3.854869 1.323086 0.007169
-3.850547 1.340288 0.006976
-3.850737 1.360609 0.006680
-3.847857 1.378919 0.006464
-3.845588 1.397714 0.006241
-3.839725 1.414051 0.006112
-3.836023 1.431943 0.005939
-3.830398 1.448505 0.005820
-3.825328 1.465495 0.005697
-3.821393 1.483349 0.005553
-3.818194 1.501799 0.005399
-3.816684 1.521575 0.005210
-3.778693 1.640798 0.004824
-3.736196 1.628098 0.005756
-3.705607 1.624580 0.006394
-3.661772 1.609833 0.007385
-3.610777 1.588596 0.008573
-3.589124 1.591293 0.009012
-3.594576 1.616723 0.008758
-3.601701 1.643815 0.008467
-3.598630 1.662383 0.008448
-3.596184 1.681598 0.008420
-3.593123 1.700394 0.008415
-3.588431 1.717855 0.008460
-3.589490 1.740551 0.008361
-3.599813 1.771802 0.008027
-3.596421 1.790900 0.008058
-3.580554 1.798642 0.008423
-3.572732 1.813767 0.008584
-3.571915 1.835511 0.008568
-3.569897 1.856295 0.008590
-3.563487 1.873048 0.008733
-3.586281 1.918025 0.008115
-3.581176 1.936483 0.008236
-3.576242 1.955229 0.008359
-3.577759 1.980490 0.008318
-3.572180 1.998905 0.008470
-3.587099 2.038123 0.008089
-3.571136 2.046404 0.008525
-3.567363 2.067147 0.008646
-3.566819 2.091406 0.008688
-3.542365 2.090871 0.009362
-3.552163 2.126300 0.009144
-3.555028 2.154782 0.009112
-3.556475 2.182053 0.009124
-3.545130 2.195722 0.009475
-3.524065 2.198776 0.010084
-3.516298 2.216393 0.010351
-3.520008 2.246946 0.010323
-3.522940 2.276985 0.010320
-3.522261 2.303268 0.010416
-3.516037 2.323465 0.010661
-3.513592 2.348211 0.010812
-3.518578 2.381911 0.010776
-3.512554 2.403028 0.011029
-3.504662 2.422106 0.011335
-3.492824 2.436583 0.011746
-3.487722 2.459310 0.011988
-3.484630 2.484725 0.012182
-3.477605 2.505541 0.012481
-3.468887 2.524429 0.012828
-3.472111 2.558540 0.012873
-3.463828 2.578429 0.013216
-3.463285 2.608448 0.013365
-3.457558 2.632097 0.013651
-3.454827 2.659921 0.013865
-3.444549 2.678074 0.014273
-3.436911 2.699895 0.014618
-3.424571 2.715575 0.015085
-3.414783 2.734826 0.015491
-3.405349 2.754725 0.015892
-3.374230 2.744641 0.016837
-3.350088 2.743938 0.017608
-3.329134 2.747526 0.018301
-3.307568 2.750092 0.019011
-3.279307 2.742806 0.019888
-3.250032 2.733677 0.020789
-3.228726 2.735912 0.021496
-3.201763 2.729543 0.022341
-3.169064 2.714192 0.023327
-3.151252 2.720967 0.023950
-3.135188 2.730357 0.024533
-3.111261 2.727517 0.025308
-3.085396 2.721368 0.026129
-3.052903 2.704373 0.027109
-3.029546 2.701449 0.027870
-3.010605 2.705400 0.028528
-2.989422 2.705561 0.029239
-2.970107 2.708604 0.029908
-2.948949 2.708427 0.030621
-2.932412 2.715838 0.031228
-2.903430 2.701970 0.032125
-2.886662 2.708658 0.032740
-2.870219 2.715853 0.033349
-2.851916 2.719720 0.034003
-2.826358 2.710546 0.034824
-2.795706 2.691792 0.035759
-2.773872 2.688475 0.036495
-2.753664 2.687874 0.037196
-2.728788 2.678372 0.038001
-2.714785 2.688917 0.038568
-2.697364 2.692994 0.039213
-2.673264 2.684111 0.040004
-2.649186 2.674868 0.040796
-2.622730 2.660534 0.041639
-2.598255 2.649618 0.042439
-2.579956 2.650696 0.043110
-2.555452 2.638960 0.043912
-2.538865 2.643084 0.044551
-2.524378 2.651499 0.045151
-2.500145 2.639341 0.045951
-2.490516 2.657919 0.046460
-2.465701 2.643906 0.047275
-2.436729 2.620258 0.048172
-2.413532 2.608650 0.048956
-2.398317 2.614484 0.049587
-2.384634 2.623767 0.050193
-2.359956 2.607805 0.051010
-2.341128 2.604895 0.051719
-2.323756 2.605171 0.052404
-2.304759 2.601397 0.053122
-2.283463 2.591784 0.053884
-2.264619 2.587769 0.054604
-2.247804 2.588527 0.055293
-2.231726 2.590999 0.055974
-2.215973 2.594210 0.056655
-2.199055 2.594332 0.057360
-2.179889 2.588399 0.058104
-2.158553 2.576371 0.058884
-2.141277 2.574814 0.059605
-2.126464 2.579808 0.060295
-2.109560 2.578995 0.061022
-2.092143 2.576572 0.061760
-2.075525 2.576226 0.062492
-2.059123 2.576361 0.063227
-2.039222 2.566058 0.064010
-2.020864 2.559931 0.064777
-2.005003 2.561074 0.065520
-1.987105 2.555848 0.066292
-1.967874 2.546162 0.067081
-1.951955 2.546604 0.067841
-1.938900 2.556238 0.068583
-1.925169 2.563860 0.069342
-1.909823 2.566234 0.070122
-1.891992 2.560134 0.070926
-1.875686 2.559015 0.071726
-1.864401 2.575488 0.072507
-1.858918 2.613315 0.073278
-1.897073 2.812072 0.073928
-1.886997 2.838474 0.074803
-1.874534 2.856746 0.075703
-1.862199 2.876157 0.076621
-1.843419 2.870833 0.077553
-1.824976 2.866595 0.078492
-1.747854 2.909335 0.083388
-1.720288 2.863345 0.084292
-1.702757 2.862167 0.085283
-1.685730 2.863308 0.086286
-1.668769 2.864781 0.087298
-1.650934 2.861874 0.088302
-1.630618 2.845939 0.089265
-1.612497 2.840729 0.090263
-1.596660 2.847581 0.091313
-1.579133 2.845255 0.092328
-1.558580 2.825258 0.093262
-1.540502 2.818582 0.094251
-1.524663 2.824976 0.095306
-1.508375 2.828715 0.096347
-1.492149 2.832813 0.097390
-1.475430 2.833540 0.098410
-1.457610 2.826300 0.099372
-1.440058 2.820002 0.100327
-1.423540 2.820365 0.101316
-1.406670 2.817396 0.102267
-1.390403 2.818240 0.103231
-1.373806 2.815529 0.104150
-1.356987 2.809656 0.105022
-1.339428 2.795427 0.105798
-1.323228 2.791382 0.106630
-1.309566 2.810360 0.107639
-1.294046 2.810265 0.108453
-1.278634 2.809353 0.109226
-1.262814 2.801526 0.109899
-1.247087 2.791506 0.110510
-1.231715 2.782106 0.111084
-1.217299 2.781278 0.111703
-3.956352 0.870719 -0.003627
-3.938220 0.877024 -0.003170
-3.932374 0.889673 -0.003075
-3.916210 0.897311 -0.002732
-3.900356 0.905240 -0.002424
-3.898036 0.920352 -0.002510
-3.895423 0.935567 -0.002613
-3.887750 0.948333 -0.002604
-3.883596 0.963166 -0.002713
-3.882771 0.980015 -0.002933
-3.883835 0.998133 -0.003226
-3.884520 1.016277 -0.003526
-3.887863 1.036140 -0.003916
-3.889171 1.055088 -0.004265
-3.890162 1.074061 -0.004618
-3.889240 1.092114 -0.004929
-3.884467 1.108061 -0.005141
-3.880105 1.124350 -0.005372
-3.876608 1.141253 -0.005632
-3.872240 1.157724 -0.005871
-3.870286 1.175756 -0.006182
-3.864130 1.191281 -0.006374
-3.861529 1.209078 -0.006669
-3.857351 1.225957 -0.006917
-3.854377 1.243666 -0.007198
-3.851013 1.261190 -0.007466
-3.848386 1.279259 -0.007752
-3.855015 1.303520 -0.008308
-3.856564 1.324579 -0.008711
-3.851578 1.341347 -0.008915
-3.845432 1.357354 -0.009079
-3.841261 1.374738 -0.009296
-3.838168 1.392916 -0.009538
-3.838865 1.413817 -0.009889
-3.841456 1.436178 -0.010291
-3.840237 1.455944 -0.010571
-3.831044 1.470015 -0.010600
-3.829303 1.489518 -0.010850
-3.827275 1.508893 -0.011083
-3.831068 1.532698 -0.011488
-3.830962 1.661106 -0.013068
-3.778715 1.641196 -0.011661
-3.746200 1.636549 -0.010862
-3.700806 1.621043 -0.009643
-3.657894 1.607013 -0.008489
-3.601594 1.581336 -0.006896
-3.591338 1.593514 -0.006756
-3.593357 1.616060 -0.007001
-3.592919 1.636686 -0.007160
-3.592943 1.657853 -0.007329
-3.590338 1.676888 -0.007407
-3.585369 1.693962 -0.007402
-3.583091 1.713503 -0.007478
-3.581345 1.733648 -0.007565
-3.584024 1.757932 -0.007789
-3.588029 1.783646 -0.008051
-3.577147 1.795907 -0.007824
-3.571617 1.813135 -0.007765
-3.577192 1.840865 -0.008061
-3.575283 1.861804 -0.008109
-3.579285 1.888550 -0.008344
-3.582381 1.914695 -0.008545
-3.576210 1.932087 -0.008438
-3.569877 1.949421 -0.008320
-3.574754 1.977961 -0.008564
-3.559605 1.986786 -0.008148
-3.550106 2.001258 -0.007911
-3.578058 2.053924 -0.008899
-3.567807 2.068081 -0.008628
-3.559597 2.084401 -0.008419
-3.580305 2.131088 -0.009158
-3.566690 2.142155 -0.008763
-3.560508 2.161139 -0.008608
-3.552212 2.177988 -0.008379
-3.536554 2.186937 -0.007903
-3.520784 2.195718 -0.007419
-3.515332 2.215873 -0.007272
-3.515749 2.242752 -0.007314
-3.518985 2.273101 -0.007446
-3.515475 2.296133 -0.007352
-3.507556 2.314321 -0.007108
-3.507858 2.342175 -0.007133
-3.512674 2.375629 -0.007303
-3.510141 2.400820 -0.007228
-3.503236 2.421061 -0.007004
-3.496405 2.441564 -0.006780
-3.491586 2.464691 -0.006619
-3.486188 2.487337 -0.006436
-3.479949 2.509161 -0.006222
-3.476381 2.534530 -0.006093
-3.467535 2.553509 -0.005787
-3.458264 2.572100 -0.005464
-3.461043 2.606346 -0.005537
-3.457211 2.632448 -0.005388
-3.446985 2.650452 -0.005026
-3.445728 2.680473 -0.004957
-3.433039 2.695571 -0.004507
-3.416992 2.706210 -0.003945
-3.396090 2.710218 -0.003221
-3.384576 2.727021 -0.002803
-3.367414 2.736081 -0.002198
-3.340418 2.731289 -0.001266
-3.322205 2.738646 -0.000622
-3.300541 2.740989 0.000138
-3.271884 2.733043 0.001130
-3.249379 2.733714 0.001921
-3.228742 2.736942 0.002652
-3.205325 2.735876 0.003476
-3.173572 2.722015 0.004575
-3.153588 2.725572 0.005290
-3.134230 2.729951 0.005986
-3.109444 2.725777 0.006861
-3.081001 2.715567 0.007857
-3.054908 2.708661 0.008777
-3.029097 2.701852 0.009690
-3.010369 2.706158 0.010373
-2.992243 2.711333 0.011038
-2.969905 2.709445 0.011842
-2.951217 2.713408 0.012530
-2.929763 2.712575 0.013309
-2.905988 2.707559 0.014164
-2.885141 2.707278 0.014927
-2.864851 2.707756 0.015673
-2.844789 2.708440 0.016414
-2.817158 2.695450 0.017400
-2.794460 2.690855 0.018229
-2.772109 2.686585 0.019049
-2.754148 2.690104 0.019730
-2.727775 2.677837 0.020682
-2.703137 2.668361 0.021580
-2.688108 2.676767 0.022174
-2.668675 2.676682 0.022910
-2.646403 2.670871 0.023739
-2.621093 2.658742 0.024666
-2.596897 2.648359 0.025559
-2.578275 2.648774 0.026280
-2.554293 2.638075 0.027170
-2.534583 2.635746 0.027929
-2.514838 2.633099 0.028692
-2.494666 2.629296 0.029471
-2.482400 2.642121 0.030008
-2.466275 2.646720 0.030669
-2.439389 2.627665 0.031664
-2.414481 2.612344 0.032599
-2.400253 2.620445 0.033211
-2.383958 2.623868 0.033890
-2.363735 2.618152 0.034692
-2.340271 2.604560 0.035594
-2.320720 2.599682 0.036382
-2.300989 2.594076 0.037178
-2.281579 2.588931 0.037968
-2.262812 2.585061 0.038743
-2.246363 2.586688 0.039454
-2.229840 2.588011 0.040171
-2.213701 2.590189 0.040882
-2.195268 2.586327 0.041664
-2.177804 2.584743 0.042423
-2.160041 2.582169 0.043195
-2.142267 2.579339 0.043971
-2.124123 2.575268 0.044763
-2.108404 2.577676 0.045492
-2.093429 2.582110 0.046207
-2.077528 2.583889 0.046954
-2.057678 2.574115 0.047812
-2.040434 2.571597 0.048605
-2.022407 2.566528 0.049423
-2.004748 2.562300 0.050238
-1.986537 2.556114 0.051071
-1.968237 2.549333 0.051911
-1.952958 2.551857 0.052682
-1.936847 2.551661 0.053480
-1.924018 2.562173 0.054207
-1.906500 2.557230 0.055052
-1.887793 2.547965 0.055930
-1.872076 2.548663 0.056745
-1.861312 2.566788 0.057460
-1.858575 2.614340 0.058017
-1.902484 2.834303 0.057634
-1.890149 2.852701 0.058458
-1.875430 2.862665 0.059343
-1.859416 2.867935 0.060264
-1.836667 2.846752 0.061316
-1.779371 2.896891 0.065020
-1.739763 2.875949 0.067092
-1.719727 2.863636 0.068134
-1.701424 2.858832 0.069160
-1.685168 2.863576 0.070170
-1.668135 2.864696 0.071196
-1.649813 2.859315 0.072237
-1.630224 2.847053 0.073288
-1.611699 2.839722 0.074332
-1.595302 2.843500 0.075369
-1.577734 2.840830 0.076414
-1.558623 2.829002 0.077458
-1.540688 2.823294 0.078498
-1.524287 2.826428 0.079542
-1.507805 2.829017 0.080585
-1.491620 2.833432 0.081629
-1.474998 2.834885 0.082667
-1.457185 2.827781 0.083682
-1.438933 2.816576 0.084677
-1.422299 2.816041 0.085682
-1.405916 2.816761 0.086678
-1.388859 2.811387 0.087641
-1.373055 2.815127 0.088616
-1.356198 2.809044 0.089538
-1.338289 2.791783 0.090391
-1.323375 2.799886 0.091318
-1.308690 2.809447 0.092230
-1.293365 2.811576 0.093083
-1.277059 2.801343 0.093845
-1.261684 2.798446 0.094607
-1.246247 2.792048 0.095314
-1.231179 2.786844 0.095988
-1.216817 2.787410 0.096655
-3.913075 0.849086 -0.017066
-3.925965 0.870714 -0.017569
-3.924125 0.885358 -0.017633
-3.921560 0.899929 -0.017703
-3.902568 0.906304 -0.017274
-3.892282 0.917307 -0.017149
-3.889217 0.932285 -0.017281
-3.885764 0.947293 -0.017425
-3.885128 0.964040 -0.017682
-3.888417 0.983167 -0.018087
-3.890472 1.001890 -0.018472
-3.892625 1.020917 -0.018879
-3.890744 1.037912 -0.019169
-3.890612 1.056080 -0.019531
-3.890558 1.074481 -0.019908
-3.888197 1.091718 -0.020219
-3.881907 1.106781 -0.020408
-3.878251 1.123488 -0.020691
-3.875618 1.140912 -0.021014
-3.870381 1.156860 -0.021253
-3.866450 1.173676 -0.021538
-3.861248 1.189778 -0.021782
-3.858084 1.207211 -0.022095
-3.853473 1.223799 -0.022359
-3.848555 1.240241 -0.022609
-3.848195 1.259679 -0.023016
-3.851700 1.281749 -0.023554
-3.853103 1.302580 -0.024018
-3.852890 1.322452 -0.024422
-3.849151 1.340040 -0.024698
-3.841989 1.355340 -0.024847
-3.833672 1.369842 -0.024949
-3.830517 1.387925 -0.025228
-3.829289 1.407420 -0.025570
-3.851476 1.443647 -0.026747
-3.840979 1.456823 -0.026746
-3.836734 1.474489 -0.026963
-3.832563 1.492255 -0.027175
-3.830702 1.511779 -0.027464
-3.847428 1.545274 -0.028426
-3.713103 1.631417 -0.026270
-3.657732 1.607229 -0.024461
-3.613409 1.591494 -0.023052
-3.593199 1.595420 -0.022543
-3.589708 1.613321 -0.022658
-3.589864 1.634428 -0.022906
-3.586194 1.652389 -0.023002
-3.581964 1.669958 -0.023072
-3.580757 1.690272 -0.023252
-3.582516 1.713359 -0.023540
-3.577166 1.730277 -0.023550
-3.583096 1.757469 -0.023989
-3.574426 1.771621 -0.023861
-3.576292 1.795502 -0.024135
-3.581120 1.822350 -0.024519
-3.579677 1.843589 -0.024656
-3.581247 1.867848 -0.024906
-3.577730 1.887472 -0.024954
-3.582970 1.915676 -0.025339
-3.582502 1.938628 -0.025497
-3.578694 1.958504 -0.025521
-3.566304 1.970023 -0.025204
-3.562353 1.989975 -0.025213
-3.572509 2.024316 -0.025773
-3.568251 2.044394 -0.025763
-3.568057 2.068805 -0.025910
-3.570153 2.095829 -0.026144
-3.578540 2.129728 -0.026625
-3.568445 2.144506 -0.026370
-3.550686 2.151168 -0.025806
-3.548187 2.174169 -0.025845
-3.540973 2.192263 -0.025693
-3.520423 2.195854 -0.025006
-3.516139 2.217309 -0.024964
-3.520111 2.248180 -0.025249
-3.520623 2.275518 -0.025394
-3.512594 2.293433 -0.025194
-3.506450 2.313643 -0.025067
-3.501290 2.335163 -0.024976
-3.508111 2.370909 -0.025366
-3.511543 2.403113 -0.025617
-3.505293 2.424166 -0.025477
-3.495181 2.440755 -0.025178
-3.489510 2.462846 -0.025057
-3.482492 2.483494 -0.024879
-3.482539 2.513080 -0.024984
-3.480709 2.540672 -0.025012
-3.466397 2.552817 -0.024533
-3.459807 2.574827 -0.024364
-3.461241 2.607379 -0.024520
-3.458148 2.634465 -0.024491
-3.457191 2.664662 -0.024547
-3.448288 2.684701 -0.024278
-3.437690 2.702647 -0.023938
-3.415893 2.705593 -0.023139
-3.396792 2.712059 -0.022448
-3.379466 2.720881 -0.021827
-3.364533 2.732991 -0.021301
-3.350546 2.746453 -0.020813
-3.321435 2.738502 -0.019703
-3.293350 2.731645 -0.018631
-3.268434 2.729024 -0.017688
-3.248592 2.733555 -0.016950
-3.230754 2.740922 -0.016292
-3.207466 2.740094 -0.015409
-3.174641 2.724662 -0.014130
-3.152198 2.724506 -0.013276
-3.134303 2.731133 -0.012607
-3.108546 2.725465 -0.011612
-3.083605 2.720752 -0.010648
-3.057239 2.713469 -0.009622
-3.032846 2.708986 -0.008676
-3.012103 2.710109 -0.007878
-2.994719 2.716547 -0.007218
-2.973241 2.716140 -0.006385
-2.946880 2.707356 -0.005348
-2.923530 2.703262 -0.004433
-2.901414 2.700980 -0.003566
-2.884238 2.706967 -0.002903
-2.862131 2.704275 -0.002032
-2.836389 2.694912 -0.001007
-2.815373 2.693563 -0.000177
-2.795011 2.693157 0.000629
-2.772076 2.687853 0.001545
-2.744445 2.673579 0.002660
-2.723367 2.670988 0.003504
-2.707610 2.678160 0.004129
-2.678978 2.660772 0.005295
-2.661161 2.663622 0.006012
-2.639054 2.657983 0.006911
-2.613444 2.645111 0.007959
-2.597337 2.650692 0.008614
-2.578004 2.649702 0.009406
-2.562111 2.655517 0.010058
-2.534765 2.637628 0.011192
-2.518454 2.642177 0.011869
-2.498248 2.638409 0.012711
-2.480420 2.639451 0.013458
-2.457231 2.628720 0.014433
-2.438715 2.627787 0.015216
-2.420410 2.627110 0.015994
-2.401331 2.624498 0.016808
-2.381920 2.620882 0.017640
-2.361685 2.615100 0.018511
-2.338843 2.602908 0.019495
-2.318291 2.595640 0.020387
-2.299631 2.592539 0.021205
-2.281796 2.591188 0.021992
-2.263158 2.587660 0.022818
-2.246379 2.588497 0.023570
-2.229857 2.589843 0.024317
-2.212087 2.587873 0.025121
-2.192506 2.580993 0.026005
-2.173958 2.576483 0.026850
-2.158443 2.579777 0.027576
-2.141534 2.579243 0.028364
-2.122080 2.571572 0.029263
-2.106271 2.573671 0.030016
-2.093736 2.584928 0.030642
-2.076333 2.582439 0.031473
-2.056776 2.573479 0.032397
-2.037634 2.565342 0.033310
-2.022556 2.569000 0.034064
-2.006254 2.568926 0.034873
-1.989146 2.566241 0.035721
-1.973174 2.566919 0.036530
-1.951009 2.547743 0.037592
-1.935034 2.547908 0.038413
-1.919624 2.549841 0.039218
-1.904004 2.551039 0.040038
-1.884957 2.540491 0.040999
-1.868962 2.540080 0.041847
-1.858158 2.557912 0.042501
-1.861560 2.627402 0.042622
-1.903408 2.840200 0.041302
-1.890977 2.858348 0.042070
-1.871706 2.851106 0.043103
-1.855996 2.857317 0.044012
-1.835880 2.846295 0.045091
-1.778443 2.895765 0.048657
-1.735980 2.861922 0.050966
-1.719000 2.863277 0.051985
-1.701020 2.859965 0.053043
-1.683245 2.857432 0.054100
-1.666117 2.857921 0.055143
-1.647060 2.848654 0.056250
-1.629231 2.845206 0.057323
-1.611418 2.841597 0.058399
-1.593304 2.836061 0.059487
-1.576433 2.837094 0.060543
-1.558552 2.832242 0.061628
-1.540907 2.828361 0.062706
-1.523665 2.826530 0.063775
-1.506891 2.827315 0.064832
-1.490404 2.829752 0.065881
-1.473830 2.831448 0.066930
-1.455428 2.820194 0.068008
-1.438554 2.818674 0.069049
-1.421622 2.816067 0.070082
-1.403786 2.805668 0.071115
-1.387608 2.807013 0.072112
-1.371970 2.812098 0.073090
-1.355922 2.813047 0.074057
-1.339074 2.805678 0.075008
-1.323599 2.809303 0.075930
-1.309590 2.826199 0.076827
-1.292952 2.815793 0.077700
-1.276232 2.801529 0.078537
-1.260307 2.792671 0.079339
-1.245572 2.794672 0.080113
-1.230169 2.785732 0.080840
-1.215300 2.779857 0.081530
-3.932769 0.858605 -0.032407
-3.908448 0.861768 -0.031662
-3.918134 0.882177 -0.032201
-3.918210 0.898098 -0.032414
-3.907862 0.908947 -0.032268
-3.885983 0.913965 -0.031717
-3.887799 0.931510 -0.032072
-3.887687 0.948320 -0.032378
-3.892387 0.967982 -0.032887
-3.901376 0.990282 -0.033579
-3.903478 1.009134 -0.034032
-3.900150 1.025212 -0.034297
-3.893667 1.039685 -0.034457
-3.888586 1.055074 -0.034683
-3.882634 1.070086 -0.034886
-3.878810 1.086438 -0.035180
-3.874051 1.102358 -0.035446
-3.872006 1.119986 -0.035823
-3.870800 1.138241 -0.036239
-3.866042 1.154460 -0.036520
-3.859687 1.169768 -0.036741
-3.854196 1.185653 -0.036997
-3.851765 1.203508 -0.037374
-3.848753 1.221076 -0.037727
-3.846767 1.239373 -0.038121
-3.850492 1.261452 -0.038742
-3.851525 1.281924 -0.039254
-3.850506 1.301156 -0.039681
-3.846838 1.318703 -0.039998
-3.842513 1.335857 -0.040284
-3.834122 1.350274 -0.040399
-3.831587 1.368712 -0.040747
-3.831023 1.388588 -0.041172
-3.830163 1.408348 -0.041580
-3.837264 1.433859 -0.042313
-3.844631 1.459766 -0.043054
-3.842065 1.478677 -0.043377
-3.834490 1.493989 -0.043484
-3.821118 1.505010 -0.043340
-3.893116 1.579745 -0.046792
-3.856343 1.703969 -0.047998
-3.777041 1.662138 -0.044934
-3.726366 1.642560 -0.043089
-3.659311 1.608857 -0.040512
-3.618634 1.596161 -0.039067
-3.598682 1.600345 -0.038515
-3.592386 1.615917 -0.038555
-3.591445 1.636112 -0.038824
-3.585639 1.652247 -0.038874
-3.581551 1.669939 -0.038994
-3.581420 1.691198 -0.039285
-3.581607 1.712902 -0.039586
-3.581834 1.734809 -0.039885
-3.571339 1.747204 -0.039701
-3.584997 1.781625 -0.040594
-3.575489 1.795132 -0.040445
-3.580112 1.821789 -0.040927
-3.580450 1.844695 -0.041213
-3.578690 1.865815 -0.041402
-3.577097 1.887262 -0.041594
-3.574747 1.908151 -0.041749
-3.594728 1.950931 -0.042917
-3.588517 1.968565 -0.042891
-3.572198 1.976285 -0.042399
-3.572410 2.000462 -0.042659
-3.568039 2.020243 -0.042706
-3.570577 2.047211 -0.043068
-3.568542 2.069761 -0.043217
-3.566853 2.092873 -0.043380
-3.564298 2.115289 -0.043501
-3.541115 2.116102 -0.042662
-3.550077 2.151013 -0.043311
-3.550973 2.177676 -0.043585
-3.548561 2.201026 -0.043704
-3.543671 2.221881 -0.043704
-3.522618 2.225017 -0.042945
-3.526950 2.256372 -0.043373
-3.524125 2.280029 -0.043465
-3.517485 2.299576 -0.043374
-3.509552 2.317794 -0.043221
-3.504989 2.340054 -0.043226
-3.505377 2.368323 -0.043463
-3.507233 2.398650 -0.043770
-3.502926 2.421987 -0.043783
-3.492357 2.438011 -0.043498
-3.483387 2.456074 -0.043286
-3.481093 2.482467 -0.043392
-3.480077 2.510736 -0.043559
-3.480438 2.541057 -0.043792
-3.471537 2.560048 -0.043579
-3.461172 2.577324 -0.043295
-3.463949 2.611643 -0.043644
-3.465142 2.644353 -0.043917
-3.460241 2.669481 -0.043895
-3.456951 2.697019 -0.043952
-3.441644 2.708791 -0.043424
-3.428038 2.722875 -0.042978
-3.404173 2.723016 -0.042029
-3.383687 2.727598 -0.041243
-3.369833 2.741285 -0.040778
-3.350957 2.747966 -0.040065
-3.335653 2.759634 -0.039526
-3.291068 2.729333 -0.037544
-3.265609 2.725908 -0.036498
-3.249416 2.735752 -0.035906
-3.228605 2.738757 -0.035083
-3.205715 2.738506 -0.034155
-3.171730 2.721308 -0.032673
-3.149242 2.721057 -0.031758
-3.129234 2.724404 -0.030964
-3.107799 2.725390 -0.030095
-3.082285 2.719779 -0.029020
-3.058860 2.717156 -0.028046
-3.031004 2.707162 -0.026846
-3.013687 2.713823 -0.026172
-2.998270 2.723527 -0.025592
-2.973227 2.717300 -0.024523
-2.946508 2.707932 -0.023367
-2.925134 2.707186 -0.022477
-2.902256 2.703650 -0.021507
-2.878760 2.698761 -0.020503
-2.864417 2.709532 -0.019961
-2.825984 2.677842 -0.018187
-2.816235 2.696400 -0.017875
-2.802852 2.708611 -0.017375
-2.783264 2.709577 -0.016554
-2.742533 2.671401 -0.014641
-2.730745 2.686099 -0.014214
-2.705960 2.676437 -0.013113
-2.681084 2.666183 -0.012003
-2.663385 2.669326 -0.011261
-2.639809 2.660887 -0.010210
-2.622962 2.665325 -0.009505
-2.593460 2.644428 -0.008136
-2.577693 2.650561 -0.007479
-2.560220 2.653165 -0.006730
-2.539696 2.649334 -0.005817
-2.519162 2.645197 -0.004900
-2.502918 2.649847 -0.004204
-2.482439 2.645352 -0.003280
-2.460517 2.637434 -0.002276
-2.439413 2.630928 -0.001309
-2.421013 2.630083 -0.000482
-2.401711 2.627004 0.000398
-2.381258 2.621045 0.001344
-2.359690 2.612188 0.002355
-2.337586 2.601674 0.003400
-2.319455 2.600109 0.004237
-2.301317 2.598313 0.005080
-2.281092 2.591235 0.006040
-2.261844 2.586201 0.006954
-2.244718 2.586155 0.007758
-2.229032 2.589577 0.008489
-2.211638 2.588561 0.009318
-2.191645 2.580615 0.010293
-2.172063 2.573372 0.011252
-2.155992 2.575135 0.012025
-2.138112 2.571905 0.012903
-2.121339 2.571471 0.013726
-2.105563 2.573657 0.014501
-2.092541 2.583540 0.015130
-2.076490 2.584898 0.015931
-2.054018 2.567482 0.017090
-2.035538 2.561196 0.018037
-2.019947 2.563248 0.018831
-2.004865 2.566791 0.019604
-1.988979 2.567839 0.020427
-1.972571 2.567163 0.021285
-1.954088 2.559729 0.022264
-1.935167 2.550518 0.023274
-1.921600 2.558570 0.023996
-1.902487 2.548179 0.025030
-1.883800 2.538793 0.026047
-1.867967 2.538903 0.026914
-1.853958 2.545382 0.027686
-1.862674 2.633817 0.027209
-1.911603 2.872838 0.024515
-1.888228 2.850726 0.025828
-1.869834 2.846653 0.026873
-1.854039 2.852437 0.027781
-1.837423 2.855143 0.028743
-1.817672 2.845253 0.029886
-1.806145 2.868771 0.030583
-1.792471 2.884198 0.031406
-1.733994 2.856049 0.034877
-1.717520 2.859579 0.035883
-1.700270 2.859588 0.036937
-1.682335 2.856269 0.038035
-1.663516 2.848389 0.039187
-1.645279 2.843006 0.040312
-1.627410 2.839196 0.041423
-1.609418 2.834466 0.042545
-1.592638 2.836026 0.043606
-1.575215 2.833959 0.044705
-1.558701 2.836915 0.045759
-1.540305 2.828716 0.046914
-1.522924 2.826061 0.048016
-1.506399 2.828429 0.049076
-1.489502 2.828272 0.050153
-1.472197 2.825047 0.051250
-1.455372 2.824570 0.052320
-1.438747 2.825054 0.053376
-1.420845 2.815528 0.054489
-1.402999 2.805099 0.055591
-1.386282 2.802198 0.056628
-1.370982 2.810048 0.057588
-1.355546 2.816366 0.058544
-1.339145 2.813335 0.059532
-1.323716 2.817918 0.060460
-1.308236 2.820894 0.061373
-1.292740 2.822263 0.062269
-1.275135 2.798921 0.063237
-1.259814 2.797074 0.064082
-1.244126 2.788184 0.064918
-1.228735 2.779332 0.065715
-1.212259 2.751909 0.066531
-3.857509 0.821153 -0.043983
-3.906843 0.860772 -0.046255
-3.914470 0.880163 -0.046815
-3.911324 0.894451 -0.046950
-3.901991 0.905818 -0.046852
-3.906860 0.924782 -0.047377
-3.898477 0.937097 -0.047366
-3.893229 0.951260 -0.047510
-3.900685 0.972464 -0.048216
-3.905735 0.992694 -0.048841
-3.903826 1.009387 -0.049188
-3.901150 1.025852 -0.049517
-3.896066 1.041138 -0.049758
-3.888209 1.054982 -0.049890
-3.876031 1.066426 -0.049843
-3.872225 1.082762 -0.050169
-3.869160 1.099651 -0.050535
-3.868526 1.118100 -0.051015
-3.868244 1.136900 -0.051516
-3.864720 1.153863 -0.051878
-3.857670 1.168745 -0.052086
-3.849895 1.183208 -0.052262
-3.848968 1.201985 -0.052745
-3.848513 1.221165 -0.053250
-3.852388 1.243226 -0.053951
-3.854248 1.264141 -0.054562
-3.849973 1.281168 -0.054891
-3.846724 1.298917 -0.055265
-3.842592 1.316132 -0.055595
-3.835458 1.331361 -0.055782
-3.833357 1.350026 -0.056196
-3.834933 1.371299 -0.056779
-3.836381 1.392604 -0.057351
-3.840050 1.415593 -0.058025
-3.839080 1.435438 -0.058478
-3.846246 1.461217 -0.059310
-3.842927 1.479596 -0.059644
-3.836626 1.495850 -0.059829
-3.820735 1.505023 -0.059550
-3.812017 1.519437 -0.059605
-3.866082 1.581222 -0.062673
-3.850766 1.591044 -0.062404
-3.793323 1.653885 -0.061860
-3.790688 1.673474 -0.062163
-3.756440 1.667389 -0.060900
-3.639216 1.592628 -0.055515
-3.611725 1.590728 -0.054547
-3.602764 1.604077 -0.054490
-3.598285 1.621223 -0.054651
-3.592887 1.637661 -0.054761
-3.586397 1.653220 -0.054811
-3.586435 1.674514 -0.055185
-3.584241 1.694005 -0.055443
-3.584736 1.716010 -0.055833
-3.576134 1.730044 -0.055759
-3.589593 1.764042 -0.056803
-3.578827 1.776346 -0.056611
-3.581402 1.800930 -0.057097
-3.587461 1.828978 -0.057760
-3.586074 1.850337 -0.058039
-3.559475 1.848002 -0.057014
-3.579010 1.889470 -0.058367
-3.566912 1.900985 -0.058083
-3.593387 1.950025 -0.059799
-3.587970 1.968432 -0.059858
-3.579368 1.983803 -0.059748
-3.554794 1.983259 -0.058797
-3.583836 2.036619 -0.060654
-3.580591 2.057853 -0.060818
-3.573649 2.075461 -0.060786
-3.568532 2.095072 -0.060846
-3.543452 2.093918 -0.059847
-3.535971 2.111136 -0.059776
-3.553295 2.154932 -0.061024
-3.553941 2.181370 -0.061385
-3.552795 2.206138 -0.061651
-3.551935 2.231470 -0.061931
-3.544791 2.250103 -0.061874
-3.536217 2.267274 -0.061737
-3.528576 2.285607 -0.061649
-3.519009 2.301879 -0.061455
-3.513727 2.323174 -0.061492
-3.511333 2.348010 -0.061686
-3.507779 2.371744 -0.061816
-3.504151 2.395631 -0.061942
-3.499361 2.418372 -0.062005
-3.490191 2.436055 -0.061827
-3.483752 2.457186 -0.061798
-3.480625 2.482578 -0.061952
-3.482233 2.514111 -0.062369
-3.480453 2.541798 -0.062599
-3.474150 2.564088 -0.062579
-3.472316 2.592295 -0.062809
-3.462927 2.611101 -0.062618
-3.465720 2.645899 -0.063108
-3.464705 2.676157 -0.063388
-3.449965 2.688591 -0.062898
-3.455016 2.727545 -0.063521
-3.431483 2.728400 -0.062533
-3.407472 2.728402 -0.061515
-3.384702 2.729896 -0.060562
-3.367163 2.738484 -0.059904
-3.351852 2.750159 -0.059370
-3.329085 2.751259 -0.058409
-3.299201 2.741958 -0.057035
-3.266952 2.728827 -0.055520
-3.247424 2.733830 -0.054732
-3.232553 2.745601 -0.054210
-3.201124 2.732677 -0.052727
-3.172678 2.723776 -0.051412
-3.147902 2.720068 -0.050304
-3.126844 2.721797 -0.049410
-3.103160 2.719264 -0.048358
-3.083753 2.723188 -0.047553
-3.054148 2.710794 -0.046145
-3.031643 2.709319 -0.045150
-3.014569 2.716403 -0.044472
-2.997178 2.722910 -0.043774
-2.975499 2.722248 -0.042818
-2.951441 2.717385 -0.041716
-2.928301 2.713759 -0.040664
-2.904553 2.708809 -0.039571
-2.881552 2.704835 -0.038519
-2.841041 2.670006 -0.036405
-2.838758 2.701662 -0.036594
-2.823210 2.710147 -0.035981
-2.801318 2.707173 -0.034979
-2.783068 2.710571 -0.034195
-2.771099 2.725415 -0.033792
-2.726501 2.679567 -0.031384
-2.722414 2.708847 -0.031459
-2.697868 2.699585 -0.030271
-2.664096 2.672124 -0.028505
-2.644629 2.671731 -0.027619
-2.617964 2.656930 -0.026279
-2.599370 2.657696 -0.025438
-2.579358 2.655420 -0.024503
-2.558545 2.651261 -0.023513
-2.537644 2.646629 -0.022512
-2.521297 2.651217 -0.021794
-2.501138 2.647658 -0.020830
-2.482550 2.647185 -0.019961
-2.461852 2.641939 -0.018952
-2.440656 2.635286 -0.017906
-2.419036 2.627338 -0.016826
-2.400678 2.626347 -0.015950
-2.380848 2.621798 -0.014974
-2.359717 2.613952 -0.013907
-2.336190 2.600132 -0.012677
-2.315953 2.593563 -0.011655
-2.299161 2.594904 -0.010852
-2.281749 2.594605 -0.010004
-2.260782 2.585384 -0.008915
-2.244067 2.586347 -0.008102
-2.228044 2.588923 -0.007329
-2.209723 2.585519 -0.006397
-2.190380 2.579209 -0.005390
-2.170825 2.572010 -0.004363
-2.152240 2.567044 -0.003394
-2.135564 2.566953 -0.002547
-2.121226 2.573128 -0.001854
-2.105698 2.576023 -0.001074
-2.091477 2.582553 -0.000378
-2.073642 2.578774 0.000571
-2.052554 2.565279 0.001751
-2.035192 2.562252 0.002682
-2.018957 2.562384 0.003541
-2.003839 2.565800 0.004329
-1.987221 2.564559 0.005228
-1.970799 2.563779 0.006120
-1.954682 2.563837 0.006997
-1.939842 2.567935 0.007790
-1.922514 2.563852 0.008765
-1.903800 2.554876 0.009847
-1.884799 2.544514 0.010958
-1.867928 2.541108 0.011924
-1.856254 2.555882 0.012522
-1.909265 2.866954 0.008184
-1.887736 2.851597 0.009494
-1.873509 2.863399 0.010279
-1.853942 2.854855 0.011462
-1.836416 2.853998 0.012502
-1.797113 2.906734 0.014678
-1.767813 2.856099 0.016627
-1.733460 2.856791 0.018735
-1.714980 2.851112 0.019897
-1.699589 2.859655 0.020832
-1.680912 2.852756 0.022023
-1.662959 2.849041 0.023165
-1.644813 2.844124 0.024328
-1.626898 2.840095 0.025480
-1.609561 2.838872 0.026591
-1.592944 2.841440 0.027651
-1.576774 2.846571 0.028680
-1.557199 2.832209 0.029980
-1.539646 2.828889 0.031124
-1.522374 2.826920 0.032249
-1.506091 2.830873 0.033296
-1.489230 2.831059 0.034390
-1.471878 2.827645 0.035524
-1.454901 2.826250 0.036627
-1.437476 2.821085 0.037765
-1.420430 2.817864 0.038871
-1.402993 2.810750 0.040005
-1.386038 2.806247 0.041096
-1.369367 2.802914 0.042159
-1.353533 2.805626 0.043142
-1.337876 2.809031 0.044103
-1.322065 2.809973 0.045067
-1.306808 2.815003 0.045973
-1.290666 2.809606 0.046947
-1.275385 2.811124 0.047832
-1.259433 2.802931 0.048770
-1.243656 2.793530 0.049681
-1.227564 2.776345 0.050616
-1.211771 2.758175 0.051516
-3.900543 0.842206 -0.060353
-3.913658 0.863975 -0.061236
-3.911645 0.878565 -0.061440
-3.903343 0.890236 -0.061374
-3.904436 0.906966 -0.061777
-3.905573 0.924025 -0.062206
-3.900147 0.937920 -0.062349
-3.895922 0.952663 -0.062570
-3.895417 0.969619 -0.062989
-3.895786 0.987290 -0.063469
-3.886970 1.000141 -0.063525
-3.896440 1.023287 -0.064477
-3.896685 1.041565 -0.065001
-3.888146 1.055043 -0.065112
-3.874470 1.065639 -0.064981
-3.869728 1.081437 -0.065293
-3.871610 1.101234 -0.065937
-3.870091 1.119186 -0.066422
-3.869181 1.137630 -0.066943
-3.869232 1.156785 -0.067516
-3.862088 1.171648 -0.067735
-3.855581 1.186936 -0.067985
-3.850724 1.203292 -0.068319
-3.852433 1.223864 -0.068983
-3.853397 1.244091 -0.069612
-3.852937 1.263515 -0.070168
-3.846660 1.279226 -0.070425
-3.843936 1.297305 -0.070862
-3.838532 1.313654 -0.071158
-3.841678 1.335807 -0.071891
-3.840467 1.355128 -0.072398
-3.843517 1.377471 -0.073123
-3.840872 1.395987 -0.073549
-3.844179 1.418757 -0.074283
-3.842666 1.438248 -0.074760
-3.839272 1.456470 -0.075135
-3.842091 1.479255 -0.075834
-3.832834 1.493339 -0.075887
-3.822705 1.506751 -0.075887
-3.821877 1.527079 -0.076378
-3.873927 1.608980 -0.080248
-3.811519 1.647010 -0.078943
-3.789876 1.651420 -0.078262
-3.776097 1.661986 -0.078003
-3.703738 1.624716 -0.074498
-3.663614 1.612996 -0.072753
-3.599036 1.580472 -0.069630
-3.594538 1.597468 -0.069834
-3.594797 1.618564 -0.070300
-3.588051 1.633825 -0.070370
-3.585287 1.652564 -0.070660
-3.583654 1.672399 -0.071010
-3.585578 1.695492 -0.071559
-3.577252 1.709687 -0.071524
-3.580128 1.733942 -0.072123
-3.576382 1.752430 -0.072342
-3.585062 1.782367 -0.073271
-3.585741 1.805264 -0.073741
-3.585764 1.827749 -0.074173
-3.576628 1.841831 -0.074073
-3.592401 1.879528 -0.075413
-3.568154 1.879465 -0.074432
-3.567462 1.901888 -0.074815
-3.575476 1.932979 -0.075705
-3.578594 1.959616 -0.076310
-3.572813 1.977705 -0.076394
-3.579005 2.007889 -0.077180
-3.584477 2.037687 -0.077926
-3.579650 2.057323 -0.078064
-3.572333 2.074545 -0.078052
-3.566659 2.093575 -0.078136
-3.559598 2.111289 -0.078135
-3.547303 2.123583 -0.077820
-3.543855 2.145335 -0.078033
-3.547969 2.175426 -0.078700
-3.548196 2.201639 -0.079136
-3.546041 2.225516 -0.079428
-3.548067 2.254257 -0.079975
-3.541237 2.273424 -0.079985
-3.528582 2.286163 -0.079639
-3.511994 2.294450 -0.079049
-3.514477 2.324611 -0.079627
-3.511800 2.349140 -0.079889
-3.510564 2.375611 -0.080242
-3.503174 2.395094 -0.080216
-3.498365 2.417816 -0.080350
-3.493536 2.440734 -0.080484
-3.489963 2.465407 -0.080697
-3.486511 2.490486 -0.080919
-3.483211 2.516023 -0.081153
-3.483119 2.545853 -0.081590
-3.474913 2.565786 -0.081519
-3.472691 2.593526 -0.081826
-3.476427 2.629265 -0.082515
-3.464597 2.645231 -0.082218
-3.448723 2.655980 -0.081663
-3.456840 2.698538 -0.082640
-3.445781 2.716031 -0.082395
-3.429562 2.726671 -0.081817
-3.403732 2.724177 -0.080617
-3.382555 2.727833 -0.079712
-3.365072 2.736488 -0.079044
-3.344950 2.741385 -0.078202
-3.323139 2.743763 -0.077246
-3.302221 2.747252 -0.076344
-3.267155 2.730095 -0.074509
-3.243346 2.728853 -0.073407
-3.224378 2.734527 -0.072621
-3.202495 2.735748 -0.071638
-3.172685 2.724823 -0.070123
-3.147739 2.720873 -0.068926
-3.120274 2.712752 -0.067554
-3.100365 2.716004 -0.066684
-3.079403 2.717456 -0.065739
-3.056838 2.716183 -0.064682
-3.033665 2.713697 -0.063579
-3.012497 2.714200 -0.062607
-2.995610 2.721516 -0.061924
-2.975438 2.723340 -0.061013
-2.954132 2.723095 -0.060021
-2.928395 2.715142 -0.058717
-2.907999 2.715941 -0.057778
-2.870517 2.687033 -0.055646
-2.852739 2.691695 -0.054876
-2.835068 2.696445 -0.054111
-2.819012 2.703974 -0.053456
-2.796550 2.699908 -0.052346
-2.778052 2.702777 -0.051512
-2.760218 2.706729 -0.050721
-2.722304 2.673119 -0.048494
-2.709679 2.686243 -0.048064
-2.696423 2.698259 -0.047586
-2.663198 2.671830 -0.045668
-2.642468 2.668972 -0.044642
-2.618175 2.658817 -0.043351
-2.596896 2.654247 -0.042272
-2.581761 2.661784 -0.041636
-2.558378 2.652449 -0.040392
-2.539043 2.651068 -0.039439
-2.518100 2.646097 -0.038360
-2.498593 2.643856 -0.037383
-2.481871 2.647339 -0.036607
-2.464479 2.649265 -0.035777
-2.439976 2.635437 -0.034406
-2.414820 2.619632 -0.032977
-2.395477 2.616326 -0.031979
-2.378959 2.619197 -0.031191
-2.357351 2.610213 -0.030007
-2.334379 2.597633 -0.028710
-2.314071 2.590863 -0.027610
-2.296695 2.590769 -0.026731
-2.279172 2.590144 -0.025834
-2.261030 2.587809 -0.024882
-2.244826 2.590080 -0.024077
-2.227489 2.589383 -0.023177
-2.207824 2.582539 -0.022086
-2.190075 2.580323 -0.021139
-2.171276 2.575122 -0.020102
-2.153634 2.572713 -0.019151
-2.136775 2.572202 -0.018256
-2.120931 2.574315 -0.017437
-2.105897 2.578601 -0.016679
-2.087996 2.574765 -0.015681
-2.070725 2.572484 -0.014726
-2.053435 2.569943 -0.013764
-2.036184 2.567305 -0.012797
-2.020166 2.568161 -0.011927
-2.003937 2.568275 -0.011032
-1.986731 2.565244 -0.010048
-1.969678 2.562483 -0.009070
-1.953724 2.563034 -0.008178
-1.939394 2.568774 -0.007421
-1.920744 2.560324 -0.006283
-1.902587 2.553144 -0.005179
-1.887010 2.554444 -0.004293
-1.871349 2.555409 -0.003394
-1.850509 2.537982 -0.002027
-1.893519 2.750034 -0.006362
-1.891176 2.803302 -0.006672
-1.887060 2.851864 -0.006831
-1.872006 2.860514 -0.006001
-1.859149 2.877968 -0.005368
-1.845812 2.894154 -0.004689
-1.738478 2.882592 0.002050
-1.717726 2.867046 0.003478
-1.697135 2.851497 0.004901
-1.679590 2.849838 0.006034
-1.662206 2.848856 0.007158
-1.644578 2.846542 0.008311
-1.627083 2.844747 0.009458
-1.610712 2.848791 0.010495
-1.594517 2.853938 0.011516
-1.575380 2.842747 0.012847
-1.556990 2.835120 0.014108
-1.539365 2.831469 0.015293
-1.522099 2.829632 0.016444
-1.505717 2.833072 0.017501
-1.488771 2.832798 0.018622
-1.471219 2.828134 0.019812
-1.452971 2.817936 0.021084
-1.436279 2.817816 0.022182
-1.419781 2.818628 0.023258
-1.402863 2.815649 0.024382
-1.385507 2.808180 0.025561
-1.368649 2.803461 0.026681
-1.351836 2.797775 0.027796
-1.335562 2.795379 0.028844
-1.320406 2.802097 0.029745
-1.305025 2.805716 0.030670
-1.289629 2.807838 0.031592
-1.274130 2.807103 0.032527
-1.258912 2.807355 0.033421
-1.243034 2.797203 0.034415
-1.227132 2.782886 0.035424
-1.210320 2.751590 0.036596
-3.942594 0.862759 -0.077109
-3.918127 0.865998 -0.076172
-3.912864 0.878998 -0.076255
-3.906646 0.891768 -0.076314
-3.902864 0.906029 -0.076524
-3.898220 0.920091 -0.076713
-3.897017 0.936195 -0.077104
-3.896156 0.952737 -0.077535
-3.890149 0.966753 -0.077714
-3.884195 0.980971 -0.077913
-3.883876 0.998453 -0.078427
-3.881932 1.015243 -0.078871
-3.893952 1.040080 -0.080077
-3.886144 1.053972 -0.080234
-3.873048 1.064907 -0.080115
-3.870519 1.081997 -0.080573
-3.877186 1.104629 -0.081539
-3.874857 1.122148 -0.082024
-3.871715 1.139292 -0.082471
-3.870733 1.157845 -0.083040
-3.870577 1.177023 -0.083659
-3.864302 1.192520 -0.083941
-3.859678 1.209089 -0.084316
