ply
format ascii 1.0
comment ---
element vertex 1730
property float x
property float y
property float z
element face 0
property list uchar uint vertex_indices
end_header
0.441867 0.791899 0.944985
0.453122 0.787922 0.945183
0.460711 0.780270 0.940990
0.474797 0.779019 0.944485
0.483472 0.772432 0.941573
0.499864 0.773250 0.947614
0.509923 0.767942 0.946254
0.527238 0.769418 0.953150
0.536216 0.763051 0.950491
0.543718 0.755377 0.946198
0.555993 0.752088 0.947255
0.573669 0.753605 0.954228
0.582112 0.746858 0.950974
0.593068 0.742382 0.950484
0.604681 0.738508 0.950694
0.612440 0.731376 0.946776
0.623157 0.726851 0.946044
0.638431 0.726194 0.950110
0.648484 0.721215 0.948666
0.656215 0.714430 0.944841
0.664150 0.707948 0.941287
0.678535 0.706767 0.944372
0.699138 0.710553 0.953717
0.709836 0.706523 0.952986
0.714339 0.697803 0.946104
0.722603 0.692191 0.943067
0.737691 0.691934 0.946805
0.758435 0.696008 0.956039
0.773923 0.696151 0.960076
0.771356 0.683021 0.946710
0.786706 0.683344 0.950691
0.802976 0.684421 0.955527
0.810280 0.679123 0.951881
0.814407 0.671753 0.945348
0.823704 0.668272 0.943755
0.839378 0.669432 0.948123
0.847009 0.665090 0.945090
0.875502 0.675333 0.961184
0.901199 0.683617 0.974586
0.905922 0.677643 0.968966
-1.422330 1.261142 0.950710
-1.413758 1.258642 0.951305
-1.405156 1.256474 0.952141
-1.396953 1.256023 0.954440
-1.387620 1.252414 0.953891
-1.377856 1.247798 0.952389
-1.367585 1.241868 0.949653
-1.353959 1.224874 0.937003
-1.346020 1.227482 0.941718
-1.339566 1.235941 0.951607
-1.330944 1.237478 0.955273
-1.319114 1.227898 0.948936
-1.309381 1.226279 0.949653
-1.299904 1.226096 0.951598
-1.291428 1.230318 0.957444
-1.280182 1.224239 0.953975
-1.267998 1.214580 0.947210
-1.255567 1.203929 0.939476
-1.246473 1.207442 0.944460
-1.236934 1.209646 0.948219
-1.225815 1.205326 0.946028
-1.216579 1.209869 0.951814
-1.205981 1.208620 0.952314
-1.194148 1.201656 0.947581
-1.183197 1.199063 0.946771
-1.172915 1.200117 0.949242
-1.160770 1.191576 0.942944
-1.150024 1.190487 0.943398
-1.140244 1.195139 0.949063
-1.129677 1.195693 0.950970
-1.117872 1.188860 0.946109
-1.106593 1.185052 0.943988
-1.095901 1.185043 0.945327
-1.085571 1.187713 0.949110
-1.074495 1.185300 0.948228
-1.063518 1.183527 0.947925
-1.052527 1.181551 0.947429
-1.040442 1.170111 0.938228
-1.031061 1.181764 0.950261
-1.018792 1.167285 0.938249
-1.008113 1.167123 0.939416
-0.997708 1.169909 0.943310
-0.987307 1.173157 0.947643
-0.976724 1.174587 0.950312
-0.964649 1.155787 0.934280
-0.955419 1.176059 0.954405
-0.944039 1.164851 0.945405
-0.933377 1.164221 0.946212
-0.922722 1.163507 0.946956
-0.911999 1.160778 0.945841
-0.901360 1.159360 0.945958
-0.890581 1.152297 0.940836
-0.880187 1.158302 0.947894
-0.869717 1.164093 0.954783
-0.859073 1.159062 0.951598
-0.848484 1.151021 0.945610
-0.837987 1.146938 0.943330
-0.827528 1.144331 0.942444
-0.817121 1.140579 0.940499
-0.806693 1.139853 0.941407
-0.796268 1.139287 0.942484
-0.785853 1.138589 0.943456
-0.775482 1.136954 0.943565
-0.764965 1.138742 0.946918
-0.754689 1.135523 0.945572
-0.744200 1.136428 0.948135
-0.733819 1.135435 0.948925
-0.723882 1.128382 0.944001
-0.713819 1.123963 0.941577
-0.702794 1.131330 0.950345
-0.693142 1.122611 0.943873
-0.683330 1.116532 0.939913
-0.672659 1.119289 0.944371
-0.662009 1.121407 0.948248
-0.651796 1.119458 0.948268
-0.642147 1.113028 0.944025
-0.632083 1.110285 0.943314
-0.622166 1.106608 0.941722
-0.612140 1.103888 0.941060
-0.601467 1.105609 0.944676
-0.591763 1.100847 0.942084
-0.581074 1.102402 0.945582
-0.570766 1.101450 0.946688
-0.560898 1.097938 0.945340
-0.551679 1.090978 0.940672
-0.538564 1.105045 0.956354
-0.531947 1.084722 0.938770
-0.522602 1.079125 0.935440
-0.511154 1.083860 0.942155
-0.499969 1.086951 0.947305
-0.490716 1.081008 0.943679
-0.482320 1.071523 0.936602
-0.471245 1.073865 0.941076
-0.461276 1.071371 0.940844
-0.450898 1.070535 0.942250
-0.441429 1.066052 0.940094
-0.430435 1.067511 0.943786
-0.419780 1.067503 0.946059
-0.409938 1.064422 0.945323
-0.397406 1.070907 0.954044
-0.389026 1.062580 0.948158
-0.380352 1.055509 0.943513
-0.371483 1.049282 0.939704
-0.362146 1.044726 0.937558
-0.351453 1.044538 0.939762
-0.340493 1.045066 0.942701
-0.330056 1.043864 0.943937
-0.320938 1.038682 0.941213
-0.311797 1.033656 0.938649
-0.300551 1.034708 0.942186
-0.289770 1.034303 0.944286
-0.280462 1.029764 0.942247
-0.271431 1.024533 0.939519
-0.261716 1.021187 0.938699
-0.251811 1.018337 0.938392
-0.242490 1.013990 0.936583
-0.233176 1.009666 0.934805
-0.221253 1.011768 0.939566
-0.211491 1.008481 0.938873
-0.202397 1.003613 0.936582
-0.192260 1.001217 0.936822
-0.182997 0.996788 0.934999
-0.172800 0.994490 0.935370
-0.158610 1.000969 0.944770
-0.146342 1.002943 0.949586
-0.137324 0.997789 0.947092
-0.130653 0.987746 0.939559
-0.119913 0.986323 0.940931
-0.113560 0.975886 0.932986
-0.102163 0.975775 0.935748
-0.087894 0.981223 0.944320
-0.075610 0.982525 0.948623
-0.065509 0.979482 0.948427
-0.058998 0.969632 0.941129
-0.049475 0.965555 0.939873
-0.038252 0.964591 0.941901
-0.029640 0.958818 0.938898
-0.021037 0.953070 0.935931
-0.009270 0.952919 0.938885
-0.005101 0.939499 0.927829
0.011429 0.947423 0.939390
0.022560 0.945920 0.941000
0.038647 0.952556 0.951311
0.039982 0.934738 0.935587
0.049503 0.930492 0.934340
0.064838 0.935495 0.943026
0.076251 0.934071 0.944870
0.084708 0.927971 0.941715
0.092781 0.921314 0.937972
0.104167 0.919701 0.939695
0.117930 0.921543 0.945198
0.132082 0.923773 0.951177
0.142084 0.919785 0.950441
0.149465 0.912004 0.945592
0.153323 0.899299 0.935363
0.169436 0.903901 0.944095
0.181090 0.902095 0.945858
0.194493 0.902577 0.950182
0.203719 0.897284 0.948181
0.213294 0.892444 0.946704
0.217469 0.880496 0.937361
0.235027 0.886035 0.947471
0.242370 0.878223 0.942765
0.253316 0.875006 0.943213
0.266325 0.874295 0.946509
0.277362 0.871020 0.946974
0.287157 0.866159 0.945689
0.299316 0.864111 0.947613
0.306758 0.856351 0.943106
0.316921 0.851821 0.942283
0.332048 0.853007 0.948010
0.343272 0.849535 0.948478
0.352182 0.843370 0.945895
0.367593 0.844473 0.951694
0.375515 0.837113 0.947795
0.384302 0.830718 0.945024
0.400424 0.832242 0.951460
0.407702 0.824138 0.946757
0.418731 0.820029 0.946721
0.431262 0.817431 0.948483
0.442106 0.813007 0.948136
0.450396 0.805939 0.944695
0.458605 0.798809 0.941182
0.472697 0.797555 0.944634
0.494491 0.803759 0.957000
0.498687 0.792592 0.948719
0.503796 0.782426 0.941594
0.519915 0.782818 0.947112
0.533780 0.780966 0.949962
0.542832 0.774577 0.947339
0.550234 0.766711 0.942896
0.570537 0.770616 0.952738
0.581556 0.766018 0.952237
0.590017 0.759170 0.948947
0.602019 0.755498 0.949506
0.617530 0.754878 0.953792
0.626511 0.748616 0.951074
0.634624 0.741704 0.947476
0.648493 0.739728 0.949938
0.659976 0.735785 0.949887
0.667098 0.728328 0.945353
0.675893 0.722376 0.942597
0.690118 0.720913 0.945389
0.707781 0.722225 0.951606
0.718614 0.718156 0.950928
0.724479 0.710333 0.945357
0.734030 0.705549 0.943511
0.751620 0.707050 0.949563
0.764923 0.705339 0.951398
0.775662 0.701809 0.950769
0.788860 0.700246 0.952532
0.790163 0.690050 0.943012
0.809144 0.693010 0.950325
0.825263 0.693946 0.954898
0.825994 0.683952 0.945138
0.819754 0.669290 0.929109
0.833284 0.668897 0.931482
0.860760 0.678356 0.946587
0.886649 0.686681 0.960109
0.902544 0.688128 0.964508
0.916965 0.688671 0.967583
0.914823 0.678127 0.955942
-1.433194 1.276264 0.948091
-1.425008 1.274835 0.949638
-1.416778 1.273726 0.951415
-1.407762 1.270611 0.951389
-1.400444 1.273359 0.956444
-1.391694 1.272058 0.957904
-1.381048 1.264990 0.954235
-1.364253 1.237599 0.932594
-1.355461 1.237125 0.934568
-1.348060 1.242002 0.941213
-1.343250 1.256743 0.956543
-1.328033 1.235116 0.939630
-1.318578 1.234335 0.941103
-1.310807 1.240360 0.948563
-1.301310 1.240563 0.950801
-1.289198 1.231086 0.944362
-1.278479 1.227263 0.942888
-1.267819 1.223998 0.941851
-1.256738 1.219301 0.939475
-1.247690 1.223552 0.945047
-1.238564 1.228126 0.950870
-1.228016 1.226963 0.951510
-1.216702 1.222598 0.949227
-1.207111 1.226601 0.954419
-1.194134 1.214572 0.945153
-1.183749 1.215280 0.947303
-1.171927 1.208844 0.942982
-1.161134 1.207841 0.943525
-1.150351 1.207100 0.944276
-1.140421 1.211501 0.949651
-1.129637 1.211331 0.950878
-1.118344 1.208168 0.949379
-1.107178 1.205757 0.948540
-1.096049 1.203549 0.947872
-1.085279 1.203826 0.949448
-1.073963 1.200190 0.947462
-1.063082 1.199673 0.948305
-1.052134 1.198635 0.948671
-1.040251 1.189472 0.941634
-1.030105 1.195135 0.948104
-1.018277 1.185222 0.940373
-1.007576 1.185647 0.942075
-0.996654 1.183671 0.941592
-0.986084 1.185549 0.944640
-0.975393 1.186129 0.946514
-0.965216 1.193938 0.955026
-0.953425 1.178461 0.942203
-0.942987 1.182539 0.947322
-0.932163 1.180140 0.946512
-0.921397 1.178236 0.946169
-0.910861 1.181346 0.950453
-0.900218 1.182323 0.952796
-0.889280 1.172784 0.945459
-0.878591 1.169166 0.943590
-0.868037 1.171354 0.947097
-0.857391 1.165562 0.943247
-0.846838 1.167570 0.946627
-0.836293 1.161595 0.942632
-0.825850 1.153222 0.936421
-0.815410 1.150962 0.935891
-0.804766 1.158815 0.944778
-0.794227 1.159644 0.947165
-0.783875 1.154852 0.944336
-0.773433 1.153570 0.944792
-0.763175 1.148704 0.941921
-0.752791 1.147183 0.942186
-0.742186 1.149517 0.946075
-0.731710 1.149384 0.947680
-0.721698 1.142838 0.943291
-0.711037 1.145352 0.947415
-0.700445 1.146586 0.950362
-0.690408 1.141522 0.947405
-0.681293 1.127646 0.936158
-0.670740 1.129010 0.939273
-0.659825 1.133339 0.945213
-0.649571 1.131471 0.945322
-0.639516 1.128066 0.943995
-0.629529 1.124341 0.942375
-0.619222 1.123176 0.943197
-0.608675 1.123665 0.945607
-0.598818 1.119370 0.943488
-0.588407 1.118851 0.944976
-0.578409 1.115703 0.943975
-0.568290 1.113389 0.943782
-0.558653 1.108367 0.941014
-0.548402 1.106942 0.941698
-0.536636 1.113523 0.950074
-0.526423 1.111578 0.950302
-0.517874 1.101378 0.942608
-0.505804 1.108597 0.951677
-0.498378 1.093634 0.939400
-0.487143 1.096637 0.944448
-0.477332 1.093089 0.943190
-0.467526 1.089599 0.941997
-0.456393 1.091671 0.946209
-0.446412 1.088862 0.945707
-0.437733 1.080962 0.940266
-0.427748 1.078339 0.939962
-0.416261 1.081326 0.945141
-0.405393 1.081793 0.947887
-0.394663 1.081622 0.950031
-0.385302 1.076588 0.947431
-0.377953 1.064848 0.938260
-0.363801 1.076041 0.951603
-0.354153 1.072034 0.950045
-0.347255 1.059372 0.939966
-0.336314 1.059658 0.942650
-0.325696 1.058833 0.944256
-0.316073 1.054967 0.942870
-0.305529 1.053819 0.944188
-0.296289 1.048876 0.941756
-0.285997 1.046951 0.942331
-0.275384 1.045862 0.943755
-0.265475 1.042804 0.943232
-0.254690 1.042053 0.945028
-0.244988 1.038407 0.943945
-0.238147 1.027501 0.935591
-0.227874 1.025441 0.936110
-0.216602 1.025785 0.939066
-0.207645 1.020423 0.936294
-0.199708 1.012715 0.931158
-0.187157 1.015890 0.937029
-0.173590 1.021168 0.945066
-0.164990 1.014978 0.941505
-0.156197 1.009300 0.938469
-0.144451 1.010116 0.942055
-0.135071 1.005723 0.940352
-0.125654 1.001430 0.938762
-0.118817 0.991801 0.931719
-0.109668 0.987077 0.929699
-0.099155 0.985124 0.930539
-0.083903 0.992494 0.941002
-0.070715 0.995499 0.947018
-0.060737 0.992128 0.946484
-0.054536 0.981589 0.938543
-0.041822 0.983383 0.943389
-0.030284 0.982845 0.945849
-0.023897 0.972869 0.938507
-0.012337 0.972293 0.940968
-0.002308 0.968916 0.940532
0.009721 0.968980 0.943721
0.017941 0.962402 0.939970
0.026320 0.956150 0.936569
0.038314 0.955958 0.939569
0.050983 0.956757 0.943651
0.061217 0.953461 0.943439
0.074488 0.954979 0.948358
0.086120 0.953744 0.950397
0.094975 0.948090 0.947760
0.101420 0.938757 0.941208
0.107735 0.929339 0.934563
0.125168 0.936652 0.945869
0.139626 0.939254 0.952188
0.145775 0.929551 0.945300
0.151198 0.918916 0.937401
0.161242 0.914971 0.936743
0.173632 0.914279 0.939641
0.190571 0.919760 0.949302
0.201648 0.916951 0.950000
0.210571 0.911164 0.947475
0.219549 0.905448 0.945050
0.230979 0.902958 0.946191
0.240856 0.898363 0.945051
0.251691 0.894966 0.945264
0.260489 0.888919 0.942577
0.271620 0.885792 0.943154
0.285940 0.886540 0.948081
0.298045 0.884408 0.949858
0.307223 0.878641 0.947611
0.316221 0.872644 0.945130
0.326827 0.868533 0.944793
0.347276 0.875831 0.957365
0.356580 0.869973 0.955156
0.364775 0.862835 0.951519
0.378006 0.861370 0.954352
0.387064 0.855150 0.951809
0.398459 0.851484 0.952208
0.405931 0.843494 0.947680
0.416093 0.838420 0.946515
0.425874 0.832906 0.944866
0.438221 0.830055 0.946320
0.448591 0.825074 0.945338
0.453095 0.814063 0.937344
0.464006 0.809634 0.937022
0.489321 0.819545 0.953544
0.499101 0.813754 0.951707
0.503542 0.802749 0.943718
0.513530 0.797211 0.942165
0.529123 0.797013 0.946955
0.540408 0.792635 0.946796
0.553238 0.789677 0.948334
0.563459 0.784269 0.946935
0.576612 0.781546 0.948747
0.592685 0.781412 0.953682
0.596956 0.770685 0.945787
0.609402 0.767309 0.946747
0.628120 0.769389 0.954333
0.637237 0.763094 0.951674
0.644930 0.755670 0.947559
0.655957 0.751167 0.946957
0.670886 0.749974 0.950374
0.678252 0.742551 0.946016
0.686292 0.735819 0.942410
0.698237 0.732374 0.942790
0.712724 0.731036 0.945711
0.728820 0.731013 0.950194
0.735040 0.723295 0.944914
0.751794 0.723926 0.950017
0.768185 0.724312 0.954715
0.770871 0.714345 0.946181
0.779424 0.709045 0.943403
0.791600 0.706619 0.944134
0.799145 0.700902 0.940524
0.821821 0.706441 0.951164
0.834378 0.704643 0.952289
0.849301 0.704678 0.955627
0.850762 0.695234 0.946613
0.837578 0.675722 0.924415
0.862518 0.683340 0.937073
0.886874 0.690545 0.949089
0.908297 0.695735 0.958380
0.908816 0.686679 0.949035
0.930640 0.692336 0.958666
-1.440520 1.303952 0.958968
-1.429961 1.295726 0.954620
-1.419394 1.287758 0.950426
-1.411007 1.286979 0.952398
-1.400632 1.280316 0.949208
-1.392893 1.282578 0.953716
-1.384588 1.283577 0.957078
-1.370829 1.266778 0.944847
-1.359330 1.257701 0.939270
-1.351094 1.260222 0.943772
-1.342494 1.262087 0.947649
-1.331140 1.254603 0.943262
-1.317694 1.239653 0.932235
-1.311025 1.250135 0.943514
-1.301602 1.250999 0.946280
-1.289206 1.240748 0.939178
-1.278008 1.235350 0.936292
-1.268539 1.237297 0.939842
-1.259268 1.240648 0.944588
-1.249394 1.242028 0.947545
-1.239310 1.242996 0.950092
-1.229063 1.243701 0.952362
-1.217978 1.240930 0.951499
-1.206383 1.235934 0.948610
-1.195171 1.232895 0.947421
-1.184839 1.234495 0.950334
-1.173455 1.230958 0.948631
-1.161435 1.224010 0.943845
-1.151361 1.227810 0.948643
-1.140866 1.229665 0.951684
-1.129270 1.225189 0.949034
-1.117852 1.221677 0.947228
-1.106896 1.221068 0.948011
-1.096502 1.224402 0.952328
-1.084867 1.219272 0.949029
-1.073784 1.217889 0.949091
-1.062318 1.213434 0.946382
-1.051882 1.217096 0.950985
-1.040428 1.212316 0.947978
-1.028218 1.200007 0.938165
-1.018563 1.211241 0.949624
-1.007773 1.212078 0.951701
-0.995840 1.200202 0.942273
-0.984802 1.197267 0.940943
-0.974279 1.200490 0.945206
-0.962686 1.189034 0.936157
-0.952464 1.196609 0.944400
-0.941721 1.196728 0.945886
-0.931146 1.200038 0.950295
-0.920414 1.200642 0.952258
-0.909277 1.190880 0.944785
-0.898710 1.194673 0.949687
-0.888098 1.198392 0.954546
-0.877115 1.185681 0.944401
-0.866422 1.182212 0.942716
-0.855780 1.179216 0.941476
-0.845191 1.186725 0.949886
-0.834548 1.186633 0.951351
-0.824104 1.169106 0.936808
-0.813578 1.168790 0.938089
-0.802911 1.174498 0.944939
-0.792226 1.178405 0.950159
-0.781689 1.176798 0.950317
-0.771262 1.173021 0.948488
-0.761227 1.162105 0.940068
-0.750746 1.161638 0.941322
-0.740145 1.163130 0.944412
-0.729983 1.157751 0.941148
-0.719460 1.158063 0.943182
-0.708703 1.161102 0.947773
-0.697951 1.163533 0.951825
-0.687655 1.160612 0.950913
-0.678069 1.150786 0.943569
-0.667779 1.148681 0.943439
-0.657263 1.148707 0.945320
-0.646786 1.148268 0.946785
-0.636603 1.145396 0.945986
-0.625854 1.146988 0.949394
-0.616456 1.138476 0.943325
-0.606549 1.134127 0.941174
-0.596018 1.134175 0.943179
-0.585391 1.134697 0.945650
-0.575250 1.132073 0.945169
-0.565516 1.127115 0.942493
-0.555528 1.123835 0.941415
-0.542439 1.137660 0.956575
-0.534339 1.123989 0.945670
-0.524572 1.119631 0.943608
-0.513842 1.120198 0.946246
-0.501940 1.126221 0.954109
-0.491588 1.124537 0.954646
-0.481748 1.120514 0.952961
-0.472968 1.111947 0.946932
-0.463171 1.108068 0.945396
-0.452605 1.107457 0.947009
-0.441931 1.107192 0.948973
-0.432748 1.100956 0.945203
-0.422927 1.097356 0.943978
-0.414794 1.087512 0.936731
-0.404557 1.085686 0.937233
-0.391882 1.092485 0.946106
-0.382266 1.088227 0.944290
-0.374493 1.077794 0.936479
-0.363797 1.077395 0.938424
-0.352517 1.078787 0.942134
-0.342008 1.077549 0.943300
-0.329387 1.082796 0.950824
-0.319887 1.078225 0.948769
-0.310272 1.074060 0.947120
-0.301212 1.068329 0.943940
-0.292085 1.062897 0.941058
-0.282525 1.058772 0.939467
-0.267567 1.069509 0.952555
-0.260197 1.059278 0.944968
-0.250020 1.056733 0.944981
-0.238249 1.058296 0.949083
-0.228469 1.054615 0.948002
-0.220751 1.045791 0.941813
-0.211142 1.041806 0.940442
-0.203940 1.032032 0.933300
-0.193792 1.029469 0.933360
-0.178955 1.037809 0.944360
-0.170556 1.030994 0.940201
-0.161885 1.024899 0.936768
-0.150001 1.026012 0.940598
-0.142838 1.016673 0.933910
-0.132739 1.013819 0.933771
-0.121136 1.014115 0.936836
-0.108199 1.017057 0.942614
-0.088037 1.034579 0.963247
-0.093378 1.000047 0.930973
-0.080311 1.002978 0.936811
-0.068480 1.003288 0.940011
-0.059374 0.998220 0.937734
-0.048562 0.996421 0.938822
-0.037157 0.995661 0.941000
-0.018312 1.008509 0.957218
-0.011163 0.999630 0.951103
-0.002927 0.992828 0.947131
0.005304 0.986085 0.943225
0.014482 0.981056 0.941104
0.023776 0.976240 0.939217
0.032650 0.970723 0.936615
0.042883 0.967500 0.936421
0.054971 0.967291 0.939402
0.070448 0.972464 0.948063
0.081587 0.970423 0.949204
0.091565 0.966470 0.948362
0.099523 0.959342 0.944190
0.105522 0.949253 0.936895
0.115328 0.945080 0.935865
0.130853 0.949456 0.943941
0.144329 0.950555 0.948589
0.154378 0.946483 0.947769
0.160352 0.936500 0.940653
0.166568 0.926978 0.934028
0.185324 0.935191 0.946458
0.196341 0.932313 0.947031
0.206388 0.928035 0.946127
0.217796 0.925563 0.947206
0.228974 0.922703 0.947900
0.239091 0.918366 0.947025
0.248494 0.913058 0.945120
0.258000 0.907865 0.943366
0.268100 0.903407 0.942441
0.278102 0.898785 0.941367
0.286546 0.892188 0.938147
0.305076 0.897975 0.948623
0.316425 0.894766 0.949228
0.325540 0.888804 0.946815
0.336498 0.885010 0.946840
0.351244 0.885580 0.951774
0.363975 0.883653 0.953975
0.372512 0.876826 0.950724
0.380965 0.869908 0.947387
0.398200 0.872785 0.955128
0.405011 0.863955 0.949688
0.415014 0.858648 0.948255
0.423515 0.851693 0.944967
0.433543 0.846369 0.943556
0.445139 0.842662 0.944021
0.455301 0.837397 0.942727
0.460240 0.826743 0.935237
0.479118 0.830324 0.944194
0.496606 0.832283 0.951348
0.505961 0.825991 0.948961
0.512639 0.817079 0.943519
0.523698 0.812476 0.943102
0.537367 0.810342 0.945596
0.554375 0.811286 0.951743
0.563093 0.804331 0.948586
0.572287 0.797856 0.945976
0.582900 0.792711 0.944924
0.596963 0.790696 0.947590
0.617376 0.794303 0.956993
0.624226 0.785755 0.951814
0.634620 0.780411 0.950435
0.644111 0.774334 0.948119
0.652712 0.767566 0.944903
0.666368 0.765168 0.946933
0.678733 0.761699 0.947607
0.687572 0.755357 0.944693
0.698423 0.750776 0.943849
0.711229 0.747864 0.944973
0.719512 0.741391 0.941606
0.731667 0.738133 0.942109
0.750925 0.740541 0.949557
0.770599 0.743257 0.957318
0.773988 0.733433 0.949313
0.783407 0.728450 0.947210
0.790751 0.722059 0.943196
0.800684 0.717797 0.941709
0.816189 0.717820 0.945490
0.820264 0.709543 0.938633
0.841484 0.713976 0.947734
0.856523 0.713976 0.951088
0.862892 0.707889 0.946544
0.868001 0.701124 0.940964
0.869192 0.691836 0.931981
0.892742 0.698394 0.943134
0.885323 0.683568 0.926708
0.911715 0.692278 0.940360
0.932305 0.697032 0.948808
-1.466628 1.364676 0.994920
-1.444949 1.323089 0.962157
-1.432877 1.310570 0.954146
-1.425241 1.312110 0.958127
-1.415262 1.306779 0.956155
-1.404044 1.297831 0.951003
-1.395861 1.299084 0.954578
-1.387473 1.300242 0.958021
-1.376563 1.293459 0.954540
-1.363222 1.278634 0.944014
-1.352782 1.273994 0.942238
-1.343814 1.274983 0.945288
-1.333584 1.271971 0.944802
-1.322995 1.268048 0.943458
-1.315280 1.275377 0.951872
-1.302668 1.264626 0.944444
-1.294471 1.271351 0.952231
-1.283421 1.267367 0.950598
-1.271816 1.261392 0.947158
-1.261170 1.259667 0.947389
-1.251216 1.261310 0.950530
-1.241109 1.262794 0.953489
-1.229009 1.255658 0.948814
-1.217853 1.252955 0.947996
-1.207211 1.252955 0.949522
-1.196362 1.252264 0.950404
-1.184957 1.248989 0.948968
-1.174550 1.251107 0.952272
-1.163950 1.252574 0.954979
-1.153322 1.254235 0.957838
-1.140922 1.245786 0.951707
-1.129144 1.240696 0.948531
-1.117355 1.235307 0.945070
-1.106697 1.237116 0.947994
-1.096000 1.238932 0.950919
-1.084620 1.236075 0.949677
-1.073110 1.232049 0.947384
-1.062823 1.237407 0.953464
-1.051559 1.235187 0.952782
-1.039126 1.222404 0.942653
-1.029377 1.233247 0.953656
-1.016755 1.216864 0.940293
-1.006225 1.220450 0.944818
-0.995677 1.224305 0.949599
-0.983797 1.212372 0.940217
-0.974339 1.230522 0.957870
-0.962207 1.213168 0.943623
-0.951089 1.208387 0.940685
-0.940581 1.213208 0.946407
-0.930045 1.218550 0.952623
-0.919269 1.219822 0.955189
-0.907926 1.206336 0.944437
-0.897353 1.211705 0.950737
-0.886545 1.210269 0.950901
-0.875747 1.208107 0.950423
-0.864938 1.202693 0.947011
-0.854242 1.203700 0.949438
-0.843536 1.204828 0.951998
-0.832883 1.195191 0.944784
-0.822279 1.191407 0.942903
-0.811699 1.188888 0.942187
-0.800999 1.192519 0.947100
-0.790368 1.192360 0.948577
-0.779631 1.195057 0.952686
-0.769064 1.192953 0.952426
-0.758682 1.187585 0.949189
-0.748267 1.183917 0.947523
-0.738063 1.177479 0.943325
-0.728045 1.169389 0.937615
-0.717501 1.169578 0.939530
-0.706344 1.177194 0.948310
-0.695829 1.176243 0.949221
-0.685472 1.173603 0.948592
-0.675502 1.167303 0.944591
-0.665544 1.161500 0.941056
-0.655041 1.161077 0.942517
-0.644372 1.161961 0.945209
-0.633136 1.167167 0.951938
-0.623251 1.161458 0.948545
-0.613126 1.157888 0.947151
-0.604076 1.147045 0.938984
-0.593509 1.147068 0.940958
-0.582578 1.149277 0.944998
-0.572439 1.146333 0.944235
-0.562322 1.143348 0.943448
-0.551205 1.146130 0.948086
-0.539889 1.149669 0.953462
-0.529812 1.146286 0.952351
-0.522183 1.130477 0.939538
-0.511114 1.132579 0.943609
-0.499452 1.137261 0.950143
-0.489204 1.134958 0.950097
-0.479491 1.130245 0.947781
-0.469222 1.128114 0.947922
-0.460146 1.120887 0.943234
-0.449667 1.119744 0.944334
-0.439003 1.119281 0.946099
-0.428499 1.118087 0.947185
-0.419683 1.110363 0.942045
-0.411034 1.102274 0.936554
-0.401474 1.097774 0.934499
-0.391184 1.095960 0.935029
-0.378140 1.103670 0.944729
-0.368882 1.098057 0.941645
-0.359935 1.091546 0.937697
-0.349043 1.091505 0.939997
-0.337679 1.092843 0.943651
-0.326468 1.093526 0.946695
-0.316299 1.090891 0.946541
-0.305900 1.088928 0.947053
-0.295214 1.087765 0.948357
-0.285810 1.082858 0.946029
-0.276566 1.077575 0.943340
-0.267575 1.071679 0.940056
-0.254523 1.076845 0.947608
-0.245773 1.070310 0.943719
-0.235389 1.068145 0.944125
-0.225135 1.065605 0.944177
-0.215129 1.062418 0.943604
-0.207114 1.054328 0.938202
-0.194903 1.056546 0.942993
-0.185513 1.051867 0.940978
-0.177217 1.044673 0.936477
-0.164091 1.048699 0.943128
-0.150140 1.054335 0.951421
-0.141169 1.048608 0.948421
-0.134421 1.038087 0.940636
-0.125912 1.031574 0.936852
-0.110599 1.039550 0.947600
-0.099789 1.037777 0.948609
-0.090758 1.032290 0.945899
-0.081154 1.028012 0.944415
-0.072619 1.021616 0.940803
-0.066407 1.010745 0.932667
-0.054662 1.010754 0.935550
-0.043931 1.008718 0.936384
-0.030889 1.010950 0.941585
-0.015306 1.017688 0.951419
-0.006253 1.012229 0.948848
0.001380 1.004255 0.943712
0.011357 1.000527 0.942932
0.020040 0.994525 0.939832
0.031349 0.993081 0.941436
0.042757 0.991721 0.943154
0.049264 0.982074 0.936332
0.060298 0.980034 0.937387
0.073785 0.981915 0.942541
0.086438 0.982278 0.946161
0.095265 0.976439 0.943353
0.101494 0.966561 0.936339
0.108164 0.957492 0.930167
0.122022 0.959478 0.935595
0.137660 0.963957 0.943696
0.149138 0.962013 0.945089
0.162232 0.962351 0.948926
0.169967 0.954793 0.944450
0.177313 0.946730 0.939447
0.186642 0.941531 0.937495
0.200073 0.942034 0.941644
0.213936 0.942978 0.946316
0.228884 0.945230 0.952441
0.239174 0.941034 0.951706
0.245985 0.932187 0.945990
0.254175 0.925214 0.942304
0.266156 0.923164 0.943958
0.283579 0.927966 0.953086
0.284448 0.911617 0.939297
0.304483 0.919398 0.951777
0.313251 0.912968 0.948825
0.323505 0.908345 0.947873
0.334991 0.905159 0.948532
0.345520 0.900757 0.947890
0.356672 0.897033 0.948031
0.370054 0.895828 0.950998
0.380346 0.890951 0.949941
0.389859 0.885150 0.947883
0.400895 0.881030 0.947727
0.415771 0.881094 0.952295
0.422293 0.871869 0.946485
0.433189 0.867424 0.946063
0.445506 0.864442 0.947325
0.455830 0.859270 0.946142
0.463207 0.850989 0.941449
0.477679 0.850057 0.945138
0.492359 0.849204 0.948969
0.502932 0.844087 0.947952
0.513606 0.839039 0.947032
0.521292 0.831023 0.942698
0.536017 0.829892 0.946330
0.550653 0.828563 0.949769
0.562760 0.824728 0.950317
0.572678 0.818797 0.948420
0.581818 0.812153 0.945675
0.596719 0.810830 0.949174
0.612580 0.810299 0.953621
0.620548 0.802593 0.949576
0.628384 0.794848 0.945436
0.638358 0.789063 0.943580
0.648381 0.783372 0.941788
0.659592 0.778756 0.941234
0.668805 0.772488 0.938635
0.682589 0.770146 0.940708
0.692271 0.764410 0.938614
0.707864 0.763627 0.942459
0.716266 0.756999 0.939117
0.727681 0.752930 0.938796
0.749097 0.756916 0.948263
0.765933 0.757228 0.953161
0.770405 0.747918 0.946102
0.779337 0.742278 0.943428
0.793104 0.740497 0.945406
0.818786 0.747834 0.958610
0.830772 0.744826 0.958844
0.829982 0.732458 0.947237
0.832636 0.722941 0.939006
0.836588 0.714638 0.932116
0.859527 0.720309 0.942643
0.872063 0.718531 0.943667
0.881455 0.714660 0.941899
0.891495 0.711426 0.940780
0.896109 0.704573 0.934912
0.905077 0.700970 0.933006
0.915162 0.698318 0.932154
0.913973 0.688140 0.921555
-1.463663 1.361468 0.978679
-1.444798 1.328453 0.953416
-1.432897 1.316642 0.946036
-1.427658 1.325956 0.956565
-1.421930 1.334518 0.966430
-1.411048 1.327204 0.962708
-1.399865 1.319225 0.958345
-1.390044 1.316096 0.958065
-1.378688 1.308204 0.953635
-1.366208 1.296718 0.946041
-1.354483 1.288037 0.940778
-1.345572 1.289665 0.944322
-1.335564 1.287904 0.944890
-1.326022 1.288347 0.947304
-1.316826 1.290666 0.951286
-1.307559 1.293336 0.955524
-1.297655 1.294113 0.958070
-1.287420 1.294084 0.959867
-1.274558 1.283620 0.952542
-1.262451 1.276327 0.947909
-1.252368 1.277956 0.950988
-1.241675 1.277365 0.952091
-1.231114 1.277754 0.954008
-1.219214 1.272204 0.950697
-1.209608 1.277878 0.957160
-1.197906 1.273688 0.954964
-1.185779 1.267341 0.950841
-1.174926 1.267686 0.952553
-1.164431 1.270294 0.956228
-1.152439 1.264726 0.952703
-1.141345 1.264291 0.953667
-1.129664 1.260380 0.951558
-1.117342 1.252190 0.945660
-1.107674 1.261214 0.954920
-1.095873 1.256232 0.951828
-1.084074 1.250895 0.948411
-1.073084 1.251299 0.950059
-1.061802 1.249442 0.949709
-1.050079 1.243674 0.945895
-1.039471 1.247246 0.950354
-1.029010 1.252626 0.956427
-1.017634 1.249423 0.954899
-1.006146 1.244544 0.951885
-0.994443 1.236413 0.945984
-0.983971 1.242258 0.952518
-0.972995 1.242193 0.953810
-0.961466 1.233869 0.947755
-0.949707 1.220000 0.936754
-0.939152 1.224611 0.942248
-0.928880 1.236012 0.953833
-0.918215 1.241418 0.960091
-0.907120 1.236736 0.957343
-0.895837 1.223739 0.947152
-0.885173 1.229397 0.953693
-0.874326 1.228508 0.954382
-0.863420 1.221336 0.949443
-0.852631 1.218388 0.948310
-0.841879 1.218681 0.950110
-0.831156 1.214456 0.947857
-0.820476 1.211108 0.946407
-0.809810 1.209169 0.946244
-0.799203 1.205828 0.944829
-0.788407 1.209678 0.949937
-0.777542 1.214039 0.955535
-0.766991 1.209965 0.953511
-0.756382 1.207966 0.953382
-0.745893 1.204188 0.951654
-0.735825 1.194355 0.944427
-0.725730 1.186567 0.939064
-0.715063 1.187552 0.941705
-0.704285 1.189622 0.945360
-0.693855 1.187325 0.945046
-0.683656 1.182756 0.942668
-0.672974 1.183440 0.945114
-0.663188 1.175509 0.939677
-0.652865 1.173096 0.939311
-0.641065 1.183190 0.950460
-0.630293 1.183949 0.953057
-0.619899 1.181642 0.952848
-0.610072 1.175311 0.948939
-0.600423 1.168169 0.944285
-0.589775 1.168121 0.946198
-0.580006 1.162350 0.942829
-0.569316 1.162528 0.944983
-0.559680 1.156358 0.941259
-0.549169 1.155461 0.942445
-0.537217 1.162385 0.950930
-0.526599 1.161649 0.952310
-0.517696 1.152071 0.945448
-0.507622 1.148764 0.944445
-0.497151 1.147435 0.945305
-0.486706 1.145938 0.946022
-0.476832 1.141819 0.944294
-0.466440 1.140079 0.944808
-0.457278 1.133063 0.940371
-0.446947 1.131150 0.940744
-0.433246 1.142802 0.953940
-0.424804 1.133060 0.946956
-0.415928 1.125342 0.941881
-0.406253 1.120868 0.939880
-0.397055 1.114748 0.936323
-0.388068 1.108045 0.932212
-0.373054 1.122470 0.948225
-0.364245 1.115045 0.943456
-0.354757 1.110080 0.941035
-0.344086 1.109056 0.942389
-0.333079 1.109018 0.944704
-0.323652 1.103948 0.942210
-0.311006 1.108766 0.949224
-0.299944 1.108542 0.951418
-0.289567 1.106204 0.951594
-0.280460 1.100202 0.948245
-0.270717 1.096099 0.946735
-0.259757 1.095386 0.948516
-0.251607 1.086990 0.942861
-0.240198 1.087426 0.945784
-0.231462 1.080772 0.941827
-0.221183 1.078182 0.941834
-0.211371 1.074395 0.940685
-0.198231 1.078827 0.947585
-0.187864 1.076272 0.947675
-0.180912 1.065556 0.939770
-0.169885 1.064620 0.941467
-0.160042 1.060875 0.940418
-0.146085 1.066445 0.948568
-0.134845 1.065670 0.950492
-0.127202 1.056922 0.944544
-0.117948 1.051810 0.942196
-0.106868 1.050611 0.943743
-0.094439 1.052150 0.948036
-0.085760 1.045815 0.944510
-0.073742 1.046311 0.947810
-0.057701 1.054695 0.959031
-0.050705 1.044947 0.952135
-0.047550 1.027940 0.937941
-0.036388 1.026572 0.939446
-0.024070 1.027295 0.943084
-0.012747 1.026034 0.944750
-0.002981 1.021848 0.943481
0.006698 1.017502 0.942066
0.016817 1.013936 0.941456
0.029704 1.015188 0.945768
0.043586 1.017995 0.951704
0.051349 1.010195 0.946846
0.057289 0.999425 0.938950
0.066937 0.994955 0.937508
0.081893 0.999143 0.944983
0.090158 0.992315 0.941164
0.100279 0.988490 0.940452
0.112135 0.987355 0.942546
0.121962 0.982981 0.941315
0.134051 0.982043 0.943675
0.144982 0.979252 0.944141
0.153744 0.973169 0.941201
0.166372 0.972788 0.944238
0.178186 0.971099 0.945946
0.185571 0.962969 0.940924
0.196483 0.959896 0.941233
0.206447 0.955435 0.940107
0.224940 0.962711 0.951424
0.238975 0.963590 0.956041
0.247613 0.957041 0.952817
0.253051 0.946252 0.945093
0.262092 0.940310 0.942540
0.280722 0.946803 0.953323
0.291346 0.942731 0.952852
0.305403 0.942953 0.957034
0.312841 0.934740 0.952173
0.323405 0.930431 0.951545
0.331518 0.923079 0.947649
0.341047 0.917455 0.945648
0.355318 0.917461 0.949810
0.367621 0.914991 0.951324
0.376753 0.908732 0.948730
0.386771 0.903480 0.947264
0.399002 0.900707 0.948560
0.410362 0.896862 0.948714
0.424376 0.895891 0.952091
0.434646 0.890676 0.950804
0.445106 0.885629 0.949731
0.456978 0.882051 0.950330
0.465473 0.874820 0.946868
0.478479 0.872321 0.948739
0.491897 0.870148 0.951021
0.498554 0.860956 0.945400
0.511177 0.857851 0.946683
0.523140 0.854008 0.947156
0.547257 0.862105 0.961297
0.552947 0.851883 0.954550
0.560019 0.843085 0.949413
0.575888 0.842741 0.954006
0.582940 0.833957 0.948870
0.593277 0.828307 0.947343
0.610154 0.828691 0.952832
0.622554 0.824869 0.953437
0.626240 0.813174 0.944803
0.632646 0.804063 0.939133
0.642994 0.798535 0.937631
0.660713 0.799470 0.943738
0.666087 0.789672 0.937100
0.675312 0.783307 0.934464
0.689587 0.781283 0.936948
0.703507 0.778965 0.939035
0.714252 0.774044 0.937936
0.725090 0.769284 0.936948
0.756506 0.781235 0.956093
0.767878 0.776918 0.955516
0.774606 0.769029 0.950489
0.778723 0.759280 0.943055
0.785102 0.751516 0.937896
0.801129 0.751357 0.941925
0.825080 0.757280 0.953336
0.832868 0.750988 0.949603
0.837665 0.742660 0.943195
0.845313 0.736676 0.939525
0.849288 0.728204 0.932601
0.863602 0.727484 0.935156
0.883136 0.730634 0.942407
0.890638 0.725262 0.938878
0.895271 0.718069 0.932901
0.902783 0.713133 0.929585
0.914382 0.711242 0.929938
0.932214 0.713806 0.935756
0.965513 0.727044 0.954915
-1.455598 1.342907 0.949625
-1.442770 1.328198 0.939906
-1.435353 1.330429 0.944378
-1.432149 1.346541 0.960527
-1.423566 1.346461 0.962982
-1.412661 1.339388 0.959466
-1.401786 1.332751 0.956248
-1.390650 1.325590 0.952515
-1.380639 1.322583 0.952244
-1.367078 1.307718 0.941810
-1.356572 1.303670 0.940513
-1.347052 1.303581 0.942533
-1.337235 1.302946 0.944031
-1.328595 1.307240 0.949693
-1.317843 1.304172 0.948998
-1.308228 1.305945 0.952399
-1.299058 1.310085 0.957786
-1.288582 1.309583 0.959136
-1.276372 1.302282 0.954579
-1.263397 1.291800 0.947218
-1.251743 1.287034 0.944728
-1.242432 1.293011 0.951473
-1.231153 1.290581 0.950916
-1.220706 1.292355 0.953960
-1.210432 1.295428 0.958099
-1.198627 1.291246 0.955919
-1.186679 1.286349 0.953085
-1.175305 1.284500 0.952867
-1.163926 1.282732 0.952697
-1.152820 1.282632 0.953958
-1.140625 1.276172 0.949662
-1.129732 1.277494 0.952130
-1.120012 1.286678 0.961452
-1.108197 1.282578 0.959177
-1.095215 1.269967 0.949451
-1.083776 1.267663 0.948722
-1.072564 1.266944 0.949379
-1.061318 1.265900 0.949750
-1.049772 1.262180 0.947778
-1.039074 1.265713 0.952172
-1.028352 1.269420 0.956731
-1.016862 1.265691 0.954765
-1.005199 1.259512 0.950649
-0.993652 1.253716 0.946871
-0.982573 1.252820 0.947417
-0.971698 1.254474 0.950224
-0.960403 1.250017 0.947651
-0.948491 1.234284 0.935120
-0.937844 1.238151 0.939919
-0.927399 1.247058 0.949203
-0.916571 1.249275 0.952589
-0.905596 1.247909 0.952818
-0.894623 1.245831 0.952429
-0.883820 1.249748 0.957384
-0.872855 1.246644 0.956118
-0.861918 1.242043 0.953533
-0.851033 1.235853 0.949542
-0.840216 1.237203 0.952287
-0.829411 1.235176 0.952038
-0.818674 1.230155 0.949129
-0.807886 1.230718 0.951227
-0.797384 1.220165 0.943388
-0.786686 1.219592 0.944498
-0.775748 1.225306 0.951271
-0.764867 1.228092 0.955444
-0.754201 1.225914 0.955176
-0.743746 1.220418 0.951936
-0.733548 1.211852 0.945935
-0.722961 1.210263 0.946236
-0.712303 1.209759 0.947533
-0.701922 1.205829 0.945750
-0.691890 1.198398 0.940806
-0.681250 1.198234 0.942457
-0.670537 1.198691 0.944690
-0.659919 1.198075 0.945968
-0.649083 1.199326 0.948964
-0.638911 1.194765 0.946686
-0.627986 1.196499 0.950159
-0.616890 1.199235 0.954571
-0.608052 1.185286 0.943749
-0.596705 1.189741 0.949766
-0.586013 1.189354 0.951373
-0.575810 1.185767 0.950061
-0.565932 1.180332 0.947060
-0.556683 1.171484 0.940924
-0.547518 1.162655 0.934804
-0.533661 1.179955 0.952789
-0.523254 1.177739 0.952805
-0.513458 1.172409 0.949952
-0.503919 1.166019 0.946123
-0.492699 1.167946 0.950010
-0.483006 1.162529 0.947099
-0.473195 1.157827 0.944859
-0.462882 1.155468 0.944806
-0.453591 1.148752 0.940702
-0.440917 1.156296 0.949919
-0.429636 1.157687 0.953419
-0.419562 1.154137 0.952313
-0.409576 1.150298 0.950944
-0.403923 1.130332 0.934432
-0.392804 1.131133 0.937423
-0.378047 1.144728 0.952488
-0.370920 1.131030 0.941856
-0.359069 1.133884 0.946846
-0.349598 1.128583 0.944146
-0.338327 1.129237 0.947093
-0.327554 1.128156 0.948414
-0.314836 1.133049 0.955431
-0.304860 1.129263 0.954216
-0.294905 1.125447 0.952983
-0.284882 1.121861 0.951977
-0.275785 1.115640 0.948458
-0.266625 1.109716 0.945227
-0.256366 1.106931 0.945009
-0.243481 1.111233 0.951614
-0.234629 1.104550 0.947679
-0.225075 1.099824 0.945630
-0.215267 1.095797 0.944262
-0.204312 1.094677 0.945715
-0.193184 1.093907 0.947525
-0.184823 1.086331 0.942749
-0.173935 1.084924 0.943967
-0.163913 1.081415 0.943156
-0.154556 1.076374 0.940860
-0.141300 1.080220 0.947255
-0.131911 1.075201 0.945010
-0.121225 1.073068 0.945602
-0.111120 1.069633 0.944930
-0.100318 1.067669 0.945719
-0.089683 1.065298 0.946125
-0.080367 1.060166 0.943822
-0.068884 1.059468 0.945912
-0.055711 1.062047 0.951273
-0.049198 1.051324 0.943465
-0.039010 1.047923 0.942928
-0.029363 1.043471 0.941358
-0.018016 1.042225 0.943002
-0.006077 1.041995 0.945685
0.007583 1.044796 0.951434
0.019246 1.043796 0.953409
0.029020 1.039343 0.951938
0.036996 1.031740 0.947304
0.049029 1.031235 0.949842
0.060661 1.029935 0.951606
0.068875 1.022796 0.947479
0.078425 1.017940 0.945677
0.085158 1.008478 0.939200
0.097952 1.008926 0.942828
0.109760 1.007664 0.944747
0.116672 0.998605 0.938712
0.127531 0.995778 0.939072
0.140587 0.996258 0.942861
0.149772 0.990741 0.940510
0.158942 0.985207 0.938158
0.172792 0.986579 0.942972
0.183368 0.983014 0.942711
0.193540 0.978823 0.941827
0.203330 0.974056 0.940367
0.218607 0.976957 0.946941
0.232924 0.978316 0.951960
0.244434 0.975663 0.952822
0.253948 0.970235 0.950799
0.264891 0.966700 0.950797
0.278170 0.966181 0.954014
0.287421 0.960285 0.951583
0.300189 0.958902 0.953967
0.308811 0.952136 0.950665
0.321764 0.950815 0.953194
0.329805 0.943282 0.949121
0.344432 0.943841 0.953748
0.352036 0.935730 0.949105
0.364549 0.933526 0.950847
0.372395 0.925700 0.946554
0.383731 0.921976 0.946723
0.393746 0.916655 0.945192
0.403531 0.911037 0.943365
0.418788 0.911558 0.948278
0.433523 0.911323 0.952426
0.443652 0.905861 0.950885
0.454952 0.901638 0.950737
0.466829 0.897973 0.951240
0.479662 0.895246 0.952821
0.488872 0.888615 0.950099
0.498606 0.882522 0.947993
0.510533 0.878661 0.948403
0.523193 0.875477 0.949604
0.538306 0.874671 0.953517
0.553520 0.873831 0.957440
0.561669 0.865937 0.953412
0.572689 0.860858 0.952577
0.584061 0.856089 0.952106
0.594895 0.850782 0.951026
0.601775 0.841761 0.945681
0.621411 0.844623 0.953992
0.631772 0.838813 0.952331
0.639522 0.830657 0.947932
0.650766 0.825703 0.947214
0.657857 0.817089 0.942199
0.673860 0.816371 0.946370
0.694469 0.819577 0.955142
0.699637 0.809428 0.948194
0.710113 0.803932 0.946652
0.723296 0.800773 0.947816
0.732918 0.794693 0.945450
0.741166 0.787592 0.941778
0.756998 0.786774 0.945523
0.776626 0.789016 0.952877
0.785718 0.782852 0.950060
0.792981 0.775395 0.945564
0.799928 0.767874 0.940853
0.817414 0.768666 0.946093
0.831016 0.766530 0.947677
0.835933 0.757936 0.941257
0.836822 0.746563 0.931271
0.858208 0.750683 0.940103
0.878540 0.754041 0.947900
0.886138 0.748165 0.944208
0.905296 0.750839 0.950912
0.907676 0.741575 0.942721
0.902590 0.727291 0.928118
0.911637 0.723305 0.926105
0.925539 0.722896 0.928386
0.950506 0.730274 0.940237
1.027168 0.773155 0.996320
-1.457382 1.354230 0.945760
-1.445366 1.342263 0.938383
-1.433929 1.332307 0.932608
-1.432444 1.354093 0.953324
-1.422530 1.350008 0.952366
-1.410809 1.340467 0.946766
-1.401257 1.338369 0.947348
-1.390990 1.334360 0.946264
-1.381202 1.332424 0.946864
-1.371759 1.332191 0.948843
-1.357659 1.315983 0.937260
-1.349939 1.322803 0.945081
-1.340954 1.325774 0.949601
-1.328864 1.317727 0.944720
-1.319344 1.319755 0.948331
-1.310293 1.324241 0.953986
-1.300132 1.324979 0.956406
-1.288596 1.320595 0.954410
-1.277677 1.319071 0.954801
-1.266519 1.316894 0.954585
-1.251106 1.296196 0.938479
-1.243610 1.310797 0.952525
-1.232632 1.310316 0.953630
-1.219691 1.300724 0.946884
-1.210105 1.307508 0.954154
-1.199476 1.309696 0.957457
-1.187669 1.306086 0.955748
-1.175794 1.302123 0.953709
-1.164213 1.299764 0.953028
-1.152970 1.299404 0.954051
-1.141741 1.299277 0.955260
-1.129687 1.294089 0.952087
-1.118454 1.293984 0.953292
-1.108246 1.300972 0.960631
-1.096021 1.294263 0.956114
-1.083506 1.284817 0.949213
-1.072475 1.286101 0.951608
-1.061384 1.287038 0.953708
-1.049592 1.281976 0.950600
-1.038723 1.284790 0.954341
-1.027074 1.280311 0.951746
-1.015828 1.279364 0.952231
-1.004419 1.276417 0.950981
-0.993257 1.275873 0.951836
-0.981751 1.270716 0.948673
-0.970505 1.268170 0.947800
-0.959823 1.273651 0.953959
-0.949127 1.279886 0.960803
-0.937756 1.274677 0.957641
-0.925778 1.254960 0.941760
-0.915058 1.259999 0.947604
-0.904051 1.258285 0.947537
-0.893177 1.260297 0.950763
-0.882274 1.261858 0.953614
-0.871290 1.259185 0.952754
-0.860341 1.256224 0.951654
-0.849444 1.256472 0.953402
-0.838558 1.252225 0.951196
-0.827714 1.249399 0.950259
-0.816857 1.249855 0.952244
-0.806074 1.246554 0.950918
-0.795432 1.239547 0.946316
-0.784994 1.228928 0.938511
-0.774021 1.235077 0.945620
-0.762790 1.245128 0.956235
-0.752127 1.241762 0.954929
-0.741746 1.234137 0.949836
-0.731150 1.231210 0.948944
-0.720535 1.228958 0.948669
-0.709718 1.229599 0.951000
-0.699752 1.219729 0.943929
-0.689271 1.216903 0.943179
-0.678373 1.218695 0.946591
-0.667256 1.222296 0.951653
-0.657215 1.215360 0.947253
-0.645836 1.220799 0.954015
-0.636034 1.212407 0.948321
-0.626140 1.205450 0.943925
-0.613476 1.219887 0.958894
-0.603630 1.212607 0.954236
-0.593046 1.210900 0.954636
-0.583393 1.203061 0.949480
-0.573179 1.199258 0.947997
-0.563042 1.195152 0.946246
-0.552174 1.195500 0.948566
-0.536631 1.222124 0.974896
-0.531999 1.187206 0.945044
-0.518661 1.200428 0.959195
-0.508847 1.194667 0.955996
-0.499769 1.185503 0.949677
-0.490252 1.178871 0.945682
-0.479639 1.177592 0.946613
-0.469683 1.173296 0.944780
-0.459878 1.168449 0.942445
-0.448787 1.169220 0.945308
-0.437001 1.172702 0.950699
-0.426483 1.170750 0.951082
-0.416571 1.166387 0.949240
-0.405814 1.165354 0.950498
-0.399124 1.149037 0.937548
-0.385050 1.160323 0.950300
-0.373335 1.162547 0.954640
-0.363177 1.159122 0.953725
-0.355865 1.146048 0.943786
-0.345517 1.143526 0.943722
-0.334549 1.143006 0.945549
-0.322346 1.146313 0.950993
-0.312406 1.142309 0.949578
-0.301560 1.141112 0.950819
-0.290676 1.139957 0.952114
-0.280737 1.135956 0.950732
-0.271660 1.129518 0.947050
-0.263737 1.119959 0.940405
-0.250735 1.124671 0.947317
-0.239640 1.123918 0.949059
-0.230508 1.117854 0.945755
-0.221521 1.111513 0.942188
-0.210627 1.110169 0.943402
-0.200040 1.107981 0.943824
-0.189182 1.106422 0.944864
-0.178176 1.105161 0.946206
-0.169815 1.097504 0.941406
-0.158702 1.096451 0.942974
-0.145024 1.101237 0.950202
-0.141394 1.082929 0.935117
-0.127982 1.086953 0.941645
-0.116628 1.086206 0.943576
-0.106099 1.083578 0.943698
-0.095216 1.081672 0.944538
-0.086491 1.075182 0.940922
-0.076083 1.072248 0.940785
-0.064219 1.072242 0.943532
-0.052635 1.071559 0.945641
-0.041056 1.070766 0.947665
-0.032440 1.064123 0.943951
-0.022678 1.059746 0.942476
-0.011686 1.057696 0.943313
0.000737 1.058247 0.946747
0.015148 1.062303 0.953691
0.026180 1.060018 0.954375
0.036883 1.057088 0.954438
0.045593 1.050613 0.950983
0.056126 1.047351 0.950747
0.066340 1.043508 0.949950
0.075755 1.038297 0.947796
0.082504 1.028665 0.941208
0.089940 1.020291 0.935884
0.101149 1.018122 0.936826
0.116342 1.022247 0.944167
0.118396 1.005416 0.930308
0.135337 1.012063 0.940275
0.148446 1.012522 0.944006
0.161598 1.012901 0.947696
0.170839 1.007280 0.945293
0.178960 1.000011 0.941216
0.188800 0.995299 0.939774
0.204395 0.998862 0.946874
0.211674 0.990363 0.941588
0.226450 0.992472 0.947275
0.241619 0.994932 0.953385
0.250007 0.987894 0.949683
0.262192 0.986024 0.951378
0.274010 0.983564 0.952495
0.284942 0.979846 0.952334
0.297792 0.978573 0.954769
0.301947 0.965966 0.945334
0.322528 0.974441 0.958105
0.327753 0.963228 0.950172
0.341337 0.962526 0.953367
0.353977 0.960525 0.955236
0.364905 0.956336 0.954819
0.367756 0.942394 0.944025
0.378595 0.938097 0.943533
0.390569 0.935071 0.944440
0.399497 0.928427 0.941495
0.411027 0.924758 0.941780
0.426600 0.925585 0.946969
0.442203 0.926266 0.952064
0.452108 0.920471 0.950177
0.463160 0.915900 0.949651
0.476797 0.914061 0.952148
0.490137 0.911786 0.954215
0.499118 0.904801 0.951144
0.510552 0.900373 0.950909
0.524086 0.898050 0.953035
0.532915 0.890828 0.949761
0.547626 0.889537 0.953104
0.555885 0.881698 0.949173
0.568824 0.878490 0.950433
0.580720 0.874191 0.950495
0.594345 0.871507 0.952396
0.599498 0.860688 0.945113
0.609741 0.854761 0.943348
0.626194 0.854609 0.948156
0.639716 0.851642 0.949777
0.648802 0.844593 0.946724
0.661840 0.841140 0.947777
0.677090 0.839627 0.951058
0.688167 0.834386 0.950021
0.702057 0.831619 0.951822
0.711213 0.824768 0.948840
0.724363 0.821397 0.949860
0.733676 0.814817 0.947073
0.744865 0.809895 0.946160
0.753336 0.802809 0.942620
0.768268 0.801111 0.945361
0.781692 0.798226 0.946626
0.797545 0.797341 0.950188
0.814589 0.797428 0.954834
0.819430 0.788007 0.948015
0.832105 0.784871 0.948591
0.836965 0.775860 0.941979
0.847596 0.771462 0.940774
0.869826 0.775929 0.950164
0.893813 0.781699 0.961047
0.903512 0.776917 0.959007
0.906948 0.767743 0.951458
0.919946 0.765760 0.952514
0.934024 0.764698 0.954554
0.922284 0.745399 0.934073
0.922622 0.735068 0.924387
0.947165 0.741971 0.935741
0.967289 0.745821 0.943220
0.952666 0.725814 0.921086
-1.466292 1.387426 0.959830
-1.449549 1.361418 0.940906
-1.436875 1.347970 0.932271
-1.431861 1.359010 0.943869
-1.423161 1.359054 0.946312
-1.412240 1.352393 0.943124
-1.405511 1.360035 0.951789
-1.395039 1.355842 0.950542
-1.384303 1.351173 0.948834
-1.375135 1.352403 0.951998
-1.364725 1.349819 0.951915
-1.353524 1.344824 0.949747
-1.341960 1.338848 0.946691
-1.330218 1.332501 0.943258
-1.320858 1.335620 0.947732
-1.312878 1.344853 0.957315
-1.302128 1.343819 0.958201
-1.290081 1.337862 0.954876
-1.279235 1.337173 0.955950
-1.267892 1.334736 0.955500
-1.256114 1.330658 0.953614
-1.244301 1.326597 0.951698
-1.232734 1.323834 0.950843
-1.221205 1.321447 0.950269
-1.211054 1.326106 0.955659
-1.199497 1.324112 0.955363
-1.186908 1.316766 0.950479
-1.176440 1.320814 0.955284
-1.164535 1.317183 0.953522
-1.152651 1.313600 0.951780
-1.141470 1.314191 0.953592
-1.130073 1.313593 0.954377
-1.117655 1.306291 0.949413
-1.106916 1.310037 0.953906
-1.095479 1.309144 0.954422
-1.083783 1.306248 0.953216
-1.072266 1.304500 0.952995
-1.060611 1.301420 0.951630
-1.049306 1.301060 0.952609
-1.036787 1.289326 0.943794
-1.026324 1.296387 0.951178
-1.014969 1.294911 0.951215
-1.003679 1.293879 0.951645
-0.992399 1.292718 0.951973
-0.981076 1.290685 0.951559
-0.969760 1.288256 0.950811
-0.958838 1.291340 0.954855
-0.947800 1.292937 0.957630
-0.936374 1.287256 0.954102
-0.925138 1.284016 0.952703
-0.913961 1.281029 0.951537
-0.902785 1.276735 0.949245
-0.891720 1.274347 0.948626
-0.880668 1.270860 0.947062
-0.869679 1.268271 0.946295
-0.858757 1.269314 0.948717
-0.847828 1.270883 0.951620
-0.836892 1.269767 0.952193
-0.825983 1.267501 0.951775
-0.815071 1.267234 0.953127
-0.804173 1.266471 0.954062
-0.793341 1.263688 0.953238
-0.782800 1.253308 0.945740
-0.772001 1.252399 0.946589
-0.760837 1.259513 0.954534
-0.749849 1.261510 0.957993
-0.739282 1.255834 0.954690
-0.729055 1.245884 0.947614
-0.718319 1.244682 0.948287
-0.707661 1.242559 0.948161
-0.696637 1.245008 0.952111
-0.685463 1.248672 0.957164
-0.674704 1.247398 0.957849
-0.665427 1.231613 0.945617
-0.653451 1.242456 0.957131
-0.643176 1.237115 0.954228
-0.633530 1.226981 0.947045
-0.622680 1.227196 0.949127
-0.612497 1.222240 0.946591
-0.600892 1.227801 0.953505
-0.590572 1.223922 0.951963
-0.580227 1.220389 0.950743
-0.570525 1.212931 0.945995
-0.558934 1.217401 0.952011
-0.547566 1.220098 0.956454
-0.537274 1.216388 0.955125
-0.526918 1.213145 0.954228
-0.515937 1.213282 0.956407
-0.506027 1.207805 0.953505
-0.497773 1.194366 0.943368
-0.487187 1.192782 0.944011
-0.476171 1.193153 0.946451
-0.464761 1.195145 0.950389
-0.456588 1.182708 0.941155
-0.446180 1.180351 0.941138
-0.433061 1.189228 0.951434
-0.421195 1.192453 0.956580
-0.414189 1.176260 0.943897
-0.403263 1.175787 0.945664
-0.391963 1.176608 0.948641
-0.381397 1.174579 0.949006
-0.369881 1.175906 0.952487
-0.359564 1.172871 0.951950
-0.350260 1.166397 0.948232
-0.340793 1.160628 0.945171
-0.330025 1.159219 0.946166
-0.318625 1.159761 0.948994
-0.309102 1.154304 0.946244
-0.297420 1.155541 0.949751
-0.287043 1.152702 0.949467
-0.276664 1.149860 0.949190
-0.266688 1.145847 0.947825
-0.257284 1.140259 0.944987
-0.245744 1.140666 0.947795
-0.233813 1.142000 0.951499
-0.227606 1.127924 0.940669
-0.217816 1.123608 0.939051
-0.206757 1.122583 0.940558
-0.195374 1.122295 0.942783
-0.183788 1.122401 0.945401
-0.170420 1.126720 0.952053
-0.161248 1.120738 0.948912
-0.151457 1.116291 0.947242
-0.141472 1.112323 0.946037
-0.131714 1.107851 0.944358
-0.122383 1.102450 0.941795
