ply
format ascii 1.0
comment ---
element vertex 1649
property float x
property float y
property float z
element face 0
property list uchar uint vertex_indices
end_header
-4.628126 -4.341700 0.615425
-4.621156 -4.314978 0.612948
-4.590930 -4.260353 0.605411
-4.579632 -4.246520 0.602939
-4.567023 -4.207543 0.598902
-4.568011 -4.195063 0.598374
-4.610067 -4.160230 0.602898
-4.604880 -4.147133 0.601381
-4.580582 -4.132958 0.596878
-4.576399 -4.120092 0.595522
-4.607350 -4.108988 0.599635
-4.615439 -4.096565 0.600175
-4.595818 -4.082952 0.596408
-4.573227 -4.069408 0.592188
-4.565756 -4.056524 0.590315
-4.599525 -4.044754 0.594807
-4.622380 -4.032419 0.597595
-4.558011 -4.018444 0.586953
-4.525795 -4.005428 0.581278
-4.542060 -3.993022 0.583047
-4.551032 -3.980427 0.583687
-4.521046 -3.955288 0.577636
-4.545868 -3.942405 0.580674
-4.549073 -3.929635 0.580413
-4.527167 -3.917368 0.576339
-4.527246 -3.904697 0.575601
-4.513712 -3.892438 0.572803
-4.511984 -3.879856 0.571790
-4.352635 -3.873804 0.547067
-4.343469 -3.862325 0.544978
-4.339972 -3.850631 0.543742
-4.336394 -3.838960 0.542494
-4.336664 -3.827079 0.541821
-4.336833 -3.815193 0.541131
-4.335351 -3.803417 0.540195
-4.327352 -3.792147 0.538293
-4.321600 -3.780777 0.536728
-4.322239 -3.768926 0.536113
-4.323997 -3.756982 0.535664
-4.322174 -3.745381 0.534689
-4.317738 -3.734085 0.533335
-4.317496 -3.722429 0.532603
-4.324017 -3.710077 0.532866
-4.324691 -3.698381 0.532278
-4.322881 -3.687037 0.531335
-4.320638 -3.675832 0.530339
-4.318561 -3.664708 0.529378
-4.318294 -3.653453 0.528691
-4.314549 -3.642780 0.527513
-4.306047 -3.632930 0.525663
-4.303564 -3.622394 0.524700
-4.313384 -3.610150 0.525524
-4.342931 -3.594889 0.529194
-3.455853 -5.914839 0.494215
-3.468055 -5.913335 0.495989
-3.476941 -5.907414 0.497089
-3.486783 -5.902383 0.498381
-3.504678 -5.906756 0.501292
-3.524117 -5.912538 0.504506
-3.524996 -5.895966 0.503991
-3.544575 -5.901241 0.507223
-3.557947 -5.898913 0.509208
-3.572658 -5.897865 0.511457
-3.581623 -5.890016 0.512559
-3.592942 -5.884691 0.514128
-3.606189 -5.881357 0.516077
-3.625860 -5.884940 0.519294
-3.648609 -5.891584 0.523108
-3.663544 -5.889406 0.525375
-3.679107 -5.887723 0.527761
-3.691252 -5.882232 0.529472
-3.704812 -5.878137 0.531457
-3.719500 -5.875103 0.533659
-3.738524 -5.876423 0.536702
-3.755499 -5.875443 0.539339
-3.769482 -5.871274 0.541388
-3.786959 -5.870522 0.544110
-3.805732 -5.870906 0.547076
-3.815680 -5.862435 0.548330
-3.837164 -5.865209 0.551806
-3.850086 -5.859505 0.553624
-3.865959 -5.856575 0.556005
-3.883923 -5.855525 0.558782
-3.900761 -5.853282 0.561335
-3.922330 -5.855319 0.564785
-3.939406 -5.853030 0.567368
-3.957848 -5.851870 0.570203
-3.978988 -5.853009 0.573544
-3.993671 -5.848197 0.575649
-4.012826 -5.847273 0.578595
-4.042445 -5.855378 0.583512
-4.060600 -5.853209 0.586248
-4.079781 -5.851798 0.589169
-4.102455 -5.853219 0.592739
-4.114017 -5.845066 0.594210
-4.119857 -5.832113 0.594603
-4.144553 -5.834836 0.598527
-4.276631 -5.869961 0.620288
-4.286886 -5.859900 0.621457
-4.279568 -5.836104 0.619365
-4.302094 -5.835660 0.622803
-4.331191 -5.840058 0.627444
-4.351870 -5.837777 0.630517
-4.358380 -5.824684 0.630971
-4.392048 -5.831848 0.636417
-4.401745 -5.820989 0.637444
-4.411940 -5.810486 0.638560
-4.432668 -5.807580 0.641599
-4.476375 -5.820957 0.648825
-4.498423 -5.818492 0.652077
-4.505889 -5.805611 0.652664
-4.506476 -5.787967 0.651999
-4.560306 -5.807065 0.660997
-4.569322 -5.795016 0.661847
-4.585226 -5.787606 0.663940
-4.597806 -5.777874 0.665426
-4.606934 -5.765805 0.666284
-4.610345 -5.749981 0.666110
-4.613975 -5.734361 0.665975
-4.624418 -5.723166 0.667063
-4.629696 -5.708658 0.667222
-4.625730 -5.688377 0.665727
-4.624128 -5.669715 0.664658
-4.629876 -5.655691 0.664903
-4.624583 -5.634968 0.663182
-4.617333 -5.613225 0.661118
-4.619210 -5.597104 0.660680
-4.611989 -5.575683 0.658631
-4.607329 -5.555933 0.657041
-4.603656 -5.536896 0.655630
-4.603549 -5.520024 0.654852
-4.595934 -5.498994 0.652755
-4.602552 -5.486088 0.653166
-4.594342 -5.464987 0.650973
-4.593191 -5.447921 0.650023
-4.600825 -5.435689 0.650613
-4.582799 -5.409733 0.646720
-4.583259 -5.393831 0.646061
-4.577863 -5.374937 0.644386
-4.574809 -5.357387 0.643122
-4.577103 -5.342671 0.642790
-4.573641 -5.325094 0.641462
-4.570180 -5.307625 0.640138
-4.557172 -5.285559 0.637169
-4.554446 -5.268717 0.635982
-4.556164 -5.254108 0.635564
-4.552145 -5.236815 0.634160
-4.547096 -5.219148 0.632585
-4.545547 -5.203224 0.631613
-4.545841 -5.188222 0.630961
-4.543682 -5.172167 0.629891
-4.541114 -5.156013 0.628754
-4.538699 -5.140016 0.627647
-4.525457 -5.119388 0.624701
-4.522401 -5.103344 0.623495
-4.521247 -5.088198 0.622615
-4.516408 -5.071577 0.621113
-4.513628 -5.055915 0.619964
-4.506019 -5.038371 0.618003
-4.493387 -5.018944 0.615202
-4.519144 -5.014933 0.618868
-4.511801 -4.997747 0.616962
-4.509340 -4.982576 0.615881
-4.503087 -4.966042 0.614167
-4.506452 -4.953231 0.614068
-4.513385 -4.941753 0.614564
-4.510234 -4.926579 0.613377
-4.508317 -4.911931 0.612399
-4.506430 -4.897363 0.611429
-4.499580 -4.881135 0.609638
-4.530631 -4.878022 0.614132
-4.574562 -4.850909 0.619413
-4.560202 -4.832324 0.616385
-4.601449 -4.775778 0.619853
-4.598590 -4.761117 0.618725
-4.656409 -4.721935 0.625478
-4.651381 -4.706707 0.623995
-4.656656 -4.694254 0.624182
-4.580275 -4.660923 0.611176
-4.658812 -4.653464 0.622531
-4.679606 -4.644762 0.625211
-4.624847 -4.604623 0.615093
-4.644916 -4.541963 0.615014
-4.718480 -4.529731 0.625368
-4.588649 -4.465226 0.602832
-4.616567 -4.431148 0.605280
-4.596322 -4.414847 0.601447
-4.586632 -4.387613 0.598627
-4.659837 -4.346361 0.607403
-4.602728 -4.313097 0.597200
-4.601773 -4.274691 0.595057
-4.610416 -4.262864 0.595720
-4.586606 -4.235023 0.590715
-4.586485 -4.222360 0.590024
-4.578668 -4.209032 0.588153
-4.566424 -4.195415 0.585607
-4.577058 -4.183691 0.586554
-4.600876 -4.172830 0.589501
-4.617126 -4.161225 0.591282
-4.599216 -4.147293 0.587866
-4.573233 -4.133048 0.583234
-4.585580 -4.121119 0.584409
-4.605743 -4.109451 0.586754
-4.619757 -4.097311 0.588159
-4.603888 -4.083831 0.585055
-4.578521 -4.070154 0.580530
-4.568272 -4.057166 0.578281
-4.589278 -4.045068 0.580711
-4.589855 -4.032325 0.580074
-4.548199 -4.018868 0.573134
-4.530931 -4.006073 0.569843
-4.530887 -3.993542 0.569116
-4.541984 -3.981014 0.570038
-4.544091 -3.968385 0.569619
-4.547916 -3.955702 0.569448
-4.551866 -3.942958 0.569290
-4.561569 -3.930058 0.569972
-4.547973 -3.917552 0.567221
-4.522298 -3.905477 0.562702
-4.512869 -3.893116 0.560573
-4.481800 -3.881613 0.555284
-4.360932 -3.874090 0.536919
-4.346694 -3.862811 0.534135
-4.341010 -3.851219 0.532599
-4.340198 -3.839397 0.531769
-4.337290 -3.827699 0.530636
-4.336974 -3.815851 0.529876
-4.336476 -3.804015 0.529090
-4.329729 -3.792652 0.527406
-4.329361 -3.780848 0.526642
-4.328431 -3.769104 0.525798
-4.329186 -3.757231 0.525198
-4.325979 -3.745747 0.524035
-4.317319 -3.734864 0.522102
-4.319372 -3.722983 0.521699
-4.327179 -3.710497 0.522117
-4.332162 -3.698310 0.522138
-4.328458 -3.687167 0.520939
-4.324208 -3.676198 0.519673
-4.316735 -3.665762 0.517968
-4.306391 -3.655869 0.515875
-4.311902 -3.643994 0.516021
-4.311608 -3.633005 0.515367
-4.300993 -3.623650 0.513287
-4.306450 -3.612097 0.513469
-4.319430 -3.599467 0.514712
-3.462034 -5.920731 0.484087
-3.475324 -5.920535 0.486022
-3.480814 -5.910419 0.486435
-3.494449 -5.909976 0.488436
-3.512445 -5.914412 0.491280
-3.513533 -5.898292 0.490844
-3.544597 -5.917478 0.496211
-3.542640 -5.897394 0.495191
-3.559080 -5.898666 0.497724
-3.572086 -5.895676 0.499593
-3.586014 -5.893501 0.501637
-3.597022 -5.887805 0.503120
-3.609577 -5.883681 0.504899
-3.625483 -5.883086 0.507315
-3.649913 -5.891590 0.511350
-3.664928 -5.889503 0.513585
-3.679539 -5.886805 0.515741
-3.694811 -5.884652 0.518018
-3.707832 -5.879970 0.519865
-3.723315 -5.877754 0.522175
-3.739054 -5.875657 0.524528
-3.754083 -5.872696 0.526743
-3.772978 -5.873530 0.529678
-3.788824 -5.871121 0.532035
-3.801764 -5.865706 0.533843
-3.821858 -5.867268 0.536983
-3.836886 -5.863704 0.539170
-3.849977 -5.858181 0.540991
-3.865734 -5.855152 0.543304
-3.886378 -5.856649 0.546516
-3.903557 -5.854716 0.549078
-3.922586 -5.854379 0.551974
-3.943445 -5.855574 0.555200
-3.968377 -5.860297 0.559166
-3.979676 -5.852479 0.560613
-3.992823 -5.846300 0.562396
-4.009976 -5.843621 0.564907
-4.043208 -5.854919 0.570353
-4.060401 -5.851919 0.572851
-4.081216 -5.851922 0.576003
-4.103525 -5.853028 0.579416
-4.117318 -5.846761 0.581271
-4.122011 -5.832837 0.581468
-4.139224 -5.829360 0.583934
-4.174682 -5.840720 0.589691
-4.209648 -5.851283 0.595341
-4.234284 -5.853157 0.599110
-4.260422 -5.856001 0.603137
-4.270757 -5.846140 0.604311
-4.276496 -5.832683 0.604656
-4.287296 -5.823200 0.605906
-4.344466 -5.849215 0.615446
-4.358198 -5.841578 0.617198
-4.373580 -5.835117 0.619238
-4.393755 -5.832136 0.622124
-4.406050 -5.823193 0.623600
-4.410789 -5.808693 0.623730
-4.448084 -5.817774 0.629626
-4.459641 -5.808042 0.630951
-4.470657 -5.797890 0.632176
-4.489829 -5.793427 0.634833
-4.541520 -5.811404 0.643207
-4.553913 -5.801765 0.644646
-4.564756 -5.791019 0.645808
-4.576870 -5.781098 0.647189
-4.594122 -5.774554 0.649463
-4.603451 -5.762656 0.650345
-4.604844 -5.745552 0.649840
-4.618544 -5.736504 0.651479
-4.624167 -5.722203 0.651708
-4.629539 -5.707772 0.651892
-4.630153 -5.690386 0.651251
-4.632213 -5.673988 0.650861
-4.631643 -5.656043 0.650017
-4.611575 -5.626337 0.645814
-4.620888 -5.614667 0.646681
-4.619384 -5.596525 0.645685
-4.612988 -5.575607 0.643853
-4.611044 -5.557453 0.642789
-4.623713 -5.547837 0.644227
-4.586613 -5.509745 0.637159
-4.597982 -5.499554 0.638379
-4.603293 -5.485919 0.638563
-4.607241 -5.471546 0.638515
-4.587648 -5.444345 0.634470
-4.586844 -5.427606 0.633621
-4.586748 -5.411327 0.632895
-4.579569 -5.391383 0.630974
-4.577019 -5.374013 0.629839
-4.577966 -5.358548 0.629296
-4.575984 -5.341648 0.628262
-4.575289 -5.325488 0.627448
-4.568391 -5.306311 0.625595
-4.554525 -5.283851 0.622581
-4.554089 -5.268153 0.621821
-4.554514 -5.252938 0.621207
-4.554184 -5.237423 0.620469
-4.551715 -5.220970 0.619377
-4.547625 -5.203856 0.618019
-4.546557 -5.188233 0.617165
-4.553209 -5.176173 0.617593
-4.558324 -5.163410 0.617765
-4.568729 -5.152981 0.618810
-4.576474 -5.141335 0.619413
-4.614016 -5.142463 0.624918
-4.572349 -5.094772 0.616720
-4.592088 -5.058444 0.617948
-4.616271 -5.053279 0.621225
-4.594191 -5.015157 0.616295
-4.711679 -5.045221 0.634708
-4.724493 -5.034839 0.636097
-4.691206 -4.977461 0.628659
-4.654242 -4.905845 0.620031
-4.630395 -4.869166 0.614895
-4.628180 -4.783759 0.610647
-4.583316 -4.743070 0.602268
-4.683077 -4.715263 0.615419
-4.613057 -4.522458 0.596190
-4.687209 -4.523872 0.606965
-4.624914 -4.485269 0.596110
-4.567711 -4.461715 0.586713
-4.601902 -4.429022 0.590051
-4.590750 -4.414279 0.587719
-4.597953 -4.402568 0.588180
-4.604144 -4.390656 0.588484
-4.615703 -4.379501 0.589596
-4.621315 -4.367400 0.589802
-4.588659 -4.337193 0.583584
-4.583420 -4.323783 0.582154
-4.577836 -4.310394 0.580672
-4.584900 -4.298591 0.581089
-4.605576 -4.275544 0.582886
-4.603997 -4.262624 0.581994
-4.599268 -4.249407 0.580630
-4.583692 -4.235193 0.577651
-4.570092 -4.221312 0.574971
-4.579449 -4.209566 0.575700
-4.574987 -4.184011 0.573709
-4.600410 -4.173287 0.576792
-4.614856 -4.161572 0.578242
-4.593005 -4.147403 0.574341
-4.566390 -4.133152 0.569748
-4.539213 -4.119116 0.565082
-4.594230 -4.109409 0.572455
-4.594168 -4.096700 0.571750
-4.545523 -4.069527 0.563264
-4.545356 -4.057010 0.562543
-4.571367 -4.045163 0.565615
-4.576096 -4.032599 0.565588
-4.560877 -4.019645 0.562671
-4.540887 -3.994189 0.558353
-4.539298 -3.981595 0.557403
-4.556126 -3.968949 0.559090
-4.565705 -3.943403 0.558984
-4.555357 -3.930783 0.556762
-4.536940 -3.918416 0.553393
-4.518354 -3.906208 0.550007
-4.500807 -3.894126 0.546774
-4.461325 -3.882985 0.540445
-4.354028 -3.874983 0.524563
-4.345304 -3.863490 0.522625
-4.339256 -3.851930 0.521066
-4.339371 -3.840074 0.520373
-4.339642 -3.828196 0.519699
-4.337649 -3.816456 0.518708
-4.331454 -3.805024 0.517132
-4.334246 -3.792979 0.516809
-4.331678 -3.781339 0.515741
-4.335417 -3.769199 0.515549
-4.334480 -3.757455 0.514711
-4.332238 -3.745866 0.513697
-4.326431 -3.734680 0.512197
-4.321522 -3.723492 0.510830
-4.326262 -3.711345 0.510794
-4.330916 -3.699215 0.510751
-4.329633 -3.687806 0.509904
-4.326373 -3.676723 0.508798
-4.319936 -3.666158 0.507273
-4.313796 -3.655706 0.505804
-4.306643 -3.645551 0.504215
-4.317899 -3.632967 0.505134
-4.313869 -3.622636 0.504000
-4.307221 -3.612868 0.502532
-4.334754 -3.598003 0.505685
-3.484843 -5.947286 0.477033
-3.480136 -5.924706 0.475516
-3.489865 -5.919758 0.476724
-3.493590 -5.907249 0.476810
-3.502634 -5.900979 0.477897
-3.512830 -5.895838 0.479203
-3.530448 -5.899198 0.481893
-3.545350 -5.898999 0.484076
-3.556046 -5.893623 0.485477
-3.572601 -5.894760 0.487964
-3.585776 -5.891751 0.489824
-3.599802 -5.889479 0.491841
-3.614168 -5.887368 0.493919
-3.632750 -5.889700 0.496771
-3.647636 -5.887709 0.498940
-3.663412 -5.886489 0.501269
-3.680847 -5.886855 0.503899
-3.693596 -5.882028 0.505668
-3.714239 -5.885394 0.508874
-3.726326 -5.879590 0.510517
-3.742792 -5.878230 0.512953
-3.758537 -5.875978 0.515253
-3.769448 -5.868704 0.516673
-3.781766 -5.862809 0.518346
-3.801633 -5.864350 0.521377
-3.822920 -5.867095 0.524657
-3.837598 -5.863194 0.526739
-3.850300 -5.857303 0.528460
-3.869008 -5.857100 0.531255
-3.888403 -5.857395 0.534165
-3.912549 -5.861978 0.537916
-3.928595 -5.858802 0.540210
-3.948280 -5.858873 0.543146
-3.966464 -5.857419 0.545806
-3.982500 -5.853899 0.548076
-3.996488 -5.848458 0.549977
-4.017264 -5.848961 0.553073
-4.036805 -5.848209 0.555941
-4.060967 -5.851316 0.559616
-4.083580 -5.852866 0.563006
-4.097189 -5.846557 0.564801
-4.116639 -5.845119 0.567616
-4.128242 -5.836985 0.569046
-4.144184 -5.832417 0.571231
-4.184364 -5.847605 0.577646
-4.209071 -5.849772 0.581339
-4.235043 -5.852730 0.585240
-4.252730 -5.848852 0.587687
-4.268658 -5.843468 0.589820
-4.280942 -5.835150 0.591313
-4.283571 -5.819330 0.591128
-4.331769 -5.838499 0.598824
-4.349271 -5.833824 0.601195
-4.371220 -5.832370 0.604324
-4.383308 -5.823403 0.605744
-4.408547 -5.824079 0.609420
-4.424950 -5.818080 0.611567
-4.447364 -5.816319 0.614736
-4.450940 -5.800897 0.614672
-4.492246 -5.812266 0.621052
-4.509592 -5.806383 0.623324
-4.532834 -5.804474 0.626592
-4.553151 -5.800354 0.629352
-4.565163 -5.790422 0.630692
-4.574977 -5.778961 0.631654
-4.593982 -5.773611 0.634168
-4.608385 -5.765078 0.635895
-4.614998 -5.751370 0.636302
-4.620687 -5.737084 0.636550
-4.630978 -5.725773 0.637571
-4.631263 -5.708089 0.636908
-4.622838 -5.685037 0.634784
-4.624224 -5.668283 0.634309
-4.620802 -5.648654 0.633031
-4.625070 -5.633837 0.633039
-4.624586 -5.616200 0.632255
-4.616107 -5.593898 0.630142
-4.597549 -5.565854 0.626360
-4.626251 -5.565675 0.630428
-4.622950 -5.546768 0.629183
-4.581939 -5.506474 0.621704
-4.593592 -5.496486 0.622944
-4.599526 -5.483241 0.623236
-4.591556 -5.462326 0.621238
-4.582170 -5.440812 0.619012
-4.583160 -5.425090 0.618496
-4.588267 -5.411627 0.618655
-4.583507 -5.392966 0.617199
-4.582098 -5.376184 0.616294
-4.577682 -5.357937 0.614901
-4.572758 -5.339552 0.613429
-4.570021 -5.322397 0.612317
-4.558104 -5.300767 0.609717
-4.554939 -5.283652 0.608543
-4.554706 -5.268065 0.607847
-4.552968 -5.251822 0.606910
-4.552596 -5.236310 0.606195
-4.549767 -5.219712 0.605087
-4.548275 -5.203827 0.604196
-4.549867 -5.189432 0.603804
-4.566618 -5.181932 0.605843
-4.692831 -5.160487 0.622700
-4.680984 -5.078762 0.617487
-4.646578 -5.020337 0.610101
-4.795401 -5.061289 0.632822
-4.717069 -5.016788 0.619860
-4.687482 -4.990925 0.614568
-4.700270 -4.833929 0.609442
-4.654438 -4.639085 0.594258
-4.609414 -4.614843 0.586845
-4.652342 -4.557423 0.590215
-4.644143 -4.542323 0.588367
-4.681332 -4.536482 0.593298
-4.615963 -4.483888 0.581695
-4.617315 -4.471050 0.581279
-4.639567 -4.461935 0.583957
-4.596442 -4.428431 0.576340
-4.614957 -4.418560 0.578453
-4.620681 -4.406508 0.578673
-4.630624 -4.395072 0.579509
-4.602796 -4.352282 0.573546
-4.590856 -4.325138 0.570546
-4.585100 -4.311698 0.569079
-4.591839 -4.299830 0.569427
-4.597782 -4.287818 0.569655
-4.603718 -4.275760 0.569876
-4.593593 -4.261949 0.567768
-4.590476 -4.248951 0.566675
-4.555655 -4.232918 0.561009
-4.561186 -4.208423 0.560520
-4.560281 -4.195837 0.559742
-4.565100 -4.183706 0.559780
-4.583735 -4.172544 0.561788
-4.596306 -4.160788 0.562917
-4.588775 -4.147624 0.561172
-4.570805 -4.133908 0.557943
-4.581397 -4.121912 0.558773
-4.602302 -4.110324 0.561054
-4.593533 -4.097190 0.559124
-4.556732 -4.082996 0.553236
-4.537112 -4.069750 0.549784
-4.549763 -4.057677 0.550876
-4.562973 -4.045484 0.552036
-4.567234 -4.032959 0.551930
-4.569899 -4.020349 0.551594
-4.557815 -4.007520 0.549192
-4.550846 -3.994824 0.547505
-4.559628 -3.982214 0.548007
-4.561169 -3.969517 0.547493
-4.571141 -3.956725 0.548143
-4.572050 -3.943923 0.547529
-4.556623 -3.931362 0.544656
-4.531705 -3.919131 0.540480
-4.518469 -3.906812 0.537919
-4.513118 -3.894354 0.536443
-4.464643 -3.883475 0.529064
-4.361209 -3.875282 0.514206
-4.333461 -3.864626 0.509716
-4.333647 -3.852816 0.509038
-4.334987 -3.840928 0.508514
-4.338629 -3.828877 0.508298
-4.331336 -3.817495 0.506602
-4.336471 -3.805310 0.506585
-4.336373 -3.793468 0.505861
-4.333178 -3.781877 0.504721
-4.330013 -3.770324 0.503590
-4.334158 -3.758165 0.503439
-4.334790 -3.746318 0.502821
-4.330330 -3.734997 0.501529
-4.325887 -3.723754 0.500248
-4.322014 -3.712536 0.499051
-4.323748 -3.700774 0.498606
-4.324072 -3.689224 0.497984
-4.322180 -3.678014 0.497080
-4.319372 -3.667021 0.496068
-4.314372 -3.656437 0.494784
-4.311501 -3.645709 0.493796
-4.310323 -3.634881 0.493046
-4.320163 -3.622580 0.493751
-4.317574 -3.612191 0.492852
-4.301014 -3.604125 0.490158
-3.467620 -5.924099 0.462419
-3.483382 -5.926952 0.464685
-3.493973 -5.923061 0.466019
-3.499473 -5.912699 0.466439
-3.510117 -5.908321 0.467791
-3.520411 -5.903251 0.469085
-3.530274 -5.897426 0.470306
-3.544800 -5.896818 0.472364
-3.558210 -5.894617 0.474224
-3.570185 -5.890512 0.475830
-3.584254 -5.888570 0.477810
-3.598140 -5.886184 0.479758
-3.614610 -5.886457 0.482165
-3.631580 -5.887027 0.484658
-3.647351 -5.886036 0.486936
-3.662942 -5.884640 0.489181
-3.681051 -5.885750 0.491867
-3.690455 -5.877393 0.493019
-3.699698 -5.868823 0.494142
-3.732137 -5.884369 0.499331
-3.747648 -5.881982 0.501546
-3.760238 -5.876475 0.503245
-3.769874 -5.867913 0.504427
-3.782104 -5.861941 0.506059
-3.802516 -5.864031 0.509111
-3.823324 -5.866306 0.512224
-3.836666 -5.861114 0.514035
-3.852810 -5.858560 0.516326
-3.872045 -5.858847 0.519145
-3.892324 -5.859959 0.522137
-3.907577 -5.856187 0.524254
-3.936715 -5.865202 0.528755
-3.951218 -5.860452 0.530727
-3.965282 -5.855235 0.532617
-3.979486 -5.850084 0.534526
-4.009587 -5.859053 0.539149
-4.025427 -5.855091 0.541320
-4.039111 -5.849153 0.543117
-4.058206 -5.847854 0.545830
-4.075151 -5.844566 0.548168
-4.092416 -5.841445 0.550552
-4.111911 -5.840092 0.553307
-4.128225 -5.835937 0.555513
-4.148453 -5.834919 0.558374
-4.193286 -5.853879 0.565379
-4.239891 -5.873734 0.572660
-4.278052 -5.867980 0.577902
-4.279669 -5.851142 0.577578
-4.281363 -5.834491 0.577267
-4.306414 -5.836006 0.580863
-4.327392 -5.834175 0.583767
-4.338005 -5.824322 0.584931
-4.355616 -5.819703 0.587256
-4.376180 -5.817160 0.590064
-4.389190 -5.808892 0.591607
-4.436378 -5.825480 0.598812
-4.446945 -5.815096 0.599930
-4.449243 -5.798779 0.599676
-4.491560 -5.810877 0.606027
-4.516026 -5.809998 0.609416
-4.541325 -5.809481 0.612930
-4.556427 -5.801730 0.614756
-4.569949 -5.792815 0.616316
-4.585684 -5.785322 0.618232
-4.593273 -5.772300 0.618808
-4.605540 -5.762374 0.620145
-4.613799 -5.749774 0.620823
-4.619295 -5.735386 0.621048
-4.633462 -5.726580 0.622681
-4.640507 -5.713178 0.623150
-4.615087 -5.679425 0.618354
-4.614098 -5.661264 0.617527
-4.622598 -5.649039 0.618234
-4.627897 -5.634854 0.618421
-4.622925 -5.614515 0.616951
-4.633329 -5.603481 0.617958
-4.616975 -5.576646 0.614663
-4.618430 -5.560480 0.614233
-4.579280 -5.520974 0.607300
-4.599032 -5.515624 0.609807
-4.595766 -5.497128 0.608630
-4.598954 -5.482351 0.608484
-4.594782 -5.463553 0.607167
-4.580768 -5.439511 0.604288
-4.578750 -5.422187 0.603320
-4.583708 -5.408686 0.603461
-4.592927 -5.397445 0.604274
-4.588880 -5.379245 0.602989
-4.580155 -5.358751 0.600968
-4.569429 -5.337410 0.598639
-4.564474 -5.319171 0.597222
-4.561502 -5.302045 0.596121
-4.557012 -5.284273 0.594785
-4.550912 -5.265835 0.593200
-4.552776 -5.251359 0.592865
-4.550790 -5.235096 0.591929
-4.541714 -5.215592 0.589890
-4.534866 -5.197286 0.588204
-4.544791 -5.186795 0.589128
-4.568076 -5.182289 0.592122
-4.767054 -5.050541 0.613771
-4.718835 -4.987207 0.604540
-4.665273 -4.953298 0.595818
-4.702801 -4.936918 0.600232
-4.684568 -4.916020 0.596866
-4.676112 -4.798082 0.590683
-4.693048 -4.704179 0.588919
-4.652690 -4.666176 0.581782
-4.649475 -4.638075 0.580111
-4.621250 -4.591031 0.574203
-4.621882 -4.577826 0.573701
-4.611561 -4.549047 0.571015
-4.624419 -4.512071 0.571087
-4.641375 -4.488930 0.572327
-4.637912 -4.475101 0.571225
-4.632235 -4.460939 0.569806
-4.611285 -4.444219 0.566203
-4.611298 -4.431244 0.565602
-4.632471 -4.382713 0.566185
-4.607108 -4.353251 0.561361
-4.631516 -4.343720 0.564196
-4.612017 -4.328269 0.560823
-4.606658 -4.314786 0.559447
-4.606596 -4.302006 0.558817
-4.611236 -4.289781 0.558843
-4.582448 -4.261180 0.553554
-4.597819 -4.237435 0.554438
-4.611146 -4.225983 0.555655
-4.583843 -4.198238 0.550572
-4.579422 -4.185282 0.549313
-4.576698 -4.172491 0.548287
-4.580603 -4.160180 0.548173
-4.580294 -4.134953 0.546809
-4.599061 -4.123369 0.548719
-4.607545 -4.111086 0.549205
-4.602149 -4.098085 0.547784
-4.581953 -4.084524 0.544340
-4.581035 -4.071834 0.543528
-4.568848 -4.058787 0.541180
-4.575610 -4.046343 0.541404
-4.575034 -4.033659 0.540626
-4.574648 -4.020968 0.539869
-4.572625 -4.008243 0.538886
-4.574641 -3.995548 0.538442
-4.561723 -3.982775 0.535984
-4.558969 -3.970084 0.534892
-4.563052 -3.957351 0.534712
-4.568498 -3.944542 0.534706
-4.561013 -3.931872 0.532968
-4.553804 -3.919246 0.531266
-4.535263 -3.906962 0.528058
-4.512551 -3.894965 0.524304
-4.538599 -3.881429 0.527005
-4.360820 -3.875871 0.502796
-4.335310 -3.865117 0.498731
-4.330336 -3.853565 0.497376
-4.331415 -3.841715 0.496814
-4.329748 -3.830010 0.495890
-4.334260 -3.817914 0.495772
-4.335701 -3.805984 0.495251
-4.337985 -3.793977 0.494838
-4.333383 -3.782500 0.493533
-4.328283 -3.771119 0.492167
-4.330117 -3.759186 0.491702
-4.331545 -3.747297 0.491187
-4.327749 -3.735938 0.490005
-4.323693 -3.724680 0.488798
-4.319431 -3.713528 0.487574
-4.318988 -3.702040 0.486848
-4.321525 -3.690268 0.486512
-4.322531 -3.678731 0.485991
-4.321199 -3.667566 0.485186
-4.319244 -3.656588 0.484317
-4.316918 -3.645781 0.483418
-4.320727 -3.634245 0.483310
-4.320747 -3.623348 0.482742
-4.320590 -3.612611 0.482171
-4.324944 -3.601322 0.482187
-3.443103 -5.891915 0.446812
-3.477155 -5.917554 0.452189
-3.491671 -5.918553 0.454170
-3.510114 -5.923903 0.456833
-3.519053 -5.917407 0.457855
-3.521260 -5.902677 0.457724
-3.531394 -5.897198 0.458968
-3.546954 -5.897814 0.461150
-3.558424 -5.893380 0.462632
-3.570768 -5.889726 0.464267
-3.584877 -5.887850 0.466208
-3.601195 -5.888217 0.468527
-3.613108 -5.883412 0.470096
-3.628430 -5.882202 0.472246
-3.647710 -5.885096 0.475068
-3.663973 -5.884444 0.477376
-3.678709 -5.881949 0.479424
-3.691346 -5.877068 0.481115
-3.702955 -5.870997 0.482632
-3.727552 -5.878359 0.486338
-3.742716 -5.875675 0.488448
-3.760599 -5.875634 0.491011
-3.770066 -5.866915 0.492157
-3.784830 -5.863493 0.494190
-3.805080 -5.865407 0.497136
-3.821080 -5.862947 0.499365
-3.840276 -5.863479 0.502122
-3.856232 -5.860722 0.504332
-3.874649 -5.860207 0.506946
-3.893489 -5.859942 0.509622
-3.908760 -5.856188 0.511699
-3.925661 -5.853859 0.514039
-3.940733 -5.849739 0.516070
-3.956853 -5.846492 0.518267
-3.976198 -5.846053 0.520990
-4.011814 -5.859968 0.526386
-4.028989 -5.857175 0.528731
-4.045321 -5.853533 0.530928
-4.062170 -5.850243 0.533203
-4.074039 -5.842577 0.534654
-4.089584 -5.838011 0.536701
-4.111117 -5.838402 0.539720
-4.131654 -5.837783 0.542565
-4.146044 -5.831924 0.544399
-4.166073 -5.830611 0.547144
-4.169215 -5.815461 0.547133
-4.194877 -5.818488 0.550777
-4.276164 -5.865481 0.563427
-4.274141 -5.845808 0.562551
-4.285153 -5.836478 0.563783
-4.298000 -5.828547 0.565306
-4.312853 -5.822102 0.567146
-4.332860 -5.819482 0.569808
-4.359170 -5.821434 0.573474
-4.377929 -5.817532 0.575915
-4.399123 -5.815283 0.578737
-4.420433 -5.812947 0.581568
-4.442859 -5.811243 0.584567
-4.460020 -5.805587 0.586714
-4.483984 -5.804628 0.589938
-4.520625 -5.812338 0.595167
-4.545725 -5.811657 0.598546
-4.558864 -5.802540 0.600015
-4.572256 -5.793531 0.601518
-4.584498 -5.783683 0.602832
-4.596836 -5.773846 0.604156
-4.608364 -5.763422 0.605347
-4.614135 -5.749193 0.605626
-4.616754 -5.732956 0.605406
-4.624439 -5.720031 0.605981
-4.632447 -5.707313 0.606603
-4.620972 -5.682377 0.604172
-4.617359 -5.662565 0.602975
-4.623315 -5.648771 0.603273
-4.625017 -5.632411 0.602907
-4.618000 -5.610877 0.601182
-4.623334 -5.596870 0.601382
-4.632293 -5.585018 0.602141
-4.635035 -5.569520 0.601934
-4.616773 -5.541971 0.598476
-4.608387 -5.520361 0.596554
-4.601802 -5.499951 0.594913
-4.602494 -5.483760 0.594397
-4.608202 -5.470406 0.594653
-4.578675 -5.437838 0.589497
-4.571899 -5.417975 0.587843
-4.579527 -5.405953 0.588398
-4.588154 -5.394438 0.589104
-4.593425 -5.381141 0.589294
-4.563203 -5.349553 0.584073
-4.567816 -5.336146 0.584169
-4.565933 -5.319480 0.583276
-4.564784 -5.303268 0.582497
-4.561822 -5.286243 0.581444
-4.554997 -5.267440 0.579810
-4.550679 -5.249983 0.578558
-4.548599 -5.233702 0.577647
-4.534108 -5.211687 0.574869
-4.535973 -5.197475 0.574558
-4.541779 -5.185105 0.574839
-4.565084 -5.180636 0.577743
-4.713280 -5.215844 0.598708
-4.671746 -5.105106 0.588825
-4.721927 -5.110064 0.595641
-4.697912 -5.069888 0.590865
-4.713474 -5.060706 0.592548
-4.730609 -5.021570 0.593229
-4.728753 -5.005756 0.592346
-4.725717 -4.870970 0.586457
-4.643592 -4.816648 0.573426
-4.650327 -4.790511 0.573232
-4.672932 -4.783056 0.575893
-4.617803 -4.753189 0.567411
-4.687210 -4.758902 0.576764
-4.642415 -4.650139 0.566314
-4.653951 -4.598634 0.565625
-4.611918 -4.549359 0.557991
-4.622511 -4.538355 0.558897
-4.629358 -4.526523 0.559276
-4.644260 -4.516242 0.560773
-4.646188 -4.476902 0.559282
-4.617015 -4.432519 0.553479
-4.624595 -4.420785 0.553936
-4.618876 -4.381035 0.551370
-4.639612 -4.358147 0.553010
-4.634859 -4.344543 0.551754
-4.625446 -4.330392 0.549862
-4.617880 -4.316576 0.548222
-4.618335 -4.291002 0.547059
-4.605034 -4.276722 0.544640
-4.585082 -4.261868 0.541324
-4.585567 -4.249290 0.540773
-4.617417 -4.239762 0.544446
-4.629401 -4.228102 0.545427
-4.625531 -4.214942 0.544269
-4.608187 -4.200700 0.541302
-4.580077 -4.185778 0.536897
-4.571656 -4.172570 0.535133
-4.585951 -4.161007 0.536397
-4.587671 -4.148497 0.535977
-4.582736 -4.135569 0.534666
-4.587945 -4.123239 0.534698
-4.590682 -4.110727 0.534395
-4.588846 -4.097973 0.533482
-4.597692 -4.085661 0.533973
-4.571383 -4.071985 0.529827
-4.575570 -4.059501 0.529695
-4.581519 -4.047011 0.529787
-4.584445 -4.034383 0.529475
-4.585112 -4.021671 0.528860
-4.582602 -4.008896 0.527825
-4.579957 -3.996124 0.526769
-4.573300 -3.983347 0.525187
-4.568271 -3.970611 0.523814
-4.568025 -3.957869 0.523057
-4.565869 -3.945131 0.522048
-4.560242 -3.932448 0.520587
-4.559587 -3.919693 0.519764
-4.559655 -3.906905 0.519028
-4.569625 -3.893793 0.519554
-4.348999 -3.876902 0.489946
-4.340841 -3.865424 0.488208
-4.334891 -3.853900 0.486752
-4.330400 -3.842342 0.485481
-4.333220 -3.830383 0.485133
-4.336041 -3.818388 0.484782
-4.335795 -3.806577 0.484044
-4.334557 -3.794842 0.483181
-4.331786 -3.783246 0.482129
-4.328435 -3.771736 0.481007
-4.327924 -3.760023 0.480244
-4.329959 -3.748101 0.479801
-4.326260 -3.736753 0.478652
-4.323630 -3.725367 0.477644
-4.321605 -3.713988 0.476719
-4.322267 -3.702381 0.476135
-4.322043 -3.690934 0.475453
-4.323558 -3.679351 0.474996
-4.329385 -3.667291 0.475078
-4.329869 -3.655973 0.474521
-4.323713 -3.645658 0.473172
-4.321995 -3.634888 0.472384
-4.326054 -3.623421 0.472315
-4.324182 -3.612938 0.471548
-4.315953 -3.603592 0.470035
-3.478028 -5.933462 0.441504
-3.460697 -5.895611 0.438106
-3.486319 -5.910349 0.441873
-3.514009 -5.926956 0.445982
-3.521455 -5.918672 0.446736
-3.526268 -5.907054 0.447064
-3.525562 -5.888815 0.446492
-3.536335 -5.883948 0.447824
-3.562988 -5.897187 0.451775
-3.573624 -5.891562 0.453093
-3.587158 -5.889035 0.454891
-3.606092 -5.892338 0.457577
-3.621948 -5.891892 0.459760
-3.626445 -5.878694 0.460090
-3.649701 -5.885965 0.463484
-3.664468 -5.883697 0.465492
-3.679559 -5.881598 0.467552
-3.694606 -5.879282 0.469605
-3.709566 -5.876716 0.471642
-3.725578 -5.875099 0.473848
-3.748476 -5.880412 0.477165
-3.754640 -5.868380 0.477772
-3.772355 -5.868066 0.480243
-3.791260 -5.868776 0.482901
-3.801502 -5.860725 0.484160
-3.826006 -5.866652 0.487707
-3.844555 -5.866520 0.490291
-3.860749 -5.863963 0.492490
-3.879454 -5.863689 0.495085
-3.897007 -5.862175 0.497489
-3.915232 -5.861160 0.499993
-3.927767 -5.854740 0.501582
-3.941352 -5.849247 0.503333
-3.957331 -5.845876 0.505459
-3.972629 -5.841797 0.507470
-4.004021 -5.851979 0.512027
-4.022100 -5.850058 0.514462
-4.052931 -5.859156 0.518905
-4.068500 -5.854702 0.520923
-4.077142 -5.844226 0.521840
-4.091676 -5.838784 0.523682
-4.110594 -5.836964 0.526206
-4.129955 -5.835375 0.528791
-4.156382 -5.839473 0.532476
-4.169780 -5.832664 0.534106
-4.188695 -5.830272 0.536593
-4.203038 -5.824074 0.538355
-4.243442 -5.838510 0.544181
-4.263626 -5.836574 0.546834
-4.282611 -5.833547 0.549291
-4.300026 -5.829169 0.551495
-4.319159 -5.825990 0.553957
-4.341188 -5.824862 0.556859
-4.364103 -5.824213 0.559887
-4.386852 -5.823245 0.562879
-4.404948 -5.818662 0.565141
-4.424103 -5.814723 0.567558
-4.443590 -5.810880 0.570016
-4.466006 -5.808980 0.572916
-4.496107 -5.812325 0.576986
-4.512818 -5.806002 0.578988
-4.541061 -5.807561 0.582748
-4.554787 -5.798890 0.584275
-4.566518 -5.788792 0.585490
-4.586137 -5.783957 0.587902
-4.600220 -5.775283 0.589463
-4.612227 -5.765164 0.590701
-4.617226 -5.750419 0.590868
-4.616353 -5.731921 0.590143
-4.619157 -5.715890 0.589974
-4.622997 -5.700581 0.589961
-4.624713 -5.683990 0.589624
-4.625351 -5.666807 0.589125
-4.621666 -5.647058 0.587974
-4.620216 -5.628808 0.587160
-4.617093 -5.609662 0.586096
-4.622531 -5.595737 0.586317
-4.629109 -5.582502 0.586707
-4.627789 -5.564674 0.585912
-4.627960 -5.547806 0.585342
-4.609694 -5.520514 0.582023
-4.596347 -5.496301 0.579445
-4.601591 -5.482696 0.579636
-4.606331 -5.468828 0.579750
-4.600752 -5.449351 0.578334
-4.568297 -5.415523 0.572944
-4.572661 -5.401793 0.573008
-4.584351 -5.391948 0.574152
-4.586156 -5.376881 0.573835
-4.573551 -5.354435 0.571398
-4.566722 -5.335151 0.569817
-4.566893 -5.319540 0.569265
-4.565493 -5.303212 0.568484
-4.562442 -5.286154 0.567463
-4.555747 -5.267425 0.565912
-4.550891 -5.249721 0.564633
-4.549206 -5.233639 0.563819
-4.547118 -5.217451 0.562947
-4.538679 -5.198406 0.561156
-4.540565 -5.184241 0.560866
-4.580972 -5.187516 0.566151
-4.671766 -5.212872 0.578700
-4.663925 -5.116928 0.574061
-4.719755 -5.078263 0.579696
-4.778182 -5.085496 0.587416
-4.725815 -5.034844 0.578795
-4.703297 -4.951771 0.572707
-4.673336 -4.883185 0.566216
-4.708435 -4.865514 0.569980
-4.648942 -4.790163 0.559441
-4.651115 -4.776780 0.559183
-4.706436 -4.764399 0.565706
-4.663372 -4.628142 0.554712
-4.676728 -4.603992 0.555401
-4.651902 -4.584901 0.551467
-4.642596 -4.569444 0.549644
-4.627182 -4.539562 0.546438
-4.646775 -4.530290 0.548520
-4.656183 -4.518852 0.549221
-4.656974 -4.505696 0.548758
-4.657136 -4.492444 0.548209
-4.650143 -4.477912 0.546699
-4.636139 -4.462227 0.544253
-4.627725 -4.447668 0.542557
-4.630335 -4.435068 0.542333
-4.615956 -4.419690 0.539844
-4.636333 -4.409986 0.541979
-4.621108 -4.394629 0.539378
-4.615361 -4.380850 0.538036
-4.630692 -4.370189 0.539484
-4.634744 -4.357824 0.539432
-4.623591 -4.343385 0.537370
-4.611404 -4.328933 0.535173
-4.609710 -4.315926 0.534358
-4.616876 -4.304018 0.534704
-4.621533 -4.291762 0.534714
-4.610822 -4.277761 0.532708
-4.606529 -4.264554 0.531541
-4.617468 -4.252949 0.532358
-4.618993 -4.240330 0.531941
-4.618183 -4.227486 0.531215
-4.615171 -4.214459 0.530200
-4.603429 -4.200736 0.528052
-4.591693 -4.187124 0.525906
-4.601737 -4.175231 0.526570
-4.601008 -4.162495 0.525837
-4.606287 -4.150150 0.525871
-4.604082 -4.137303 0.524938
-4.592271 -4.123940 0.522771
-4.593269 -4.111328 0.522241
-4.592670 -4.098623 0.521501
-4.579140 -4.085383 0.519110
-4.581469 -4.072835 0.518735
-4.580562 -4.060149 0.517942
-4.580409 -4.047477 0.517240
-4.583456 -4.034863 0.516936
-4.585190 -4.022181 0.516459
-4.583218 -4.009417 0.515508
-4.580027 -3.996644 0.514401
-4.582496 -3.983899 0.513997
-4.581901 -3.971116 0.513203
-4.575237 -3.958356 0.511647
-4.563275 -3.945699 0.509430
-4.564526 -3.932924 0.508853
-4.567842 -3.920073 0.508527
-4.593256 -3.906603 0.510923
-4.558629 -3.894694 0.505898
-4.512976 -3.883485 0.499532
-4.367884 -3.876679 0.480984
-4.336884 -3.866140 0.476483
-4.334551 -3.854462 0.475499
-4.335766 -3.842602 0.474946
-4.337276 -3.830703 0.474426
-4.340363 -3.818682 0.474095
-4.335136 -3.807203 0.472756
-4.330015 -3.795768 0.471432
-4.328590 -3.784098 0.470558
-4.328487 -3.772343 0.469845
-4.328447 -3.760600 0.469143
-4.329021 -3.748826 0.468519
-4.324133 -3.737611 0.467249
-4.323947 -3.725999 0.466547
-4.327248 -3.714060 0.466269
-4.328107 -3.702419 0.465708
-4.326822 -3.691087 0.464906
-4.324166 -3.680009 0.463955
-4.326873 -3.668361 0.463651
-4.327573 -3.657046 0.463125
-4.323556 -3.646469 0.462065
-4.322242 -3.635665 0.461341
-4.326718 -3.624160 0.461314
-4.328830 -3.613101 0.461031
-4.323105 -3.603372 0.459859
-3.450055 -5.897064 0.425679
-3.475438 -5.912019 0.429258
-3.491121 -5.914530 0.431295
-3.507386 -5.917325 0.433432
-3.521172 -5.916738 0.435182
-3.523850 -5.902638 0.435182
-3.537113 -5.900883 0.436868
-3.552452 -5.901245 0.438889
-3.568435 -5.902027 0.441017
-3.574031 -5.890620 0.441516
-3.589615 -5.890440 0.443593
-3.617637 -5.903934 0.447625
-3.616267 -5.884256 0.447051
-3.637410 -5.889468 0.450008
-3.648397 -5.883268 0.451377
-3.665009 -5.883029 0.453628
-3.682222 -5.883214 0.455972
-3.696930 -5.880531 0.457926
-3.711502 -5.877553 0.459858
-3.726094 -5.874457 0.461791
-3.744513 -5.875169 0.464317
-3.763421 -5.876183 0.466915
-3.774923 -5.869525 0.468362
-3.787989 -5.864387 0.470049
-3.807549 -5.865606 0.472735
-3.832175 -5.871603 0.476197
-3.846800 -5.867610 0.478110
-3.862732 -5.864791 0.480219
-3.880049 -5.863185 0.482535
-3.899525 -5.863489 0.485177
-3.916691 -5.861470 0.487456
-3.942218 -5.867068 0.491009
-3.951570 -5.857578 0.492077
-3.964524 -5.851380 0.493691
-3.981349 -5.848621 0.495890
-4.002549 -5.849650 0.498748
-4.020794 -5.847896 0.501147
-4.054796 -5.859776 0.505934
-4.071418 -5.856226 0.508067
-4.081957 -5.847363 0.509269
-4.094506 -5.840205 0.510769
-4.108997 -5.834645 0.512556
-4.133562 -5.837409 0.515860
-4.162632 -5.843663 0.519832
-4.180162 -5.840189 0.522051
-4.192319 -5.832253 0.523452
-4.211708 -5.830081 0.525934
-4.239829 -5.834696 0.529718
-4.262417 -5.834684 0.532660
-4.285927 -5.835197 0.535729
-4.316421 -5.840891 0.539832
-4.331834 -5.834755 0.541667
-4.346828 -5.828217 0.543432
-4.371421 -5.828792 0.546620
-4.394299 -5.827872 0.549541
-4.411013 -5.822228 0.551535
-4.427150 -5.816057 0.553435
-4.453878 -5.817420 0.556898
-4.468793 -5.810102 0.558598
-4.486876 -5.804938 0.560760
-4.510919 -5.803819 0.563793
-4.541391 -5.806942 0.567763
-4.550090 -5.794830 0.568513
-4.569986 -5.790321 0.570905
-4.584512 -5.782047 0.572499
-4.602682 -5.776116 0.574620
-4.613154 -5.764980 0.575605
-4.620153 -5.751548 0.576076
-4.617903 -5.732156 0.575193
-4.618040 -5.714424 0.574658
-4.621080 -5.698630 0.574545
-4.623511 -5.682514 0.574341
-4.622833 -5.664538 0.573684
-4.619620 -5.645111 0.572659
-4.611021 -5.622549 0.570855
-4.619382 -5.610377 0.571507
-4.619014 -5.592999 0.570894
-4.620736 -5.576944 0.570583
-4.621795 -5.560567 0.570175
-4.612908 -5.538536 0.568336
-4.608829 -5.519436 0.567191
-4.603993 -5.500041 0.565939
-4.594202 -5.478024 0.563980
-4.601557 -5.465655 0.564476
-4.603674 -5.450418 0.564222
-4.576298 -5.419331 0.559762
-4.574980 -5.402538 0.559023
-4.581235 -5.389826 0.559362
-4.578216 -5.372277 0.558382
-4.571170 -5.352759 0.556832
-4.569846 -5.336308 0.556097
-4.567676 -5.319514 0.555242
-4.566780 -5.303446 0.554569
-4.560015 -5.284569 0.553069
-4.555927 -5.267135 0.551950
-4.551211 -5.249511 0.550744
-4.547783 -5.232615 0.549722
-4.544718 -5.215991 0.548753
-4.541106 -5.199210 0.547710
-4.538714 -5.183087 0.546839
-4.539661 -5.168560 0.546435
-4.729640 -5.238389 0.572368
-4.673455 -5.197735 0.563979
-4.730450 -5.113109 0.567925
-4.804510 -5.111220 0.576965
-4.677253 -4.986823 0.556736
-4.676956 -4.971941 0.556148
-4.678337 -4.884812 0.553059
-4.680435 -4.842314 0.551710
-4.667042 -4.809724 0.548831
-4.696549 -4.775874 0.551148
-4.700737 -4.762893 0.551161
-4.688324 -4.745332 0.548964
-4.691492 -4.732160 0.548841
-4.674902 -4.713745 0.546097
-4.663341 -4.696848 0.544025
-4.648355 -4.679231 0.541504
-4.658982 -4.668228 0.542370
-4.662683 -4.655455 0.542319
-4.660069 -4.641161 0.541434
-4.668805 -4.629610 0.542041
-4.664295 -4.614947 0.540906
-4.674153 -4.603615 0.541655
-4.670723 -4.589279 0.540659
-4.656473 -4.572669 0.538251
-4.652514 -4.558408 0.537189
-4.650427 -4.544605 0.536372
-4.645121 -4.530203 0.535135
-4.653897 -4.518658 0.535728
-4.655649 -4.505707 0.535404
-4.651964 -4.491749 0.534375
-4.653154 -4.478744 0.533975
-4.645396 -4.464161 0.532417
-4.639587 -4.450016 0.531112
-4.630558 -4.435409 0.529393
-4.631976 -4.422619 0.529017
-4.628578 -4.409073 0.528020
-4.618736 -4.394588 0.526197
-4.616286 -4.381320 0.525320
-4.623497 -4.369489 0.525674
-4.629137 -4.357388 0.525821
-4.627279 -4.344237 0.525010
-4.615300 -4.329799 0.522910
-4.615170 -4.316977 0.522315
-4.620520 -4.304831 0.522409
-4.621228 -4.292107 0.521911
-4.616678 -4.278799 0.520745
-4.618586 -4.266232 0.520390
-4.618144 -4.253416 0.519735
-4.614511 -4.240298 0.518675
-4.610494 -4.227183 0.517565
-4.610133 -4.214432 0.516908
-4.603884 -4.201194 0.515512
-4.601476 -4.188318 0.514593
-4.602422 -4.175712 0.514086
-4.607624 -4.163390 0.514102
-4.611549 -4.150932 0.513952
-4.611495 -4.138195 0.513303
-4.606864 -4.125198 0.512083
-4.597187 -4.111982 0.510239
-4.594948 -4.099189 0.509307
-4.592989 -4.086418 0.508405
-4.590029 -4.073617 0.507375
-4.582836 -4.060696 0.505824
-4.577007 -4.047866 0.504436
-4.580288 -4.035278 0.504153
-4.582787 -4.022630 0.503767
-4.583950 -4.009923 0.503212
-4.582751 -3.997167 0.502364
-4.585478 -3.984416 0.501984
-4.588291 -3.971619 0.501607
-4.578280 -3.958855 0.499682
-4.566764 -3.946181 0.497576
-4.566293 -3.933423 0.496791
-4.576353 -3.920431 0.497256
-4.571211 -3.907708 0.495901
-4.547194 -3.895583 0.492303
-4.503277 -3.884367 0.486358
-4.371418 -3.877058 0.470045
-4.333379 -3.866817 0.464858
-4.334188 -3.855007 0.464257
-4.339239 -3.842948 0.464150
-4.343992 -3.830849 0.464004
-4.340527 -3.819225 0.462894
-4.333436 -3.807882 0.461363
-4.323554 -3.796815 0.459513
-4.325317 -3.784936 0.459018
-4.328967 -3.772896 0.458743
-4.329789 -3.761088 0.458143
-4.326240 -3.749703 0.457045
-4.325318 -3.738127 0.456256
-4.327739 -3.726256 0.455857
-4.332644 -3.714144 0.455750
-4.332034 -3.702661 0.455022
-4.325115 -3.691986 0.453590
-4.321472 -3.681053 0.452547
-4.322196 -3.669688 0.452014
-4.322288 -3.658496 0.451427
-4.320365 -3.647680 0.450630
-4.322434 -3.636439 0.450304
-4.328634 -3.624709 0.450461
-4.327589 -3.614136 0.449827
-4.297467 -3.608170 0.445970
-3.464394 -5.913080 0.416735
-3.485365 -5.922501 0.419492
-3.475874 -5.894331 0.417628
-3.493202 -5.898605 0.419854
-3.511384 -5.903461 0.422218
-3.526001 -5.903657 0.424050
-3.540794 -5.903712 0.425918
-3.555121 -5.902894 0.427724
-3.565479 -5.897196 0.428941
-3.579449 -5.895422 0.430710
-3.597291 -5.897770 0.433067
-3.600064 -5.882904 0.433168
-3.631554 -5.899932 0.437581
-3.632801 -5.883125 0.437466
-3.652649 -5.886654 0.440140
-3.665001 -5.881796 0.441695
-3.680319 -5.879976 0.443695
-3.695861 -5.878216 0.445729
-3.709167 -5.873940 0.447430
-3.727023 -5.874275 0.449808
-3.743961 -5.873469 0.452047
-3.761794 -5.873407 0.454416
-3.776782 -5.870297 0.456361
-3.790045 -5.865351 0.458046
-3.807150 -5.864131 0.460297
-3.829988 -5.868386 0.463390
-3.849615 -5.869281 0.466003
-3.860701 -5.861788 0.467349
-3.876573 -5.858834 0.469396
-3.898255 -5.861257 0.472293
-3.913529 -5.857491 0.474239
-3.929759 -5.854522 0.476319
-3.956327 -5.860924 0.479910
-3.969637 -5.855017 0.481547
-3.985913 -5.851727 0.483612
-4.002054 -5.848220 0.485649
-4.024800 -5.850443 0.488644
-4.051349 -5.855781 0.492184
-4.069057 -5.853206 0.494424
-4.082980 -5.847271 0.496105
-4.100589 -5.844407 0.498314
-4.118616 -5.841778 0.500575
-4.153586 -5.853131 0.505288
-4.165739 -5.845278 0.506677
-4.181208 -5.840104 0.508539
-4.197523 -5.835530 0.510516
-4.216694 -5.833148 0.512897
-4.238688 -5.832867 0.515676
-4.262547 -5.833868 0.518713
-4.286320 -5.834589 0.521727
-4.321224 -5.843682 0.526331
-4.331073 -5.833271 0.527321
-4.352168 -5.831359 0.529918
-4.375887 -5.831244 0.532881
-4.396894 -5.828912 0.535445
-4.416411 -5.825316 0.537786
-4.437194 -5.822495 0.540298
-4.455638 -5.817824 0.542467
-4.476099 -5.814458 0.544914
-4.488077 -5.804942 0.546145
-4.508283 -5.801136 0.548538
-4.530232 -5.798379 0.551169
-4.565188 -5.804359 0.555632
-4.568297 -5.788360 0.555575
-4.587873 -5.783502 0.557841
-4.599392 -5.773132 0.558961
-4.615350 -5.765643 0.560701
-4.617301 -5.748917 0.560462
-4.619553 -5.732465 0.560264
-4.625681 -5.718566 0.560607
-4.618546 -5.696300 0.559088
-4.618613 -5.678735 0.558578
-4.618626 -5.661232 0.558060
-4.619655 -5.644449 0.557682
-4.615656 -5.624695 0.556602
-4.608955 -5.603461 0.555147
-4.616701 -5.590985 0.555701
-4.620247 -5.576031 0.555669
-4.615870 -5.556509 0.554536
-4.611117 -5.536911 0.553353
-4.606911 -5.517765 0.552246
-4.611103 -5.503482 0.552300
-4.603338 -5.482566 0.550704
-4.588117 -5.457715 0.548085
-4.596421 -5.445944 0.548704
-4.592629 -5.427630 0.547660
-4.588428 -5.409217 0.546561
-4.566525 -5.381600 0.543042
-4.570857 -5.367983 0.543116
-4.572912 -5.353211 0.542877
-4.567506 -5.334685 0.541622
-4.565912 -5.318210 0.540887
-4.566017 -5.302664 0.540384
-4.562237 -5.285273 0.539355
-4.558900 -5.268206 0.538387
-4.554627 -5.250791 0.537294
-4.541997 -5.229526 0.535074
-4.538787 -5.212880 0.534130
-4.538716 -5.197785 0.533611
-4.540529 -5.183612 0.533346
-4.570103 -5.182014 0.536810
-4.674248 -5.182279 0.549200
-4.747942 -5.073542 0.554169
-4.740163 -5.055232 0.552604
-4.725651 -5.034538 0.550156
-4.700939 -5.010288 0.546373
-4.684801 -4.989474 0.543726
-4.688821 -4.976112 0.543729
-4.722253 -4.973150 0.547580
-4.728630 -4.960470 0.547883
-4.721071 -4.942999 0.546365
-4.714432 -4.925969 0.544970
-4.695673 -4.905031 0.542001
-4.700871 -4.892172 0.542153
-4.705539 -4.879138 0.542234
-4.709459 -4.865867 0.542217
-4.718968 -4.854344 0.542922
-4.723535 -4.841256 0.542985
-4.721377 -4.826142 0.542179
-4.689055 -4.802162 0.537488
-4.696251 -4.790060 0.537892
-4.699135 -4.776695 0.537740
-4.697734 -4.762141 0.537037
-4.688978 -4.745615 0.535393
-4.684258 -4.730313 0.534267
-4.684647 -4.716458 0.533796
-4.682127 -4.701882 0.532953
-4.681318 -4.687809 0.532328
-4.677191 -4.672949 0.531281
-4.669091 -4.657194 0.529730
-4.671630 -4.644120 0.529530
-4.672671 -4.630704 0.529139
-4.670383 -4.616545 0.528326
-4.670628 -4.603017 0.527832
-4.679299 -4.591388 0.528399
-4.672840 -4.576431 0.527057
-4.660336 -4.560290 0.524956
-4.657560 -4.546315 0.524079
-4.660288 -4.533510 0.523892
-4.653705 -4.518872 0.522536
-4.656339 -4.506100 0.522333
-4.653604 -4.492324 0.521456
-4.653553 -4.479092 0.520913
-4.651335 -4.465501 0.520099
-4.641119 -4.450572 0.518290
-4.634628 -4.436391 0.516944
-4.632012 -4.422929 0.516078
-4.628275 -4.409337 0.515071
-4.622227 -4.395443 0.513777
-4.619026 -4.382052 0.512834
-4.621246 -4.369495 0.512555
-4.628908 -4.357695 0.512939
-4.617208 -4.343221 0.510945
-4.619250 -4.330665 0.510633
-4.618495 -4.317752 0.509974
-4.615948 -4.304642 0.509094
-4.617835 -4.292082 0.508750
-4.627245 -4.280355 0.509314
-4.610658 -4.265766 0.506718
-4.620958 -4.254091 0.507379
-4.613252 -4.240568 0.505856
-4.615700 -4.228065 0.505555
-4.615263 -4.215288 0.504900
-4.607099 -4.201871 0.503313
-4.603751 -4.188911 0.502302
-4.602365 -4.176126 0.501521
-4.605341 -4.163656 0.501257
-4.608253 -4.151149 0.500977
-4.608507 -4.138451 0.500375
-4.599566 -4.125234 0.498674
-4.598527 -4.112494 0.497908
-4.596680 -4.099716 0.497040
-4.598785 -4.087110 0.496634
-4.596835 -4.074322 0.495742
-4.587496 -4.061305 0.493977
-4.582449 -4.048478 0.492713
-4.580719 -4.035758 0.491833
-4.586254 -4.023166 0.491795
-4.580184 -4.010353 0.490396
-4.585972 -3.997678 0.490372
-4.589988 -3.984922 0.490133
-4.584856 -3.972120 0.488826
-4.577743 -3.959357 0.487287
-4.568483 -3.946665 0.485497
-4.564278 -3.933963 0.484288
-4.569047 -3.921096 0.484103
-4.561315 -3.908478 0.482481
-4.542415 -3.896250 0.479583
-4.520017 -3.884305 0.476292
-4.376716 -3.877349 0.459283
-4.338688 -3.867081 0.454273
-4.338010 -3.855327 0.453501
-4.346088 -3.843095 0.453713
-4.338065 -3.831725 0.452108
-4.337909 -3.819926 0.451388
-4.330242 -3.808644 0.449829
-4.323356 -3.797380 0.448361
-4.322541 -3.785717 0.447574
-4.333357 -3.773106 0.448080
-4.332121 -3.761471 0.447250
-4.329569 -3.749995 0.446281
-4.324684 -3.738804 0.445063
-4.330544 -3.726601 0.445035
-4.331434 -3.714924 0.444470
-4.329270 -3.703637 0.443581
-4.322238 -3.693004 0.442175
-4.319704 -3.681970 0.441276
-4.321260 -3.670530 0.440839
-4.319817 -3.659563 0.440094
-4.318871 -3.648649 0.439423
-4.321088 -3.637418 0.439114
-4.332892 -3.624913 0.439858
-4.319243 -3.616217 0.437887
-4.275945 -3.612313 0.432770
-3.498071 -5.952972 0.410423
-3.489565 -5.925953 0.408781
-3.496475 -5.917735 0.409395
-3.488329 -5.891143 0.407849
-3.505177 -5.894497 0.409933
-3.526707 -5.902977 0.412703
-3.541262 -5.902784 0.414476
-3.554492 -5.900723 0.416070
-3.566197 -5.896622 0.417455
-3.580189 -5.894900 0.419178
-3.594515 -5.893295 0.420957
-3.607499 -5.889934 0.422552
-3.617020 -5.882527 0.423658
-3.638819 -5.888495 0.426525
-3.647799 -5.880153 0.427565
-3.665621 -5.881268 0.429870
-3.680665 -5.879170 0.431782
-3.694533 -5.875657 0.433528
-3.708269 -5.871865 0.435257
-3.723567 -5.869570 0.437207
-3.747208 -5.875703 0.440341
-3.762172 -5.872702 0.442241
-3.775434 -5.867863 0.443898
-3.802935 -5.877159 0.447568
-3.811574 -5.867456 0.448563
-3.834863 -5.872118 0.451627
-3.847801 -5.866489 0.453223
-3.860374 -5.860453 0.454763
-3.879659 -5.860759 0.457244
-3.895798 -5.857936 0.459275
-3.909409 -5.852648 0.460945
-3.924349 -5.848533 0.462795
-3.947292 -5.851665 0.465763
-3.968692 -5.853181 0.468506
-3.982305 -5.847516 0.470148
-4.000994 -5.846314 0.472494
-4.026352 -5.850851 0.475766
-4.050781 -5.854328 0.478897
-4.060945 -5.845241 0.480025
-4.083470 -5.846745 0.482873
-4.102468 -5.845061 0.485218
-4.121341 -5.843133 0.487536
-4.141778 -5.842371 0.490064
-4.168155 -5.846342 0.493407
-4.183670 -5.841193 0.495231
-4.200677 -5.837167 0.497253
-4.219388 -5.834398 0.499503
-4.237660 -5.831148 0.501682
-4.257052 -5.828650 0.504007
-4.276582 -5.826116 0.506342
-4.295937 -5.823300 0.508643
-4.323262 -5.826423 0.512033
-4.354627 -5.832337 0.515966
-4.376732 -5.831002 0.518614
-4.398166 -5.828985 0.521158
-4.420920 -5.827764 0.523874
-4.442211 -5.825286 0.526379
-4.464869 -5.823620 0.529060
-4.477886 -5.814890 0.530414
-4.493091 -5.807649 0.532059
-4.507006 -5.799417 0.533521
-4.531421 -5.798383 0.536404
-4.549394 -5.792718 0.538401
-4.575034 -5.792129 0.541430
-4.585806 -5.781319 0.542432
