ply
format ascii 1.0
comment ---
element vertex 1594
property float x
property float y
property float z
element face 0
property list uchar uint vertex_indices
end_header
-4.065684 -1.962525 -0.206973
-4.059717 -1.949254 -0.204701
-4.056911 -1.937452 -0.202794
-4.059632 -1.928032 -0.201485
-4.060815 -1.918092 -0.200064
-4.051096 -1.903975 -0.197621
-4.050199 -1.893522 -0.196101
-4.053395 -1.884789 -0.195032
-4.051890 -1.874389 -0.193563
-4.049734 -1.863910 -0.192092
-4.051387 -1.855013 -0.191044
-4.049321 -1.844903 -0.189706
-4.051759 -1.836597 -0.188856
-4.053654 -1.828241 -0.188016
-4.054527 -1.819677 -0.187145
-4.055642 -1.811359 -0.186361
-4.049561 -1.800739 -0.184981
-3.127996 -6.057483 -0.572859
-3.127482 -5.967210 -0.563396
-3.170264 -5.982645 -0.567542
-3.192013 -5.989021 -0.569672
-3.229705 -5.972382 -0.570909
-3.259411 -6.006451 -0.576704
-3.275921 -5.985166 -0.576126
-3.298440 -5.986862 -0.578378
-3.314969 -5.964134 -0.577852
-3.327805 -5.927011 -0.575704
-3.343542 -5.900850 -0.574945
-3.380177 -5.950921 -0.583434
-3.407797 -5.965895 -0.587834
-3.415204 -5.908105 -0.583510
-3.440928 -5.914966 -0.587092
-3.477003 -5.956095 -0.594959
-3.497696 -5.943562 -0.596338
-3.516571 -5.924791 -0.596995
-3.545253 -5.937810 -0.601642
-3.579081 -5.966237 -0.608283
-3.592253 -5.928475 -0.606687
-3.621201 -5.940120 -0.611323
-3.648402 -5.945662 -0.615233
-3.672387 -5.941034 -0.617880
-3.687522 -5.910169 -0.617175
-3.712934 -5.909677 -0.620366
-3.738030 -5.907999 -0.623416
-3.767847 -5.919347 -0.628171
-4.116006 -5.868322 -0.666480
-4.131383 -5.842454 -0.665955
-4.155414 -5.836530 -0.668196
-4.179343 -5.830351 -0.670375
-4.205727 -5.829525 -0.673290
-4.230657 -5.825388 -0.675714
-4.260806 -5.832332 -0.679708
-4.287433 -5.831471 -0.682566
-4.309344 -5.820591 -0.683953
-4.333533 -5.814473 -0.686003
-4.358441 -5.809763 -0.688235
-4.389106 -5.816565 -0.692136
-4.417270 -5.818017 -0.695240
-4.447304 -5.822906 -0.698840
-4.460983 -5.795639 -0.697650
-4.483403 -5.785591 -0.698982
-4.501668 -5.767644 -0.699105
-4.529541 -5.767949 -0.701940
-4.551955 -5.757863 -0.703193
-4.572614 -5.744541 -0.703931
-4.580269 -5.707620 -0.701047
-4.584623 -5.665329 -0.697288
-4.577134 -5.602637 -0.690338
-4.558984 -5.522290 -0.680585
-4.171312 -3.005012 -0.372642
-4.188632 -3.002790 -0.373502
-4.188787 -2.985395 -0.371365
-4.185024 -2.964743 -0.368563
-4.196697 -2.957568 -0.368421
-4.191930 -2.936343 -0.365468
-4.184801 -2.913341 -0.362133
-4.178590 -2.891356 -0.358976
-4.175229 -2.871962 -0.356317
-4.178885 -2.858505 -0.354839
-4.179744 -2.842849 -0.352899
-4.173638 -2.821697 -0.349820
-4.170714 -2.803300 -0.347280
-4.170333 -2.787076 -0.345164
-4.167614 -2.769146 -0.342678
-4.166798 -2.752846 -0.340508
-4.154256 -2.727672 -0.336475
-4.164290 -2.719956 -0.336049
-4.170484 -2.709310 -0.335003
-4.165212 -2.690130 -0.332154
-4.158438 -2.670020 -0.329084
-4.152961 -2.651057 -0.326231
-4.153178 -2.636395 -0.324266
-4.148279 -2.618158 -0.321522
-4.147513 -2.603019 -0.319416
-4.138112 -2.581910 -0.316011
-4.136355 -2.566344 -0.313770
-4.141247 -2.555476 -0.312524
-4.146994 -2.545211 -0.311396
-4.144763 -2.529558 -0.309083
-4.136460 -2.509952 -0.305887
-4.135494 -2.495400 -0.303771
-4.136841 -2.482456 -0.301989
-4.135570 -2.467870 -0.299829
-4.132426 -2.452170 -0.297402
-4.119695 -2.430483 -0.293624
-4.127755 -2.422126 -0.292788
-4.130023 -2.410123 -0.291126
-4.124674 -2.393459 -0.288402
-4.124017 -2.379792 -0.286330
-4.119052 -2.363595 -0.283668
-4.119764 -2.350916 -0.281783
-4.122846 -2.339690 -0.280212
-4.115979 -2.322663 -0.277301
-4.108701 -2.305542 -0.274345
-4.107258 -2.291909 -0.272169
-4.109059 -2.280186 -0.270416
-4.107433 -2.266575 -0.268212
-4.108949 -2.254777 -0.266412
-4.108869 -2.242140 -0.264402
-4.093233 -2.221128 -0.260416
-4.090574 -2.207309 -0.258092
-4.086596 -2.192874 -0.255607
-4.103603 -2.189525 -0.255730
-4.090119 -2.170242 -0.252068
-4.088379 -2.157179 -0.249867
-4.080897 -2.141286 -0.246974
-4.083008 -2.130326 -0.245250
-4.085131 -2.119401 -0.243527
-4.084769 -2.107294 -0.241510
-4.075333 -2.090875 -0.238437
-4.073751 -2.078363 -0.236302
-4.074060 -2.066821 -0.234398
-4.072990 -2.054698 -0.232346
-4.070281 -2.041902 -0.230124
-4.067491 -2.029170 -0.227913
-4.067456 -2.017776 -0.226032
-4.062581 -2.004323 -0.223636
-4.058937 -1.991543 -0.221407
-4.060210 -1.981009 -0.219745
-4.064531 -1.971850 -0.218438
-4.062663 -1.960142 -0.216492
-4.060413 -1.948401 -0.214545
-4.055976 -1.935899 -0.212408
-4.059224 -1.926661 -0.211122
-4.058610 -1.915972 -0.209475
-4.054232 -1.903936 -0.207488
-4.054158 -1.893749 -0.205997
-4.055041 -1.884068 -0.204656
-4.056983 -1.874923 -0.203474
-4.053728 -1.863968 -0.201828
-4.049235 -1.852742 -0.200122
-4.047719 -1.842800 -0.198777
-4.048711 -1.833936 -0.197743
-4.055194 -1.827175 -0.197308
-4.060050 -1.819955 -0.196773
-4.057191 -1.810192 -0.195552
-4.053982 -1.800508 -0.194366
-3.108934 -5.984743 -0.585838
-3.165863 -5.976367 -0.588505
-3.183163 -5.963243 -0.588415
-3.205624 -5.970808 -0.590964
-3.229926 -5.984212 -0.594362
-3.253723 -5.993599 -0.597413
-3.274917 -5.990810 -0.599107
-3.295818 -5.985632 -0.600631
-3.316731 -5.979404 -0.602140
-3.327778 -5.934782 -0.599001
-3.354224 -5.947973 -0.603119
-3.386056 -5.979368 -0.609629
-3.403720 -5.957743 -0.609614
-3.417496 -5.922219 -0.607912
-3.439000 -5.913916 -0.609700
-3.474090 -5.951487 -0.617393
-3.487611 -5.914719 -0.615692
-3.510482 -5.909374 -0.618047
-3.533350 -5.903606 -0.620394
-3.551296 -5.881787 -0.620699
-3.587527 -5.917552 -0.628533
-3.598929 -5.875076 -0.626187
-3.635255 -5.909243 -0.633921
-3.664817 -5.921735 -0.638855
-3.688986 -5.917624 -0.641613
-3.714199 -5.916347 -0.644762
-3.735934 -5.904892 -0.646552
-3.752942 -5.880236 -0.646546
-3.862457 -5.761456 -0.649854
-4.107478 -5.850453 -0.688045
-4.130963 -5.843269 -0.690150
-4.153116 -5.833093 -0.691792
-4.180155 -5.833849 -0.695009
-4.206330 -5.832509 -0.697901
-4.233393 -5.832944 -0.701037
-4.259173 -5.830433 -0.703719
-4.287709 -5.833620 -0.707232
-4.310594 -5.824729 -0.708920
-4.332383 -5.813591 -0.710240
-4.358359 -5.811058 -0.712835
-4.388766 -5.817312 -0.716747
-4.417535 -5.819945 -0.720099
-4.442727 -5.815263 -0.722318
-4.457742 -5.790660 -0.721451
-4.481732 -5.783670 -0.723262
-4.507844 -5.780654 -0.725668
-4.531313 -5.772507 -0.727259
-4.548582 -5.752776 -0.727017
-4.572223 -5.694089 -0.723396
-4.555777 -5.565634 -0.708512
-4.578565 -5.510076 -0.704951
-4.542382 -5.355353 -0.685241
-4.536916 -5.301379 -0.679023
-4.179456 -3.011433 -0.387311
-4.182693 -2.996680 -0.385672
-4.177392 -2.974546 -0.382505
-4.182632 -2.961791 -0.381241
-4.194903 -2.955136 -0.381225
-4.185493 -2.929967 -0.377370
-4.172715 -2.902248 -0.372954
-4.173014 -2.885792 -0.370853
-4.175376 -2.871173 -0.369119
-4.173846 -2.853456 -0.366718
-4.176513 -2.839300 -0.365047
-4.174123 -2.821161 -0.362517
-4.171939 -2.803345 -0.360035
-4.168455 -2.784658 -0.357345
-4.172053 -2.771679 -0.355854
-4.172349 -2.756203 -0.353812
-4.166795 -2.736351 -0.350809
-4.160038 -2.715777 -0.347624
-4.163179 -2.702858 -0.346075
-4.164745 -2.688827 -0.344268
-4.160242 -2.670397 -0.341482
-4.155355 -2.651853 -0.338647
-4.148942 -2.632373 -0.335582
-4.146406 -2.615860 -0.333146
-4.144892 -2.600203 -0.330879
-4.139240 -2.581750 -0.327969
-4.137737 -2.566354 -0.325717
-4.142066 -2.555086 -0.324371
-4.143542 -2.541897 -0.322579
-4.140055 -2.525420 -0.320028
-4.139060 -2.510738 -0.317861
-4.140510 -2.497769 -0.316064
-4.142654 -2.485314 -0.314368
-4.141967 -2.471070 -0.312245
-4.136197 -2.453644 -0.309372
-4.131171 -2.436838 -0.306617
-4.122605 -2.417941 -0.303353
-4.126586 -2.407038 -0.301923
-4.128783 -2.395051 -0.300226
-4.121331 -2.377216 -0.297142
-4.117620 -2.361796 -0.294601
-4.117692 -2.348745 -0.292598
-4.122619 -2.338623 -0.291272
-4.123086 -2.325890 -0.289313
-4.110258 -2.305519 -0.285514
-4.105681 -2.290085 -0.282868
-4.106993 -2.278095 -0.281029
-4.108276 -2.266127 -0.279181
-4.107022 -2.252792 -0.276987
-4.104336 -2.238740 -0.274602
-4.101504 -2.224693 -0.272200
-4.098783 -2.210791 -0.269816
-4.097880 -2.197935 -0.267672
-4.093703 -2.183427 -0.265106
-4.088990 -2.168742 -0.262479
-4.083916 -2.153980 -0.259815
-4.081559 -2.140702 -0.257506
-4.078304 -2.127056 -0.255090
-4.083158 -2.117499 -0.253690
-4.085843 -2.106882 -0.252018
-4.077298 -2.090883 -0.248974
-4.072421 -2.076785 -0.246397
-4.072801 -2.065273 -0.244472
-4.069791 -2.052246 -0.242151
-4.067965 -2.039860 -0.239989
-4.067339 -2.028109 -0.237985
-4.067309 -2.016702 -0.236069
-4.065365 -2.004526 -0.233951
-4.059246 -1.990634 -0.231381
-4.057913 -1.978955 -0.229390
-4.059466 -1.968606 -0.227754
-4.062092 -1.958786 -0.226266
-4.057777 -1.946166 -0.224036
-4.056428 -1.934912 -0.222177
-4.056801 -1.924479 -0.220548
-4.059047 -1.914907 -0.219164
-4.056626 -1.903605 -0.217320
-4.057451 -1.893717 -0.215875
-4.059098 -1.884272 -0.214567
-4.059774 -1.874588 -0.213209
-4.057606 -1.863985 -0.211609
-4.052934 -1.852635 -0.209809
-4.046549 -1.840866 -0.207899
-4.048522 -1.832314 -0.206918
-4.055415 -1.825651 -0.206502
-4.061958 -1.818971 -0.206106
-4.058356 -1.808903 -0.204742
-4.059188 -1.800550 -0.203895
-3.124653 -5.983184 -0.608301
-3.164377 -5.982759 -0.611062
-3.181668 -5.968966 -0.610944
-3.224643 -5.973108 -0.615085
-3.250605 -5.991117 -0.619374
-3.270369 -5.982203 -0.620383
-3.296421 -5.997043 -0.624537
-3.314397 -5.978844 -0.624592
-3.335881 -5.973423 -0.626385
-3.359551 -5.975243 -0.629214
-3.385040 -5.982615 -0.632865
-3.399059 -5.947464 -0.631080
-3.413240 -5.913219 -0.629460
-3.436201 -5.909854 -0.631937
-3.463621 -5.921082 -0.636410
-3.486193 -5.914960 -0.638660
-3.505163 -5.896520 -0.639319
-3.529361 -5.895083 -0.642285
-3.555965 -5.900851 -0.646266
-3.573732 -5.878203 -0.646448
-3.599272 -5.879859 -0.649940
-3.619601 -5.865227 -0.651235
-3.653018 -5.889844 -0.657928
-3.688801 -5.920319 -0.665484
-3.710620 -5.909069 -0.667303
-3.735317 -5.906092 -0.670272
-3.762021 -5.908585 -0.674010
-3.828722 -5.676879 -0.660847
-3.883079 -5.751120 -0.674827
-4.108732 -5.855251 -0.712838
-4.126967 -5.836018 -0.713148
-4.153363 -5.835467 -0.716242
-4.178843 -5.832714 -0.718985
-4.203093 -5.827148 -0.721278
-4.228772 -5.824636 -0.724016
-4.251813 -5.816348 -0.725845
-4.283862 -5.827122 -0.730595
-4.310350 -5.825823 -0.733469
-4.341054 -5.833064 -0.737657
-4.364260 -5.824630 -0.739385
-4.392927 -5.827201 -0.742818
-4.417717 -5.821777 -0.744978
-4.442939 -5.817115 -0.747237
-4.459655 -5.795778 -0.746823
-4.477793 -5.777443 -0.746850
-4.504305 -5.775239 -0.749429
-4.532256 -5.775568 -0.752403
-4.545810 -5.748863 -0.750994
-4.568037 -5.738479 -0.752192
-4.573904 -5.698310 -0.748513
-4.573925 -5.648254 -0.743158
-4.548989 -5.459515 -0.720294
-4.555731 -5.424756 -0.717180
-4.576089 -5.413718 -0.717971
-4.183886 -3.014527 -0.401397
-4.186375 -2.999065 -0.399575
-4.178113 -2.974304 -0.395765
-4.180125 -2.958732 -0.393881
-4.179087 -2.940651 -0.391444
-4.187656 -2.930905 -0.390774
-4.180943 -2.908279 -0.387324
-4.174474 -2.886099 -0.383942
-4.167472 -2.863714 -0.380488
-4.171438 -2.850557 -0.379014
-4.172446 -2.835065 -0.377017
-4.173250 -2.819520 -0.374990
-4.174584 -2.804510 -0.373062
-4.174951 -2.788837 -0.370971
-4.172350 -2.770958 -0.368372
-4.170570 -2.753870 -0.365927
-4.162891 -2.732400 -0.362482
-4.161563 -2.715976 -0.360140
-4.156694 -2.697017 -0.357206
-4.159842 -2.684207 -0.355636
-4.160216 -2.669410 -0.353601
-4.153439 -2.649485 -0.350380
-4.148334 -2.630966 -0.347453
-4.147995 -2.616031 -0.345323
-4.148722 -2.601952 -0.343370
-4.141791 -2.582574 -0.340175
-4.137268 -2.565059 -0.337385
-4.141629 -2.553813 -0.336030
-4.148109 -2.544040 -0.335005
-4.142250 -2.525931 -0.332015
-4.141220 -2.511212 -0.329797
-4.142218 -2.497929 -0.327898
-4.146335 -2.486755 -0.326481
-4.140834 -2.469365 -0.323572
-4.134042 -2.451293 -0.320475
-4.125449 -2.432239 -0.317116
-4.119420 -2.414980 -0.314161
-4.121481 -2.402902 -0.312433
-4.123487 -2.390831 -0.310690
-4.122332 -2.376871 -0.308472
-4.119997 -2.362279 -0.306080
-4.119744 -2.349020 -0.303996
-4.117208 -2.334478 -0.301577
-4.117361 -2.321596 -0.299548
-4.117702 -2.308878 -0.297543
-4.108936 -2.291007 -0.294238
-4.103686 -2.275287 -0.291444
-4.107802 -2.264924 -0.289973
-4.106776 -2.251719 -0.287775
-4.104305 -2.237788 -0.285375
-4.105197 -2.225757 -0.283440
-4.104318 -2.212818 -0.281260
-4.094964 -2.195460 -0.277932
-4.090086 -2.180604 -0.275223
-4.085043 -2.165772 -0.272502
-4.084054 -2.153119 -0.270327
-4.081343 -2.139659 -0.267928
-4.079321 -2.126626 -0.265627
-4.077095 -2.113568 -0.263305
-4.083090 -2.104591 -0.262047
-4.080650 -2.091541 -0.259708
-4.073475 -2.076326 -0.256782
-4.071845 -2.063855 -0.254573
-4.069117 -2.050954 -0.252240
-4.068904 -2.039301 -0.250235
-4.067611 -2.027227 -0.248112
-4.063262 -2.013875 -0.245636
-4.063699 -2.002757 -0.243763
-4.060647 -1.990193 -0.241494
-4.057102 -1.977535 -0.239195
-4.059443 -1.967501 -0.237622
-4.059620 -1.956629 -0.235821
-4.058151 -1.945174 -0.233861
-4.055562 -1.933385 -0.231810
-4.062554 -1.925590 -0.230895
-4.059343 -1.913786 -0.228855
-4.060976 -1.904038 -0.227409
-4.062088 -1.894203 -0.225949
-4.061945 -1.884012 -0.224400
-4.059308 -1.873025 -0.222629
-4.056705 -1.862224 -0.220921
-4.051939 -1.850806 -0.219039
-4.049604 -1.840472 -0.217486
-4.049414 -1.831089 -0.216229
-4.056479 -1.824434 -0.215809
-4.057524 -1.815784 -0.214806
-4.053586 -1.805580 -0.213339
-4.042058 -1.793003 -0.211142
-3.116843 -6.051918 -0.637467
-3.133375 -6.037409 -0.636926
-3.154260 -6.041188 -0.638882
-3.164700 -5.997055 -0.634765
-3.179033 -5.969696 -0.632935
-3.199288 -5.966886 -0.634421
-3.220436 -5.966365 -0.636334
-3.241234 -5.962958 -0.637998
-3.268712 -5.985126 -0.643151
-3.292675 -5.991292 -0.646330
-3.311822 -5.977316 -0.646958
-3.331948 -5.966384 -0.648088
-3.362887 -5.995142 -0.654620
-3.381269 -5.975760 -0.654815
-3.397343 -5.947792 -0.653919
-3.410354 -5.909066 -0.651615
-3.434811 -5.910716 -0.654839
-3.460912 -5.917192 -0.658795
-3.486640 -5.921516 -0.662528
-3.501349 -5.888664 -0.661186
-3.542146 -5.941106 -0.671692
-3.563915 -5.930497 -0.673517
-3.581505 -5.906634 -0.673506
-3.608818 -5.913177 -0.677779
-3.634029 -5.912726 -0.681098
-3.657799 -5.907618 -0.683775
-3.682517 -5.905141 -0.686839
-3.707337 -5.902735 -0.689922
-3.730466 -5.895298 -0.692285
-3.770631 -5.935747 -0.701595
-3.831371 -5.686018 -0.685016
-3.856723 -5.686482 -0.688341
-4.104957 -5.848521 -0.735903
-4.129613 -5.843996 -0.738455
-4.152110 -5.834548 -0.740213
-4.177454 -5.831490 -0.742948
-4.200142 -5.822495 -0.744725
-4.224125 -5.816343 -0.746924
-4.245788 -5.805186 -0.748304
-4.277159 -5.814653 -0.752950
-4.309094 -5.824878 -0.757716
-4.340313 -5.833179 -0.762170
-4.369857 -5.837663 -0.766004
-4.391107 -5.825103 -0.767060
-4.413997 -5.815894 -0.768633
-4.441315 -5.815411 -0.771610
-4.464741 -5.807140 -0.773294
-4.482820 -5.788539 -0.773250
-4.500680 -5.769716 -0.773134
-4.527800 -5.768519 -0.775917
-4.551901 -5.761501 -0.777715
-4.568204 -5.740047 -0.777075
-4.577646 -5.706334 -0.774336
-4.577071 -5.655082 -0.768583
-4.570534 -5.594084 -0.761105
-4.552876 -5.514567 -0.750391
-4.548495 -5.413241 -0.738541
-4.544083 -5.360040 -0.732077
-3.691040 -3.554230 -0.441061
-3.700444 -3.543765 -0.440693
-3.720837 -3.525278 -0.440369
-4.183403 -3.013231 -0.414599
-4.183819 -2.995932 -0.412334
-4.184849 -2.979313 -0.410200
-4.181801 -2.959291 -0.407299
-4.191702 -2.950581 -0.406873
-4.195061 -2.936290 -0.405204
-4.188460 -2.913694 -0.401671
-4.183066 -2.892348 -0.398389
-4.176737 -2.870448 -0.394956
-4.169204 -2.847792 -0.391324
-4.176650 -2.837534 -0.390464
-4.177714 -2.822160 -0.388434
-4.173575 -2.802752 -0.385467
-4.174390 -2.787434 -0.383411
-4.168837 -2.767250 -0.380220
-4.160336 -2.744984 -0.376523
-4.163818 -2.732141 -0.374973
-4.165844 -2.718253 -0.373166
-4.167246 -2.703975 -0.371251
-4.157254 -2.681303 -0.367357
-4.157205 -2.666209 -0.365209
-4.154015 -2.648925 -0.362525
-4.150361 -2.631451 -0.359774
-4.155305 -2.620282 -0.358494
-4.151711 -2.603085 -0.355766
-4.142901 -2.582371 -0.352173
-4.134741 -2.562320 -0.348709
-4.137434 -2.549941 -0.347064
-4.144066 -2.540296 -0.346065
-4.145704 -2.527275 -0.344236
-4.140830 -2.509965 -0.341345
-4.134425 -2.491789 -0.338216
-4.136367 -2.479241 -0.336443
-4.143551 -2.470140 -0.335504
-4.125892 -2.445083 -0.330605
-4.120704 -2.428249 -0.327709
-4.119963 -2.414347 -0.325520
-4.118267 -2.399930 -0.323182
-4.118605 -2.386852 -0.321162
-4.121500 -2.375392 -0.319532
-4.128736 -2.366576 -0.318558
-4.120068 -2.348245 -0.315153
-4.118030 -2.333997 -0.312763
-4.119033 -2.321607 -0.310830
-4.121010 -2.309824 -0.309037
-4.121939 -2.297475 -0.307083
-4.114470 -2.280425 -0.303891
-4.102320 -2.260906 -0.300031
-4.104061 -2.249264 -0.298202
-4.104230 -2.236794 -0.296142
-4.103273 -2.223764 -0.293918
-4.099299 -2.209183 -0.291267
-4.091146 -2.192494 -0.288034
-4.089996 -2.179609 -0.285795
-4.089543 -2.167146 -0.283653
-4.085825 -2.153073 -0.281064
-4.085847 -2.140979 -0.278993
-4.082388 -2.127200 -0.276452
-4.077893 -2.113003 -0.273781
-4.076905 -2.100617 -0.271590
-4.078532 -2.089552 -0.269753
-4.077134 -2.077087 -0.267520
-4.074224 -2.063987 -0.265101
-4.072562 -2.051558 -0.262858
-4.069394 -2.038521 -0.260436
-4.069718 -2.027163 -0.258479
-4.060121 -2.011446 -0.255281
-4.055691 -1.998186 -0.252768
-4.059910 -1.988811 -0.251361
-4.066810 -1.980621 -0.250298
-4.058259 -1.965897 -0.247354
-4.058653 -1.955099 -0.245543
-4.056780 -1.943457 -0.243487
-4.057714 -1.933083 -0.241806
-4.057552 -1.922369 -0.240030
-4.065162 -1.914854 -0.239213
-4.062951 -1.903537 -0.237274
-4.063709 -1.893518 -0.235732
-4.061588 -1.882529 -0.233904
-4.057542 -1.870977 -0.231911
-4.056662 -1.860788 -0.230340
-4.053726 -1.850004 -0.228594
-4.050505 -1.839302 -0.226879
-4.049161 -1.829461 -0.225439
-4.050734 -1.820824 -0.224389
-4.050626 -1.811756 -0.223214
-4.047376 -1.801780 -0.221756
-4.053319 -1.795122 -0.221377
-3.097617 -5.977307 -0.649413
-3.135377 -6.061021 -0.662013
-3.148547 -6.029153 -0.659334
-3.185326 -6.009068 -0.660192
-3.201728 -5.988668 -0.659413
-3.221605 -5.981997 -0.660606
-3.240675 -5.970784 -0.661304
-3.261887 -5.967206 -0.663155
-3.290307 -5.990936 -0.668857
-3.306086 -5.963490 -0.667667
-3.325098 -5.948188 -0.668231
-3.352629 -5.964227 -0.673218
-3.379867 -5.977607 -0.677949
-3.396398 -5.950915 -0.677187
-3.419180 -5.946469 -0.679596
-3.437239 -5.924920 -0.679662
-3.458899 -5.915720 -0.681516
-3.478609 -5.899610 -0.682436
-3.511864 -5.928248 -0.689786
-3.539541 -5.937231 -0.694399
-3.561187 -5.926126 -0.696166
-3.584323 -5.919612 -0.698620
-3.604412 -5.903468 -0.699690
-3.634561 -5.918087 -0.705270
-3.658718 -5.913943 -0.708128
-3.681007 -5.904110 -0.710155
-3.703231 -5.894102 -0.712153
-3.732466 -5.904167 -0.717144
-3.762258 -5.915246 -0.722306
-3.792779 -5.653234 -0.699519
-3.812677 -5.640261 -0.700805
-3.828640 -5.617487 -0.700541
-4.095215 -5.890037 -0.763288
-4.113863 -5.871184 -0.763622
-4.133293 -5.854424 -0.764251
-4.156363 -5.846117 -0.766207
-4.175944 -5.830075 -0.766880
-4.198546 -5.820889 -0.768634
-4.221042 -5.811516 -0.770329
-4.245327 -5.806019 -0.772634
-4.275433 -5.812784 -0.776941
-4.302581 -5.813007 -0.780159
-4.335274 -5.824481 -0.785235
-4.365981 -5.831427 -0.789557
-4.394742 -5.834077 -0.793155
-4.401773 -5.793114 -0.789399
-4.444810 -5.823862 -0.797701
-4.465000 -5.809167 -0.798320
-4.488365 -5.800697 -0.799969
-4.509146 -5.787274 -0.800749
-4.529324 -5.772787 -0.801320
-4.548861 -5.757196 -0.801672
-4.569134 -5.743071 -0.802250
-4.575754 -5.704153 -0.798496
-4.579322 -5.660349 -0.793832
-4.552446 -5.514911 -0.774162
-4.543618 -5.452208 -0.765943
-4.546123 -5.410151 -0.761293
-4.548149 -5.367930 -0.756555
-4.535116 -5.300935 -0.747345
-3.699195 -3.566645 -0.457175
-3.724281 -3.554650 -0.458090
-3.714734 -3.516622 -0.452525
-3.694767 -3.464253 -0.444211
-3.680795 -3.421267 -0.437607
-3.688249 -3.409070 -0.436794
-4.170931 -3.001245 -0.425406
-4.191023 -3.001406 -0.427019
-4.183941 -2.977625 -0.423219
-4.188612 -2.964288 -0.421763
-4.193915 -2.951564 -0.420433
-4.193666 -2.934178 -0.418024
-4.171035 -2.898089 -0.411294
-4.181667 -2.890244 -0.411029
-4.173646 -2.866952 -0.407181
-4.175313 -2.851847 -0.405206
-4.173105 -2.833705 -0.402505
-4.170051 -2.815043 -0.399659
-4.171573 -2.800193 -0.397685
-4.170862 -2.783682 -0.395302
-4.164702 -2.763048 -0.391921
-4.167212 -2.749325 -0.390156
-4.172449 -2.737768 -0.388892
-4.167366 -2.718420 -0.385748
-4.163444 -2.700128 -0.382831
-4.162445 -2.684174 -0.380454
-4.154928 -2.663538 -0.376921
-4.150379 -2.645278 -0.373936
-4.153296 -2.632576 -0.372284
-4.159133 -2.622021 -0.371144
-4.160854 -2.608563 -0.369277
-4.143734 -2.581958 -0.364141
-4.137226 -2.563051 -0.360874
-4.136178 -2.548079 -0.358560
-4.143208 -2.538709 -0.357628
-4.145280 -2.525985 -0.355843
-4.136810 -2.506280 -0.352281
-4.130321 -2.488078 -0.349069
-4.134857 -2.477252 -0.347705
-4.136186 -2.464367 -0.345803
-4.132769 -2.448497 -0.343118
-4.125639 -2.430388 -0.339833
-4.121329 -2.414214 -0.337021
-4.122172 -2.401367 -0.335047
-4.119834 -2.386620 -0.332562
-4.124525 -2.376245 -0.331199
-4.128482 -2.365432 -0.329708
-4.118682 -2.346434 -0.326046
-4.119916 -2.334125 -0.324125
-4.122692 -2.322758 -0.322438
-4.122757 -2.309850 -0.320326
-4.120129 -2.295460 -0.317799
-4.116698 -2.280704 -0.315153
-4.108523 -2.263397 -0.311795
-4.101845 -2.247069 -0.308676
-4.103296 -2.235313 -0.306779
-4.096393 -2.219079 -0.303642
-4.092494 -2.204582 -0.300958
-4.092597 -2.192293 -0.298865
-4.093110 -2.180267 -0.296829
-4.096187 -2.169605 -0.295160
-4.094406 -2.156478 -0.292791
-4.090446 -2.142324 -0.290118
-4.086394 -2.128222 -0.287441
-4.077669 -2.111919 -0.284122
-4.076588 -2.099484 -0.281884
-4.079452 -2.089008 -0.280195
-4.078005 -2.076508 -0.277917
-4.076756 -2.064174 -0.275676
-4.072803 -2.050661 -0.273082
-4.071427 -2.038433 -0.270851
-4.065738 -2.024338 -0.268064
-4.060540 -2.010594 -0.265367
-4.058151 -1.998216 -0.263064
-4.059615 -1.987612 -0.261283
-4.066339 -1.979326 -0.260196
-4.060302 -1.965651 -0.257494
-4.058098 -1.953734 -0.255315
-4.060608 -1.943879 -0.253763
-4.058106 -1.932060 -0.251614
-4.059968 -1.922127 -0.250046
-4.058963 -1.911152 -0.248161
-4.061356 -1.901636 -0.246736
-4.060360 -1.890915 -0.244941
-4.058865 -1.880147 -0.243135
-4.055953 -1.869001 -0.241214
-4.055204 -1.858831 -0.239608
-4.051702 -1.847810 -0.237733
-4.051848 -1.838296 -0.236351
-4.047285 -1.827261 -0.234478
-4.045288 -1.817337 -0.232971
-4.043843 -1.807788 -0.231593
-4.046046 -1.799672 -0.230699
-4.036374 -1.787693 -0.228510
-3.119619 -6.095368 -0.687288
-3.118493 -5.997777 -0.675390
-3.164410 -6.021438 -0.682155
-3.187208 -6.029380 -0.685213
-3.206815 -6.021789 -0.686242
-3.223245 -5.999611 -0.685353
-3.239472 -5.975949 -0.684360
-3.258285 -5.962186 -0.684861
-3.279903 -5.958728 -0.686921
-3.300511 -5.950233 -0.688373
-3.322204 -5.945034 -0.690390
-3.348728 -5.957058 -0.694966
-3.370964 -5.951867 -0.697172
-3.393594 -5.947363 -0.699558
-3.418076 -5.948745 -0.702869
-3.442668 -5.949677 -0.706190
-3.457130 -5.915140 -0.704383
-3.480057 -5.909655 -0.706861
-3.507855 -5.919895 -0.711708
-3.533288 -5.921551 -0.715339
-3.555661 -5.912868 -0.717470
-3.574161 -5.891837 -0.717770
-3.608918 -5.921425 -0.725695
-3.635484 -5.924738 -0.729708
-3.655611 -5.908304 -0.730741
-3.679534 -5.903283 -0.733508
-3.704339 -5.900693 -0.736653
-3.729049 -5.897655 -0.739731
-3.764285 -5.924108 -0.747382
-3.808707 -5.632513 -0.722211
-3.820077 -5.598132 -0.720016
-4.093410 -5.888039 -0.787218
-4.118219 -5.883436 -0.789864
-4.134891 -5.860195 -0.789394
-4.158940 -5.854002 -0.791718
-4.180094 -5.841338 -0.792935
-4.199781 -5.825585 -0.793601
-4.220114 -5.811439 -0.794501
-4.275984 -5.815810 -0.801762
-4.299605 -5.808599 -0.803771
-4.328863 -5.813014 -0.807752
-4.361526 -5.824074 -0.812871
-4.389094 -5.824387 -0.816134
-4.411982 -5.815136 -0.817726
-4.433200 -5.802596 -0.818721
-4.463168 -5.807177 -0.822684
-4.492711 -5.810615 -0.826443
-4.519597 -5.808682 -0.829251
-4.536766 -5.788258 -0.828774
-4.551004 -5.762598 -0.827331
-4.568338 -5.742970 -0.826923
-4.575002 -5.704097 -0.823036
-4.574482 -5.652890 -0.816876
-4.550647 -5.512884 -0.797533
-4.559126 -5.387657 -0.783311
-4.555905 -5.336978 -0.776814
-3.728347 -3.585436 -0.476310
-3.730017 -3.563251 -0.473673
-3.710502 -3.510684 -0.465129
-3.710721 -3.487276 -0.462183
-3.690407 -3.435038 -0.453590
-3.685775 -3.405702 -0.449411
-3.683609 -3.380218 -0.445953
-3.682542 -3.356590 -0.442830
-3.682749 -3.335007 -0.440085
-4.109199 -2.962611 -0.428288
-4.165885 -2.995875 -0.437607
-4.183380 -2.993768 -0.438759
-4.188970 -2.981118 -0.437453
-4.188378 -2.963173 -0.434894
-4.192492 -2.949419 -0.433300
-4.189495 -2.929700 -0.430282
-4.176009 -2.901343 -0.425190
-4.173651 -2.882615 -0.422350
-4.178077 -2.869662 -0.420867
-4.171852 -2.848058 -0.417295
-4.167717 -2.828374 -0.414155
-4.161879 -2.807515 -0.410705
-4.165238 -2.794180 -0.409053
-4.164902 -2.778007 -0.406695
-4.167006 -2.763862 -0.404812
-4.170478 -2.750859 -0.403193
-4.173672 -2.737707 -0.401523
-4.163001 -2.714112 -0.397252
-4.162444 -2.698375 -0.394898
-4.157587 -2.679558 -0.391755
-4.152759 -2.660936 -0.388634
-4.147712 -2.642327 -0.385490
-4.151326 -2.630144 -0.383941
-4.153797 -2.617190 -0.382183
-4.143056 -2.594943 -0.378042
-4.145318 -2.582055 -0.376259
-4.141781 -2.565203 -0.373443
-4.140988 -2.550374 -0.371123
-4.144262 -2.538410 -0.369523
-4.147593 -2.526525 -0.367930
-4.137107 -2.505463 -0.363928
-4.134592 -2.489886 -0.361329
-4.132679 -2.474814 -0.358840
-4.134753 -2.462424 -0.357037
-4.136946 -2.450158 -0.355251
-4.137209 -2.436713 -0.353135
-4.127470 -2.417060 -0.349341
-4.124272 -2.401664 -0.346657
-4.123769 -2.388032 -0.344426
-4.119356 -2.372095 -0.341551
-4.118796 -2.358596 -0.339315
-4.118637 -2.345404 -0.337144
-4.118762 -2.332443 -0.335018
-4.121128 -2.320844 -0.333249
-4.120434 -2.307509 -0.330986
-4.117760 -2.293110 -0.328408
-4.114345 -2.278380 -0.325717
-4.107661 -2.261923 -0.322521
-4.107877 -2.249408 -0.320407
-4.098548 -2.231733 -0.316819
-4.097794 -2.218848 -0.314562
-4.093313 -2.204035 -0.311739
-4.090495 -2.190201 -0.309174
-4.093697 -2.179587 -0.307517
-4.094430 -2.167711 -0.305485
-4.092204 -2.154367 -0.303013
-4.088742 -2.140477 -0.300366
-4.087479 -2.127769 -0.298047
-4.079334 -2.111745 -0.294736
-4.077922 -2.099136 -0.292413
-4.079032 -2.087804 -0.290457
-4.082787 -2.077765 -0.288878
-4.072213 -2.061033 -0.285284
-4.072824 -2.049649 -0.283281
-4.069917 -2.036712 -0.280799
-4.067061 -2.023893 -0.278342
-4.062639 -2.010477 -0.275691
-4.058745 -1.997412 -0.273136
-4.061502 -1.987349 -0.271501
-4.064514 -1.977441 -0.269915
-4.066200 -1.967023 -0.268171
-4.062199 -1.954304 -0.265702
-4.062482 -1.943485 -0.263829
-4.061422 -1.932218 -0.261814
-4.056503 -1.919521 -0.259339
-4.053509 -1.907750 -0.257157
-4.054869 -1.897827 -0.255574
-4.055104 -1.887582 -0.253891
-4.055771 -1.877629 -0.252308
-4.052866 -1.866467 -0.250330
-4.050722 -1.855760 -0.248504
-4.051585 -1.846319 -0.247105
-4.052896 -1.837186 -0.245817
-4.048614 -1.826211 -0.243907
-4.043886 -1.815283 -0.242010
-4.041358 -1.805327 -0.240446
-4.042247 -1.796731 -0.239357
-4.046361 -1.789387 -0.238715
-3.124079 -6.131575 -0.714644
-3.127569 -6.053836 -0.705260
-3.139448 -6.015142 -0.701534
-3.158268 -6.006965 -0.702285
-3.182554 -6.021235 -0.706387
-3.205056 -6.025719 -0.709222
-3.220427 -5.998549 -0.707614
-3.238718 -5.982947 -0.707781
-3.258182 -5.971269 -0.708622
-3.269832 -5.927707 -0.704906
-3.293651 -5.931919 -0.708257
-3.323747 -5.958847 -0.715060
-3.347009 -5.958072 -0.717895
-3.365591 -5.939095 -0.718115
-3.388553 -5.935740 -0.720725
-3.413910 -5.940181 -0.724573
-3.439234 -5.943589 -0.728342
-3.458040 -5.923810 -0.728672
-3.480169 -5.915279 -0.730739
-3.502605 -5.907484 -0.732955
-3.531055 -5.919021 -0.738168
-3.551608 -5.904389 -0.739403
-3.582415 -5.922122 -0.745659
-3.618199 -5.954305 -0.754214
-3.635499 -5.928726 -0.753813
-3.655986 -5.913200 -0.754970
-3.677053 -5.899577 -0.756416
-3.701774 -5.896724 -0.759559
-3.725049 -5.889570 -0.762019
-3.751062 -5.890110 -0.765701
-3.826201 -5.680219 -0.752675
-3.832071 -5.631130 -0.747962
-4.109314 -5.865102 -0.811033
-4.131072 -5.853688 -0.812510
-4.155422 -5.848232 -0.814979
-4.181558 -5.846711 -0.818106
-4.201994 -5.832515 -0.819021
-4.218292 -5.809497 -0.818366
-4.246848 -5.813145 -0.822324
-4.276849 -5.819575 -0.826763
-4.302208 -5.815935 -0.829424
-4.330088 -5.817395 -0.832970
-4.359428 -5.821601 -0.836994
-4.384213 -5.816301 -0.839319
-4.404594 -5.802119 -0.840037
-4.427892 -5.793805 -0.841779
-4.456939 -5.796674 -0.845516
-4.489860 -5.806720 -0.850547
-4.515939 -5.803271 -0.853132
-4.536736 -5.789713 -0.853861
-4.558249 -5.777557 -0.854822
-4.572154 -5.751417 -0.853191
-4.583653 -5.721224 -0.850771
-4.575939 -5.656823 -0.841975
-4.570442 -5.548974 -0.828014
-4.577086 -5.465700 -0.818364
-3.722927 -3.602595 -0.492079
-3.740475 -3.603603 -0.493977
-3.732097 -3.566521 -0.488316
-3.717709 -3.521314 -0.480988
-3.704288 -3.454878 -0.470973
-3.691626 -3.414041 -0.464369
-3.677544 -3.371873 -0.457444
-3.671405 -3.341315 -0.452821
-3.687825 -3.341974 -0.454512
-3.659571 -3.261072 -0.441069
-3.639035 -3.213075 -0.432719
-3.649560 -3.206605 -0.432875
-3.972599 -3.043792 -0.440699
-4.007116 -3.024181 -0.441049
-4.013623 -3.012719 -0.440026
-4.013361 -2.994811 -0.437499
-4.029880 -2.993022 -0.438705
-4.048314 -2.992903 -0.440310
-4.072161 -2.997670 -0.443071
-4.075230 -2.982976 -0.441269
-4.083307 -2.972973 -0.440560
-4.105592 -2.975872 -0.442906
-4.144954 -2.993890 -0.448871
-4.167446 -2.996382 -0.451166
-4.185936 -2.995122 -0.452577
-4.196352 -2.986653 -0.452261
-4.193089 -2.966327 -0.449072
-4.189569 -2.945979 -0.445852
-4.185006 -2.924947 -0.442438
-4.183047 -2.906319 -0.439585
-4.177150 -2.884579 -0.435944
-4.182490 -2.872344 -0.434616
-4.174466 -2.849230 -0.430584
-4.167596 -2.827305 -0.426813
-4.161531 -2.806260 -0.423231
-4.161840 -2.790497 -0.420942
-4.169723 -2.780812 -0.420162
-4.163666 -2.760262 -0.416630
-4.166251 -2.746592 -0.414813
-4.166112 -2.730916 -0.412470
-4.166493 -2.715748 -0.410235
-4.164171 -2.698658 -0.407488
-4.157399 -2.678403 -0.403903
-4.152727 -2.659897 -0.400738
-4.154921 -2.646563 -0.398890
-4.151355 -2.629142 -0.395960
-4.146861 -2.611208 -0.392869
-4.143494 -2.594230 -0.390003
-4.140995 -2.578000 -0.387310
-4.145031 -2.566430 -0.385829
-4.141821 -2.549917 -0.383018
-4.128085 -2.526378 -0.378306
-4.133094 -2.515730 -0.377012
-4.136046 -2.503726 -0.375341
-4.136052 -2.489820 -0.373140
-4.135608 -2.475698 -0.370861
-4.136082 -2.462253 -0.368747
-4.139192 -2.450564 -0.367096
-4.136989 -2.435542 -0.364513
-4.128976 -2.416977 -0.360928
-4.121755 -2.399077 -0.357498
-4.110950 -2.379137 -0.353469
-4.113602 -2.367577 -0.351751
-4.115283 -2.355464 -0.349863
-4.115162 -2.342318 -0.347668
-4.116148 -2.329885 -0.345657
-4.119479 -2.318864 -0.344031
-4.120303 -2.306415 -0.341984
-4.116772 -2.291530 -0.339220
-4.113507 -2.276894 -0.336505
-4.111322 -2.262953 -0.333970
-4.105020 -2.246823 -0.330777
-4.100605 -2.231849 -0.327896
-4.096347 -2.217064 -0.325048
-4.093247 -2.202997 -0.322390
-4.093389 -2.190724 -0.320243
-4.093942 -2.178711 -0.318159
-4.089259 -2.164044 -0.315266
-4.084767 -2.149578 -0.312412
-4.087039 -2.138614 -0.310597
-4.087783 -2.126911 -0.308546
-4.080168 -2.111146 -0.305244
-4.072595 -2.095540 -0.301966
-4.078292 -2.086431 -0.300669
-4.081698 -2.076223 -0.299029
-4.071480 -2.059661 -0.295404
-4.070729 -2.047644 -0.293177
-4.074385 -2.037702 -0.291593
-4.071465 -2.024820 -0.289076
-4.060285 -2.008366 -0.285409
-4.058683 -1.996307 -0.283126
-4.062232 -1.986571 -0.281581
-4.068315 -1.977953 -0.280400
-4.068276 -1.966766 -0.278388
-4.066663 -1.955011 -0.276187
-4.063421 -1.942697 -0.273796
-4.062717 -1.931545 -0.271783
-4.056577 -1.918330 -0.269080
-4.052658 -1.906167 -0.266720
-4.052481 -1.895619 -0.264900
-4.052902 -1.885427 -0.263202
-4.051656 -1.874726 -0.261332
-4.048112 -1.863314 -0.259217
-4.050857 -1.854401 -0.257965
-4.051742 -1.844930 -0.256527
-4.055366 -1.836589 -0.255491
-4.050014 -1.825187 -0.253376
-4.048866 -1.815470 -0.251856
-4.044837 -1.804936 -0.250041
-4.041359 -1.794795 -0.248362
-4.047730 -1.788172 -0.247967
-3.142940 -6.044460 -0.727981
-3.158701 -6.021636 -0.726648
-3.180179 -6.022950 -0.729004
-3.197113 -6.003111 -0.728346
-3.203562 -5.938356 -0.721095
-3.235356 -5.979184 -0.729703
-3.255161 -5.968555 -0.730742
-3.268433 -5.931047 -0.727827
-3.290066 -5.926334 -0.729938
-3.319691 -5.951279 -0.736651
-3.345652 -5.960484 -0.741086
-3.364151 -5.940841 -0.741199
-3.385237 -5.930380 -0.742779
-3.409699 -5.931495 -0.746209
-3.435909 -5.937930 -0.750533
-3.459183 -5.933368 -0.753211
-3.479656 -5.918881 -0.754380
-3.503262 -5.914722 -0.757202
-3.520669 -5.889973 -0.756802
-3.557884 -5.929111 -0.766553
-3.585851 -5.937363 -0.771461
-3.610080 -5.933363 -0.774441
-3.632451 -5.923475 -0.776487
-3.655760 -5.916399 -0.778990
-3.681054 -5.915123 -0.782437
-3.697220 -5.887068 -0.781514
-3.720811 -5.880893 -0.784145
-3.752779 -5.898300 -0.790661
-3.823903 -5.676990 -0.774996
-3.837170 -5.646719 -0.773288
-4.079873 -5.861023 -0.831039
-4.104497 -5.856300 -0.833705
-4.126285 -5.845044 -0.835199
-4.155125 -5.849807 -0.839499
-4.183599 -5.853456 -0.843594
-4.203163 -5.837232 -0.844135
-4.219245 -5.813660 -0.843323
-4.240732 -5.802072 -0.844620
-4.270375 -5.807859 -0.849027
-4.296636 -5.806230 -0.852085
-4.328424 -5.815874 -0.857181
-4.352999 -5.810337 -0.859507
-4.378184 -5.805955 -0.862027
-4.399576 -5.793885 -0.863114
-4.424661 -5.789170 -0.865536
-4.451742 -5.788235 -0.868643
-4.482128 -5.793469 -0.872891
-4.509326 -5.792279 -0.875937
-4.529966 -5.778521 -0.876617
-4.556399 -5.775632 -0.879319
-4.572282 -5.753119 -0.878301
-4.574105 -5.705235 -0.872434
-4.578088 -5.662051 -0.867390
-4.578996 -5.614078 -0.861369
-4.580579 -5.568089 -0.855659
-4.579350 -5.517940 -0.849082
-4.575016 -5.463257 -0.841559
-4.525910 -5.288299 -0.813520
-3.734786 -3.570693 -0.503204
-3.708454 -3.508126 -0.492109
-3.698868 -3.447341 -0.482954
-3.696267 -3.420688 -0.479095
-3.659029 -3.119794 -0.434361
-3.654898 -3.039513 -0.422874
-3.695060 -3.069106 -0.430862
-3.791744 -3.051460 -0.437675
-3.788559 -3.029765 -0.434334
-3.817790 -3.043785 -0.439072
-3.849112 -3.059655 -0.444265
-3.862265 -3.055571 -0.444932
-3.869219 -3.044814 -0.444072
-3.887908 -3.046465 -0.446062
-3.895608 -3.036459 -0.445371
-3.903431 -3.026611 -0.444710
-3.913943 -3.019540 -0.444689
-3.933754 -3.021879 -0.446866
-3.948329 -3.018752 -0.447776
-3.961948 -3.014570 -0.448443
-3.980071 -3.014749 -0.450144
-3.996823 -3.013422 -0.451500
-4.007348 -3.005928 -0.451397
-4.021523 -3.001908 -0.452122
-4.034589 -2.996746 -0.452577
-4.054335 -2.997800 -0.454531
-4.066972 -2.992039 -0.454852
-4.083482 -2.989794 -0.456027
-4.095927 -2.983701 -0.456272
-4.117870 -2.986162 -0.458610
-4.140240 -2.988787 -0.461003
-4.167340 -2.995398 -0.464397
-4.195605 -3.002735 -0.467994
-4.205836 -2.994011 -0.467632
-4.203663 -2.974540 -0.464587
-4.188408 -2.944043 -0.458760
-4.181570 -2.921082 -0.454778
-4.178773 -2.901770 -0.451684
-4.184811 -2.889997 -0.450472
-4.178049 -2.867706 -0.446576
-4.180590 -2.853258 -0.444649
-4.177870 -2.834641 -0.441638
-4.175163 -2.816205 -0.438648
-4.168330 -2.794659 -0.434830
-4.162248 -2.773930 -0.431191
-4.164851 -2.760180 -0.429338
-4.162238 -2.742483 -0.426438
-4.165940 -2.729767 -0.424819
-4.168674 -2.716377 -0.423009
-4.162981 -2.696740 -0.419530
-4.158138 -2.677925 -0.416240
-4.158736 -2.663287 -0.414036
-4.155232 -2.645756 -0.411038
-4.156590 -2.631882 -0.408996
-4.147357 -2.610526 -0.404917
-4.145627 -2.594701 -0.402303
-4.145840 -2.580354 -0.400068
-4.144656 -2.565128 -0.397573
-4.136858 -2.545468 -0.393839
-4.134080 -2.529414 -0.391066
-4.129941 -2.512567 -0.388050
-4.132551 -2.500354 -0.386297
-4.138147 -2.490156 -0.385090
-4.142165 -2.478932 -0.383585
-4.137172 -2.461910 -0.380434
-4.135724 -2.447297 -0.377937
-4.135126 -2.433315 -0.375597
-4.124752 -2.413287 -0.371513
-4.118901 -2.396268 -0.368255
-4.113250 -2.379514 -0.365046
-4.111407 -2.365209 -0.362517
-4.113827 -2.353553 -0.360735
-4.112327 -2.339597 -0.358268
-4.113234 -2.327136 -0.356219
-4.118268 -2.317123 -0.354873
-4.124919 -2.308036 -0.353790
-4.111487 -2.287488 -0.349297
-4.112010 -2.275020 -0.347175
-4.114632 -2.263767 -0.345401
-4.112154 -2.249725 -0.342774
-4.104467 -2.232929 -0.339293
-4.097745 -2.216795 -0.335985
-4.095754 -2.203311 -0.333459
-4.096782 -2.191489 -0.331424
-4.095513 -2.178505 -0.329017
-4.089495 -2.163144 -0.325856
-4.086970 -2.149677 -0.323261
-4.086702 -2.137420 -0.321026
-4.083880 -2.123947 -0.318394
-4.075361 -2.107762 -0.314887
-4.078974 -2.097603 -0.313268
-4.077267 -2.084905 -0.310832
-4.069038 -2.069196 -0.307415
-4.072598 -2.059139 -0.305797
-4.071604 -2.046995 -0.303498
-4.074849 -2.036850 -0.301840
-4.079606 -2.027408 -0.300409
-4.060222 -2.007260 -0.295444
-4.059363 -1.995515 -0.293228
-4.068523 -1.988185 -0.292477
-4.069681 -1.977409 -0.290580
-4.067844 -1.965440 -0.288275
-4.065750 -1.953469 -0.285962
-4.064270 -1.941862 -0.283767
-4.056937 -1.927999 -0.280788
-4.059644 -1.918328 -0.279247
-4.055270 -1.905945 -0.276762
-4.053221 -1.894628 -0.274643
-4.051596 -1.883615 -0.272626
-4.049520 -1.872577 -0.270597
-4.050861 -1.862969 -0.269077
-4.049781 -1.852596 -0.267282
-4.055691 -1.844921 -0.266468
-4.053879 -1.834572 -0.264684
-4.052181 -1.824437 -0.262976
-4.048640 -1.813837 -0.261090
-4.048237 -1.804518 -0.259677
-4.045815 -1.794685 -0.258066
-4.043388 -1.785045 -0.256522
-3.117445 -6.035476 -0.746930
-3.143011 -6.058302 -0.752402
-3.161085 -6.045034 -0.752529
-3.177567 -6.023595 -0.751527
-3.192428 -5.994360 -0.749439
-3.203735 -5.949705 -0.745073
-3.227647 -5.957415 -0.748861
-3.247122 -5.945461 -0.749725
-3.266165 -5.930945 -0.750287
-3.292539 -5.944423 -0.755303
-3.316413 -5.946692 -0.758677
-3.339115 -5.943427 -0.761274
-3.363017 -5.943762 -0.764520
-3.385184 -5.936905 -0.766702
-3.405396 -5.922515 -0.767746
-3.439094 -5.955120 -0.776357
-3.459946 -5.941720 -0.777675
-3.480301 -5.926488 -0.778729
-3.498282 -5.903341 -0.778521
-3.525327 -5.910078 -0.783190
-3.556345 -5.928885 -0.789879
-3.581168 -5.927101 -0.793237
-3.605421 -5.923231 -0.796271
-3.629157 -5.917566 -0.799021
-3.654951 -5.917960 -0.802786
-3.681263 -5.919584 -0.806770
-3.703047 -5.907719 -0.808493
-3.720475 -5.883494 -0.808111
-3.750068 -5.894116 -0.813614
-3.809658 -5.708297 -0.799798
-3.813549 -5.653049 -0.793684
-3.832988 -5.638784 -0.794661
-4.084399 -5.874131 -0.857556
-4.101489 -5.851767 -0.857076
-4.126092 -5.846978 -0.859737
-4.151507 -5.843972 -0.862704
-4.179161 -5.845846 -0.866545
-4.199909 -5.832297 -0.867545
-4.219279 -5.815902 -0.867989
-4.239761 -5.802106 -0.868877
-4.266905 -5.802577 -0.872385
-4.293422 -5.801527 -0.875599
-4.324123 -5.808959 -0.880389
-4.349899 -5.805938 -0.883216
-4.376041 -5.803517 -0.886142
-4.402095 -5.800763 -0.888992
-4.426872 -5.795334 -0.891322
-4.449402 -5.785421 -0.892781
-4.471444 -5.774570 -0.894039
-4.496807 -5.770068 -0.896496
-4.519959 -5.761267 -0.898111
-4.545630 -5.757123 -0.900611
-4.560350 -5.732638 -0.899146
-4.562231 -5.685043 -0.893133
-4.569768 -5.648448 -0.889204
-4.578745 -5.614972 -0.885834
-4.573840 -5.557485 -0.877679
-4.576707 -5.514553 -0.872322
-4.529568 -5.295519 -0.837833
-4.536710 -5.263302 -0.834323
-3.604382 -3.051346 -0.431365
-3.637398 -3.073696 -0.437853
-3.640377 -3.058650 -0.436022
-3.638898 -3.038333 -0.432993
-3.681484 -3.071254 -0.441930
-3.699202 -3.073781 -0.444059
-3.713186 -3.071707 -0.445157
-3.724292 -3.066158 -0.445471
-3.738946 -3.064675 -0.446713
-3.749333 -3.058175 -0.446813
-3.761873 -3.054094 -0.447468
-3.790021 -3.067499 -0.452165
-3.809494 -3.070832 -0.454559
-3.808133 -3.050947 -0.451569
-3.829263 -3.055880 -0.454350
-3.845732 -3.055515 -0.455908
-3.861162 -3.053887 -0.457180
-3.874241 -3.049635 -0.457840
-3.883178 -3.040942 -0.457452
-3.908575 -3.049427 -0.461144
-3.917122 -3.040182 -0.460631
-3.929632 -3.035005 -0.461088
-3.941687 -3.029305 -0.461422
-3.953120 -3.022925 -0.461593
-3.965362 -3.017308 -0.461949
-3.978466 -3.012485 -0.462499
-3.990795 -3.006831 -0.462851
-4.004900 -3.002838 -0.463610
-4.017118 -2.996947 -0.463908
-4.035448 -2.996804 -0.465626
-4.057518 -3.000016 -0.468187
-4.070889 -2.994894 -0.468694
-4.079355 -2.985169 -0.468055
-4.103714 -2.989992 -0.471056
-4.118896 -2.986237 -0.471921
-4.136742 -2.984772 -0.473370
-4.170010 -2.996874 -0.478269
-4.193814 -3.000237 -0.480980
-4.204141 -2.991595 -0.480645
-4.194242 -2.965449 -0.475818
-4.193884 -2.947784 -0.473134
-4.184268 -2.922415 -0.468437
-4.182251 -2.903728 -0.465436
-4.181999 -2.886682 -0.462837
-4.186616 -2.873790 -0.461303
-4.174212 -2.847059 -0.456121
-4.176532 -2.832563 -0.454123
-4.183502 -2.821885 -0.453119
-4.182833 -2.805165 -0.450499
-4.167314 -2.776904 -0.444776
-4.161826 -2.756808 -0.441194
-4.167470 -2.745497 -0.439946
-4.166648 -2.729279 -0.437361
-4.166790 -2.713917 -0.434985
-4.160360 -2.693739 -0.431278
-4.159783 -2.678106 -0.428781
-4.156260 -2.660423 -0.425700
-4.152994 -2.643081 -0.422687
-4.146360 -2.623460 -0.419016
-4.144530 -2.607460 -0.416321
-4.148863 -2.595936 -0.414853
-4.147679 -2.580586 -0.412298
-4.146677 -2.565472 -0.409788
-4.145901 -2.550616 -0.407329
-4.141433 -2.533352 -0.404164
-4.135347 -2.515147 -0.400703
-4.131763 -2.498772 -0.397737
-4.139985 -2.490305 -0.397021
-4.142234 -2.477913 -0.395164
-4.137019 -2.460749 -0.391906
-4.133392 -2.444746 -0.388958
-4.130529 -2.429345 -0.386160
-4.128816 -2.414773 -0.383583
-4.123012 -2.397759 -0.380262
-4.117008 -2.380765 -0.376918
-4.116651 -2.367339 -0.374609
-4.116094 -2.353862 -0.372265
-4.111866 -2.338272 -0.369266
-4.113280 -2.326113 -0.367279
-4.125481 -2.320263 -0.367193
-4.113330 -2.300316 -0.362806
-4.106863 -2.283810 -0.359436
-4.109686 -2.272664 -0.357689
-4.113330 -2.261993 -0.356076
-4.113904 -2.249640 -0.353928
-4.111701 -2.235819 -0.351306
-4.105796 -2.220085 -0.348063
-4.103272 -2.206269 -0.345398
-4.095807 -2.189935 -0.341914
-4.090991 -2.175115 -0.338885
-4.092617 -2.163708 -0.336926
-4.093336 -2.151869 -0.334815
-4.085561 -2.135806 -0.331323
-4.082592 -2.122266 -0.328625
-4.080322 -2.109150 -0.326047
-4.078096 -2.096131 -0.323484
-4.084174 -2.087155 -0.322240
-4.075545 -2.071215 -0.318681
-4.068252 -2.056051 -0.315354
-4.070674 -2.045498 -0.313552
-4.072960 -2.034912 -0.311734
-4.072021 -2.022911 -0.309428
-4.064832 -2.008211 -0.306190
-4.062557 -1.995809 -0.303720
-4.063011 -1.984681 -0.301678
-4.067244 -1.975231 -0.300214
-4.063325 -1.962383 -0.297562
-4.063197 -1.951235 -0.295496
-4.060557 -1.939148 -0.293091
-4.054127 -1.925652 -0.290173
-4.052385 -1.914196 -0.287972
-4.056573 -1.905199 -0.286654
-4.056043 -1.894438 -0.284698
-4.055065 -1.883631 -0.282721
-4.053263 -1.872648 -0.280674
-4.052814 -1.862322 -0.278866
-4.053811 -1.852671 -0.277307
-4.051840 -1.842077 -0.275393
-4.053041 -1.832791 -0.273968
-4.052595 -1.823067 -0.272376
-4.051921 -1.813430 -0.270812
-4.052095 -1.804256 -0.269424
-4.049049 -1.794158 -0.267669
-4.026812 -1.777835 -0.263434
-3.110674 -6.018149 -0.766459
-3.130834 -6.016249 -0.768262
-3.156412 -6.036914 -0.773735
-3.166399 -5.986627 -0.768191
-3.186511 -5.980235 -0.769654
-3.207252 -5.975222 -0.771449
-3.224540 -5.954627 -0.770880
-3.244075 -5.942583 -0.771764
-3.269989 -5.955162 -0.776683
-3.297200 -5.971162 -0.782269
-3.314790 -5.948490 -0.781728
-3.338445 -5.948493 -0.784922
-3.363907 -5.954242 -0.789133
-3.386911 -5.949982 -0.791791
-3.413114 -5.956493 -0.796280
-3.435693 -5.949337 -0.798588
-3.461263 -5.952074 -0.802579
-3.487945 -5.957879 -0.807134
-3.498556 -5.909496 -0.802686
-3.521518 -5.902645 -0.805174
-3.550147 -5.913788 -0.810718
-3.575226 -5.912944 -0.814275
-3.600657 -5.912859 -0.817982
-3.627528 -5.916844 -0.822402
-3.653531 -5.917786 -0.826320
-3.678105 -5.914198 -0.829467
-3.702194 -5.909051 -0.832345
-3.723144 -5.894824 -0.833638
-3.744696 -5.882517 -0.835246
-3.774643 -5.893727 -0.840964
-3.809003 -5.644185 -0.814855
-3.827895 -5.628614 -0.815567
-4.080410 -5.867350 -0.880546
-4.102108 -5.855717 -0.881995
-4.125836 -5.848857 -0.884305
-4.152203 -5.847952 -0.887707
-4.174576 -5.837985 -0.889391
-4.197477 -5.829246 -0.891281
-4.222670 -5.825519 -0.894097
-4.245707 -5.817063 -0.895996
-4.272595 -5.816792 -0.899435
-4.296418 -5.809901 -0.901595
-4.322564 -5.807782 -0.904653
-4.341650 -5.791065 -0.904879
-4.368808 -5.790851 -0.908273
-4.406911 -5.812294 -0.915874
-4.432960 -5.809216 -0.918708
-4.456931 -5.801930 -0.920706
-4.475854 -5.784840 -0.920757
-4.494498 -5.767375 -0.920703
-4.516977 -5.757304 -0.922086
-4.544403 -5.756448 -0.925285
-4.552155 -5.719085 -0.921185
-4.558504 -5.679744 -0.916633
-4.563361 -5.638330 -0.911604
-4.570446 -5.601552 -0.907449
-4.566663 -5.546142 -0.899465
-4.573040 -5.509418 -0.895201
-4.570406 -5.457669 -0.887818
-4.543584 -5.320282 -0.865865
-3.636648 -3.072600 -0.449599
-3.648006 -3.067814 -0.450080
-3.666938 -3.072169 -0.452671
-3.671991 -3.059604 -0.451363
-3.698277 -3.072422 -0.455938
-3.708873 -3.066338 -0.456139
-3.718132 -3.058658 -0.455966
-3.745506 -3.071943 -0.460712
-3.764883 -3.075657 -0.463236
-3.771545 -3.064710 -0.462310
-3.794023 -3.071609 -0.465610
-3.805920 -3.066433 -0.466058
-3.819029 -3.062540 -0.466814
-3.830048 -3.056280 -0.467007
-3.842337 -3.051358 -0.467522
-3.857294 -3.049236 -0.468716
-3.874768 -3.049672 -0.470539
-3.894529 -3.052351 -0.472920
-3.911402 -3.051810 -0.474531
-3.927442 -3.050258 -0.475906
-3.937852 -3.042813 -0.475838
-3.950843 -3.037963 -0.476411
-3.959878 -3.029068 -0.475984
-3.973470 -3.024711 -0.476683
-3.979901 -3.013215 -0.475602
-3.991441 -3.006759 -0.475777
-4.003788 -3.001040 -0.476138
-4.020963 -2.999889 -0.477655
-4.040527 -3.000863 -0.479723
-4.055652 -2.997477 -0.480695
-4.067701 -2.991120 -0.480914
-4.079963 -2.984910 -0.481171
-4.097006 -2.983017 -0.482543
-4.118508 -2.985026 -0.484933
-4.139694 -2.986541 -0.487214
-4.173335 -2.998924 -0.492344
-4.192414 -2.998076 -0.494052
-4.194723 -2.982437 -0.491886
-4.194859 -2.965033 -0.489236
-4.194428 -2.947290 -0.486474
-4.197357 -2.932548 -0.484488
-4.180497 -2.901282 -0.478073
-4.185316 -2.888458 -0.476550
-4.182183 -2.869143 -0.473266
-4.173038 -2.845104 -0.468679
-4.171549 -2.827528 -0.465807
-4.182543 -2.820101 -0.465676
-4.185540 -2.806289 -0.463796
-4.170911 -2.778708 -0.458118
-4.168666 -2.761104 -0.455145
-4.163352 -2.741288 -0.451533
-4.167531 -2.728914 -0.449960
-4.161019 -2.708508 -0.446131
-4.161258 -2.693364 -0.443745
-4.157728 -2.675530 -0.440580
-4.155753 -2.658996 -0.437756
-4.148164 -2.638512 -0.433786
-4.140296 -2.618037 -0.429784
-4.144082 -2.606080 -0.428188
-4.150489 -2.596018 -0.427122
-4.151389 -2.582112 -0.424937
-4.149710 -2.566501 -0.422238
-4.149489 -2.552003 -0.419841
-4.147226 -2.536211 -0.417043
-4.142332 -2.518767 -0.413736
-4.136935 -2.501141 -0.410346
-4.137389 -2.487520 -0.408114
-4.142916 -2.477278 -0.406870
-4.132905 -2.457018 -0.402618
-4.128324 -2.440432 -0.399433
-4.129433 -2.427576 -0.397347
-4.129231 -2.413957 -0.395011
-4.129129 -2.400472 -0.392697
-4.120905 -2.382082 -0.388862
-4.120281 -2.368469 -0.386462
-4.117163 -2.353433 -0.383602
-4.113388 -2.338109 -0.380629
-4.116211 -2.326765 -0.378872
-4.119530 -2.315733 -0.377199
-4.127592 -2.307441 -0.376376
-4.108826 -2.283862 -0.370713
-4.107276 -2.270245 -0.368166
-4.108534 -2.258261 -0.366120
-4.110828 -2.246882 -0.364253
-4.108996 -2.233284 -0.361656
-4.108644 -2.220552 -0.359321
-4.104961 -2.206105 -0.356409
-4.097009 -2.189507 -0.352771
-4.090765 -2.173940 -0.349441
-4.092510 -2.162594 -0.347482
-4.094668 -2.151483 -0.345588
-4.089843 -2.136893 -0.342520
-4.083706 -2.121758 -0.339245
-4.078797 -2.107342 -0.336189
-4.079825 -2.095901 -0.334120
-4.075314 -2.081852 -0.331150
-4.071568 -2.068266 -0.328317
-4.074237 -2.057763 -0.326531
-4.062796 -2.040790 -0.322490
-4.068765 -2.031913 -0.321246
-4.074242 -2.022804 -0.319920
-4.066118 -2.007671 -0.316466
-4.061581 -1.994263 -0.313600
-4.059899 -1.982205 -0.311199
-4.061441 -1.971610 -0.309314
-4.063196 -1.961164 -0.307479
-4.061281 -1.949258 -0.305107
-4.056237 -1.936180 -0.302295
-4.053856 -1.924325 -0.299918
