ply
format ascii 1.0
comment ---
element vertex 1681
property float x
property float y
property float z
element face 0
property list uchar uint vertex_indices
end_header
-0.924794 2.426935 -1.450584
-0.909319 2.430842 -1.451359
-0.891840 2.428476 -1.449254
-0.870105 2.412349 -1.440833
-0.850941 2.403813 -1.435915
-0.836199 2.409391 -1.437488
-0.820085 2.410426 -1.436979
-0.803778 2.410701 -1.436127
-0.785838 2.405164 -1.432619
-0.768117 2.400051 -1.429315
-0.752702 2.402945 -1.429682
-0.736909 2.404430 -1.429407
-0.720242 2.402552 -1.427601
-0.703263 2.399266 -1.425158
-0.686971 2.398411 -1.423831
-0.670034 2.394802 -1.421254
-0.653840 2.393955 -1.419942
-0.638000 2.394433 -1.419237
-0.622328 2.395523 -1.418815
-0.606230 2.394677 -1.417516
-0.589670 2.391592 -1.415204
-0.573266 2.388955 -1.413101
-0.556984 2.386640 -1.411150
-0.540492 2.383067 -1.408633
-0.526461 2.391403 -1.411516
-0.509368 2.384465 -1.407483
-0.491174 2.371255 -1.400620
-0.475036 2.368246 -1.398379
-0.459879 2.370383 -1.398469
-0.446264 2.381326 -1.402536
-0.431533 2.386258 -1.403887
-0.414478 2.377266 -1.398959
-0.399313 2.379416 -1.399060
-0.381609 2.365130 -1.391760
-0.364358 2.352751 -1.385329
-0.348983 2.352395 -1.384315
-0.334611 2.359114 -1.386484
-0.319437 2.360218 -1.386129
-0.304281 2.361413 -1.385816
-0.288344 2.356225 -1.382641
-0.272584 2.351950 -1.379881
-0.257082 2.349416 -1.377905
-0.242560 2.355613 -1.379841
-0.227421 2.356257 -1.379292
-0.211869 2.352558 -1.376802
-0.196071 2.345606 -1.372862
-0.181048 2.346586 -1.372471
-0.166016 2.347405 -1.372009
-0.149892 2.333893 -1.365156
-0.134939 2.334621 -1.364660
-0.120848 2.348263 -1.369919
-0.105163 2.337926 -1.364496
-0.090109 2.336741 -1.363153
-0.075102 2.335973 -1.361998
-0.059945 2.331485 -1.359191
-0.044747 2.324585 -1.355318
-0.029725 2.320321 -1.352620
-0.014788 2.317044 -1.350365
0.000167 2.311300 -1.347019
0.015086 2.303916 -1.342953
0.029776 2.305950 -1.343061
0.044546 2.301224 -1.340179
0.059150 2.317880 -1.346756
0.073914 2.323878 -1.348617
0.088609 2.305967 -1.339917
0.103354 2.311736 -1.341680
0.118082 2.313054 -1.341479
0.132683 2.307786 -1.338375
0.147282 2.304846 -1.336303
0.161954 2.305473 -1.335804
0.176730 2.309030 -1.336597
0.190680 2.291439 -1.328090
0.204891 2.283587 -1.323875
0.219440 2.284043 -1.323314
0.233810 2.281269 -1.321339
0.248066 2.277116 -1.318762
0.262358 2.274182 -1.316724
0.278895 2.303337 -1.328750
0.293179 2.298965 -1.326082
0.307668 2.297670 -1.324765
0.319920 2.270517 -1.312142
0.335265 2.280291 -1.315677
0.349565 2.278148 -1.314003
0.363428 2.271872 -1.310529
0.377987 2.272687 -1.310155
0.393280 2.279979 -1.312607
0.407876 2.280585 -1.312145
0.421155 2.270244 -1.306917
0.434746 2.263124 -1.303099
0.448382 2.256819 -1.299642
0.461701 2.248582 -1.295351
0.475491 2.244169 -1.292729
0.490020 2.245007 -1.292394
0.507205 2.263167 -1.299580
0.519846 2.251122 -1.293656
0.533134 2.243714 -1.289752
0.547622 2.243822 -1.289112
0.564116 2.255440 -1.293460
0.577466 2.248564 -1.289801
0.590821 2.241969 -1.286269
0.603187 2.230339 -1.280567
0.618527 2.234613 -1.281747
0.634489 2.241667 -1.284129
0.648161 2.236948 -1.281429
0.662709 2.236523 -1.280587
0.678038 2.239619 -1.281268
0.693150 2.241423 -1.281394
0.707454 2.239372 -1.279862
0.719572 2.227718 -1.274200
0.734104 2.226707 -1.273127
0.748139 2.223495 -1.271111
0.761402 2.217096 -1.267731
0.772839 2.203495 -1.261263
0.789933 2.212401 -1.264469
0.807059 2.220879 -1.267492
0.820147 2.213668 -1.263784
0.831415 2.199850 -1.257251
0.845773 2.197522 -1.255651
0.861675 2.200549 -1.256349
0.877732 2.203801 -1.257146
0.893277 2.204986 -1.257061
0.908833 2.205957 -1.256887
0.922657 2.200996 -1.254181
0.936675 2.196626 -1.251732
0.952068 2.196562 -1.251127
0.968177 2.198522 -1.251390
0.982338 2.194241 -1.248992
0.999273 2.198249 -1.250134
1.010504 2.185027 -1.243932
1.026615 2.186247 -1.243892
1.045528 2.195252 -1.247168
1.058866 2.188057 -1.243548
1.072615 2.182038 -1.240432
1.087116 2.178075 -1.238195
1.102726 2.177035 -1.237203
1.118317 2.175807 -1.236132
1.139197 2.188235 -1.240862
1.143031 2.156386 -1.226792
1.167629 2.177848 -1.235354
1.185021 2.180605 -1.235973
1.200650 2.178841 -1.234674
1.209530 2.160700 -1.226434
1.224888 2.158455 -1.224931
1.239857 2.155307 -1.223043
1.255443 2.153648 -1.221782
1.270622 2.151096 -1.220139
1.284318 2.145282 -1.217113
1.302255 2.149119 -1.218160
1.322214 2.157375 -1.221064
1.335615 2.151287 -1.217903
1.353314 2.154699 -1.218743
-1.971329 2.404769 -1.533230
-1.890797 2.382122 -1.517182
-1.871394 2.385506 -1.517188
-1.838307 2.401144 -1.521520
-1.823475 2.411747 -1.525035
-1.799414 2.407683 -1.521398
-1.770349 2.395263 -1.513705
-1.757178 2.408379 -1.518449
-1.686571 2.326523 -1.477072
-1.719540 2.416022 -1.518908
-1.720769 2.526615 -1.567588
-1.532256 2.562725 -1.569384
-1.513841 2.566230 -1.569589
-1.501350 2.581482 -1.575418
-1.477548 2.573823 -1.570319
-1.367900 2.507549 -1.533215
-1.340262 2.488761 -1.522960
-1.334359 2.559287 -1.553788
-1.209254 2.528946 -1.531822
-1.200868 2.553322 -1.542090
-1.175139 2.534848 -1.532176
-1.072618 2.454304 -1.489653
-1.053086 2.495916 -1.506914
-0.975785 2.424309 -1.470107
-0.956394 2.417128 -1.465685
-0.926318 2.427801 -1.468560
-0.909224 2.426868 -1.467081
-0.863717 2.388509 -1.447164
-0.837342 2.409697 -1.455002
-0.820298 2.407738 -1.453090
-0.801300 2.398898 -1.447993
-0.785324 2.400092 -1.447561
-0.768318 2.397543 -1.445400
-0.753360 2.402160 -1.446564
-0.736382 2.399385 -1.444311
-0.720425 2.400198 -1.443724
-0.702889 2.394858 -1.440298
-0.684709 2.386636 -1.435550
-0.667543 2.381993 -1.432463
-0.652465 2.385568 -1.433174
-0.637910 2.391368 -1.434913
-0.621868 2.390940 -1.433784
-0.605528 2.389068 -1.431995
-0.588977 2.386035 -1.429677
-0.574246 2.391095 -1.431085
-0.557954 2.388938 -1.429179
-0.541674 2.386603 -1.427196
-0.523970 2.376962 -1.421867
-0.510122 2.386319 -1.425255
-0.492844 2.378122 -1.420600
-0.474577 2.364020 -1.413250
-0.457942 2.358007 -1.409612
-0.445098 2.373147 -1.415652
-0.429725 2.374221 -1.415258
-0.412230 2.362367 -1.408965
-0.396481 2.360550 -1.407260
-0.380898 2.359566 -1.405940
-0.364091 2.350170 -1.400789
-0.348790 2.350434 -1.400045
-0.334926 2.360956 -1.403972
-0.320394 2.367158 -1.405931
-0.304966 2.366739 -1.404879
-0.288772 2.359927 -1.400925
-0.271604 2.344106 -1.392888
-0.256462 2.344662 -1.392292
-0.242011 2.351557 -1.394571
-0.226756 2.351138 -1.393535
-0.210910 2.344434 -1.389655
-0.195181 2.338083 -1.385941
-0.180513 2.343026 -1.387340
-0.165499 2.344182 -1.387027
-0.149932 2.338085 -1.383439
-0.134481 2.332533 -1.380102
-0.119850 2.338300 -1.381876
-0.104911 2.339776 -1.381715
-0.089320 2.329653 -1.376330
-0.074448 2.331360 -1.376278
-0.059089 2.322542 -1.371491
-0.043972 2.317165 -1.368258
-0.028967 2.313066 -1.365605
-0.014271 2.317383 -1.366736
0.000567 2.317401 -1.365937
0.015443 2.315025 -1.364066
0.030464 2.300649 -1.356818
0.045088 2.310548 -1.360456
0.059816 2.317832 -1.362920
0.074608 2.320733 -1.363421
0.089405 2.320551 -1.362544
0.104086 2.310295 -1.357166
0.118752 2.306285 -1.354586
0.133374 2.302438 -1.352083
0.148048 2.302444 -1.351303
0.163000 2.311660 -1.354632
0.177717 2.311894 -1.353956
0.191607 2.291927 -1.344287
0.205462 2.275726 -1.336306
0.220030 2.276784 -1.336014
0.235222 2.288844 -1.340613
0.248981 2.275514 -1.333929
0.263993 2.283169 -1.336572
0.279830 2.301327 -1.343873
0.294958 2.307796 -1.345985
0.308865 2.298461 -1.341091
0.322519 2.287273 -1.335384
0.337104 2.287468 -1.334725
0.351221 2.282772 -1.331905
0.364899 2.274187 -1.327371
0.378705 2.267569 -1.323713
0.394150 2.276169 -1.326782
0.408779 2.276972 -1.326409
0.422882 2.273334 -1.324079
0.436906 2.269300 -1.321580
0.451399 2.269048 -1.320752
0.464765 2.260515 -1.316282
0.476561 2.241478 -1.307195
0.491717 2.246458 -1.308686
0.506450 2.248237 -1.308771
0.523609 2.265188 -1.315525
0.535414 2.248064 -1.307310
0.549395 2.244843 -1.305209
0.564328 2.247198 -1.305559
0.580589 2.256750 -1.309067
0.594377 2.252143 -1.306370
0.607298 2.243057 -1.301718
0.621350 2.240164 -1.299784
0.636038 2.240478 -1.299259
0.650029 2.237219 -1.297175
0.663587 2.231902 -1.294197
0.680753 2.243521 -1.298624
0.694721 2.239865 -1.296380
0.707367 2.230340 -1.291582
0.720882 2.224857 -1.288554
0.735633 2.224706 -1.287857
0.750183 2.223554 -1.286729
0.764283 2.220440 -1.284750
0.776224 2.208684 -1.279016
0.792321 2.213434 -1.280472
0.808941 2.219804 -1.282634
0.822781 2.215322 -1.280082
0.836062 2.208769 -1.276636
0.847475 2.195552 -1.270304
0.863644 2.199430 -1.271400
0.877957 2.196531 -1.269559
0.894208 2.200125 -1.270538
0.909994 2.201831 -1.270702
0.923827 2.196869 -1.267982
0.937774 2.192242 -1.265411
0.953279 2.192494 -1.264958
0.968640 2.192080 -1.264220
0.984829 2.194003 -1.264497
0.996924 2.183360 -1.259346
1.015875 2.193107 -1.263010
1.029372 2.186489 -1.259607
1.046481 2.190208 -1.260671
1.061621 2.188074 -1.259211
1.075095 2.181209 -1.255714
1.089486 2.176870 -1.253311
1.104173 2.173278 -1.251233
1.119055 2.170142 -1.249354
1.134264 2.167791 -1.247814
1.149427 2.165243 -1.246191
1.164854 2.163301 -1.244829
1.187731 2.179805 -1.251394
1.201125 2.172500 -1.247724
1.215306 2.167217 -1.244922
1.226859 2.155756 -1.239468
1.242276 2.153631 -1.238021
1.257046 2.150040 -1.235941
1.274092 2.151741 -1.236125
1.289302 2.149282 -1.234520
1.308157 2.155039 -1.236426
1.321447 2.148518 -1.233068
1.335616 2.144172 -1.230634
1.348714 2.137783 -1.227318
-2.052943 2.361472 -1.539321
-1.961374 2.384604 -1.542813
-1.880419 2.360889 -1.525979
-1.869897 2.377649 -1.532604
-1.825356 2.409137 -1.543074
-1.809812 2.418729 -1.546102
-1.745132 2.383196 -1.525199
-1.694438 2.439191 -1.546062
-1.699753 2.484631 -1.566673
-1.554102 2.408086 -1.521296
-1.532103 2.517841 -1.568538
-1.417732 2.486367 -1.545971
-1.408791 2.507906 -1.554950
-1.370603 2.508442 -1.552422
-1.324220 2.531808 -1.559577
-1.309765 2.541837 -1.563054
-1.292179 2.544734 -1.563120
-1.148525 2.463933 -1.516946
-1.132481 2.468341 -1.517848
-1.109653 2.455246 -1.510426
-1.091113 2.452754 -1.508070
-1.070541 2.444621 -1.503045
-1.058037 2.457759 -1.508138
-0.947709 2.387976 -1.469528
-0.935206 2.400429 -1.474347
-0.923407 2.415264 -1.480290
-0.907631 2.418269 -1.480648
-0.880684 2.386418 -1.464574
-0.865087 2.389283 -1.464890
-0.851286 2.397898 -1.467919
-0.816971 2.393176 -1.463658
-0.800728 2.393582 -1.462841
-0.785016 2.395711 -1.462839
-0.769555 2.398674 -1.463233
-0.751770 2.393226 -1.459688
-0.736779 2.397717 -1.460809
-0.702336 2.389740 -1.455124
-0.667638 2.379527 -1.448426
-0.653714 2.387895 -1.451381
-0.638414 2.390764 -1.451770
-0.622366 2.390437 -1.450672
-0.607134 2.393543 -1.451177
-0.592687 2.400196 -1.453337
-0.575653 2.395171 -1.450062
-0.558403 2.388751 -1.446146
-0.537078 2.362207 -1.432886
-0.523397 2.372024 -1.436532
-0.506261 2.364666 -1.432206
-0.495925 2.392341 -1.444135
-0.474293 2.360715 -1.428565
-0.459463 2.364774 -1.429547
-0.444696 2.369312 -1.430751
-0.428105 2.363289 -1.427070
-0.411668 2.357689 -1.423591
-0.395774 2.355001 -1.421464
-0.380097 2.353406 -1.419846
-0.363931 2.348295 -1.416610
-0.348873 2.350388 -1.416700
-0.334911 2.360403 -1.420442
-0.320394 2.366918 -1.422570
-0.305044 2.367328 -1.421886
-0.287240 2.347685 -1.411982
-0.271436 2.343146 -1.409034
-0.257218 2.352122 -1.412299
-0.241566 2.348465 -1.409761
-0.226393 2.348968 -1.409137
-0.211347 2.350677 -1.409067
-0.195169 2.340094 -1.403367
-0.180096 2.340824 -1.402855
-0.164847 2.339309 -1.401317
-0.149597 2.337386 -1.399595
-0.134352 2.335073 -1.397699
-0.118990 2.330411 -1.394733
-0.103475 2.322245 -1.390172
-0.088594 2.323699 -1.390007
-0.073203 2.315126 -1.385271
-0.058507 2.319614 -1.386493
-0.043340 2.313280 -1.382787
-0.028472 2.313272 -1.381965
-0.013717 2.316633 -1.382678
0.001115 2.317850 -1.382415
0.015987 2.317138 -1.381279
0.030820 2.317841 -1.380787
0.045706 2.312904 -1.377738
0.060502 2.314331 -1.377580
0.075304 2.315099 -1.377125
0.090056 2.307078 -1.372691
0.104547 2.283006 -1.361001
0.119274 2.289975 -1.363365
0.134004 2.294020 -1.364406
0.148723 2.296323 -1.364659
0.163765 2.308493 -1.369368
0.178644 2.312854 -1.370550
0.193129 2.306703 -1.366993
0.207226 2.293614 -1.360316
0.222432 2.304782 -1.364571
0.235911 2.283394 -1.354171
0.250511 2.283802 -1.353589
0.265480 2.289719 -1.355486
0.280767 2.299247 -1.359005
0.295457 2.299741 -1.358465
0.309215 2.288769 -1.352783
0.323577 2.286023 -1.350799
0.338121 2.285534 -1.349831
0.352527 2.283643 -1.348239
0.366102 2.273757 -1.343071
0.380470 2.272168 -1.341624
0.395434 2.275971 -1.342592
0.409555 2.272207 -1.340180
0.423090 2.263906 -1.335746
0.437735 2.264893 -1.335467
0.452485 2.266525 -1.335478
0.466491 2.262550 -1.332993
0.480033 2.255529 -1.329154
0.492642 2.242585 -1.322685
0.507919 2.247847 -1.324331
0.523003 2.251445 -1.325238
0.537081 2.248546 -1.323258
0.551412 2.247214 -1.321980
0.565827 2.246327 -1.320904
0.580908 2.249099 -1.321457
0.595742 2.250238 -1.321288
0.609197 2.243895 -1.317805
0.622543 2.237189 -1.314168
0.637664 2.239598 -1.314576
0.651775 2.236799 -1.312682
0.667022 2.239406 -1.313186
0.682276 2.241762 -1.313582
0.694352 2.229420 -1.307484
0.704514 2.208999 -1.297825
0.722894 2.224966 -1.304252
0.738148 2.226803 -1.304439
0.752740 2.225641 -1.303306
0.766696 2.221772 -1.300984
0.780847 2.218657 -1.299001
0.797695 2.225976 -1.301622
0.813086 2.227258 -1.301585
0.826658 2.221510 -1.298459
0.839362 2.212615 -1.293955
0.852530 2.205531 -1.290255
0.862711 2.188008 -1.281976
0.879350 2.193240 -1.283705
0.897972 2.204798 -1.288214
0.913386 2.205052 -1.287762
0.925790 2.195260 -1.282907
0.940249 2.192197 -1.281011
0.959286 2.203468 -1.285403
0.973126 2.198040 -1.282479
0.986970 2.192599 -1.279556
1.002720 2.192838 -1.279125
1.010378 2.169044 -1.268182
1.031817 2.185730 -1.274955
1.045332 2.179103 -1.271534
1.064679 2.188841 -1.275270
1.078786 2.183625 -1.272473
1.089492 2.169151 -1.265638
1.111134 2.184180 -1.271686
1.120855 2.167206 -1.263769
1.133774 2.158877 -1.259629
1.147998 2.153983 -1.256989
1.161698 2.147780 -1.253781
1.179703 2.152305 -1.255247
1.203075 2.169704 -1.262313
1.215463 2.160077 -1.257611
1.229295 2.154082 -1.254489
1.244963 2.152502 -1.253285
1.261834 2.153717 -1.253291
1.277943 2.153166 -1.252524
1.295866 2.156729 -1.253536
1.306797 2.144752 -1.247795
1.321486 2.141390 -1.245787
1.337592 2.141286 -1.245182
1.349946 2.133321 -1.241160
-1.952888 2.304813 -1.525431
-1.945269 2.355482 -1.547706
-1.898246 2.318003 -1.527103
-1.891858 2.372519 -1.551126
-1.772506 2.320254 -1.517982
-1.757162 2.362938 -1.535896
-1.570469 2.324597 -1.503549
-1.562761 2.346241 -1.512669
-1.503567 2.457443 -1.558119
-1.504260 2.536721 -1.593961
-1.486454 2.541105 -1.594583
-1.412290 2.470119 -1.556878
-1.291835 2.496498 -1.559963
-1.212734 2.441149 -1.529185
-1.188865 2.427180 -1.521154
-1.191348 2.476429 -1.543719
-1.151489 2.466902 -1.536619
-1.086448 2.436326 -1.518249
-1.064945 2.425599 -1.511908
-1.011804 2.421782 -1.506617
-0.995828 2.424970 -1.507015
-0.970500 2.401326 -1.494561
-0.946750 2.381330 -1.483881
-0.930055 2.381372 -1.482814
-0.918901 2.397921 -1.489650
-0.902971 2.400271 -1.489698
-0.883905 2.392788 -1.485057
-0.866703 2.390794 -1.483049
-0.853289 2.400791 -1.486767
-0.835992 2.398258 -1.484517
-0.817570 2.391727 -1.480372
-0.799026 2.384394 -1.475857
-0.783355 2.386611 -1.475894
-0.764634 2.377988 -1.470788
-0.748498 2.378210 -1.469892
-0.734621 2.386619 -1.472885
-0.719969 2.392330 -1.474600
-0.703807 2.392358 -1.473626
-0.686487 2.387726 -1.470451
-0.671118 2.390568 -1.470819
-0.654447 2.388084 -1.468674
-0.637636 2.384774 -1.466145
-0.623896 2.394318 -1.469691
-0.608461 2.396767 -1.469890
-0.594168 2.404326 -1.472499
-0.576815 2.398085 -1.468608
-0.554236 2.366832 -1.452949
-0.535038 2.350159 -1.444173
-0.516750 2.336989 -1.437059
-0.510204 2.382710 -1.457626
-0.495284 2.387071 -1.458750
-0.478271 2.380311 -1.454655
-0.460539 2.369049 -1.448457
-0.444315 2.365589 -1.445925
-0.428220 2.362541 -1.443593
-0.412763 2.363047 -1.442928
-0.396437 2.358019 -1.439677
-0.379869 2.350953 -1.435481
-0.363460 2.344324 -1.431495
-0.348077 2.344217 -1.430561
-0.333092 2.346836 -1.430901
-0.319092 2.356917 -1.434721
-0.303636 2.356318 -1.433562
-0.287647 2.351206 -1.430304
-0.271542 2.344508 -1.426315
-0.258310 2.362555 -1.433837
-0.241996 2.353510 -1.428762
-0.226116 2.347637 -1.425168
-0.210133 2.339920 -1.420723
-0.195013 2.340556 -1.420160
-0.179954 2.341801 -1.419881
-0.164430 2.337323 -1.416953
-0.148918 2.332205 -1.413733
-0.133516 2.327701 -1.410802
-0.118241 2.324205 -1.408341
-0.103024 2.320854 -1.405953
-0.087923 2.318731 -1.404135
-0.073066 2.320751 -1.404233
-0.057968 2.317656 -1.401973
-0.042983 2.316272 -1.400505
-0.028013 2.314589 -1.398902
-0.013000 2.310524 -1.396206
0.001895 2.309056 -1.394710
0.016615 2.315192 -1.396713
0.031485 2.314650 -1.395646
0.046315 2.316718 -1.395779
0.061185 2.312317 -1.392946
0.075999 2.306286 -1.389370
0.090741 2.299726 -1.385556
0.105348 2.287796 -1.379289
0.119989 2.285975 -1.377660
0.134774 2.292216 -1.379722
0.149620 2.298623 -1.381860
0.164240 2.295929 -1.379838
0.179378 2.308347 -1.384721
0.194047 2.306547 -1.383111
0.208606 2.302865 -1.380646
0.223143 2.299556 -1.378356
0.237016 2.285207 -1.371040
0.251543 2.283823 -1.369639
0.266619 2.290873 -1.372079
0.281431 2.293289 -1.372412
0.295403 2.284479 -1.367643
0.309466 2.277872 -1.363883
0.324159 2.279234 -1.363749
0.338877 2.280687 -1.363657
0.353227 2.278185 -1.361775
0.367460 2.274748 -1.359473
0.382039 2.274800 -1.358758
0.396359 2.272501 -1.356982
0.409690 2.261942 -1.351473
0.423382 2.255135 -1.347669
0.437243 2.250118 -1.344682
0.452484 2.255771 -1.346521
0.467352 2.258229 -1.346919
0.481980 2.258746 -1.346444
0.495539 2.251935 -1.342668
0.508301 2.240294 -1.336722
0.523326 2.243557 -1.337500
0.538882 2.249747 -1.339599
0.552754 2.245486 -1.336996
0.566852 2.242653 -1.335042
0.581243 2.241491 -1.333845
0.595804 2.241195 -1.333042
0.610349 2.240696 -1.332152
0.623497 2.232918 -1.328001
0.638856 2.236455 -1.328933
0.656218 2.249427 -1.334099
0.669773 2.243517 -1.330802
0.683172 2.237013 -1.327247
0.693520 2.216848 -1.317584
0.705404 2.204249 -1.311320
0.723645 2.219529 -1.317536
0.740274 2.227144 -1.320324
0.754063 2.222522 -1.317646
0.768625 2.221041 -1.316377
0.782873 2.218199 -1.314507
0.797264 2.215846 -1.312862
0.814845 2.225512 -1.316583
0.829511 2.223748 -1.315210
0.842279 2.214939 -1.310705
0.854229 2.203346 -1.304968
0.866665 2.193701 -1.300108
0.882566 2.196147 -1.300638
0.899860 2.203003 -1.303133
0.914982 2.202198 -1.302225
0.928560 2.196187 -1.299009
0.944073 2.196370 -1.298551
0.963178 2.207631 -1.303016
0.977102 2.202287 -1.300113
0.989668 2.192792 -1.295376
1.003026 2.185774 -1.291744
1.018559 2.185168 -1.290961
1.032630 2.180160 -1.288232
1.046919 2.175732 -1.285766
1.064270 2.179810 -1.287070
1.077916 2.173379 -1.283726
1.099095 2.187358 -1.289413
1.107426 2.166487 -1.279690
1.128292 2.178982 -1.284723
1.139912 2.167044 -1.278957
1.150089 2.151645 -1.271669
1.163504 2.144692 -1.268114
1.181689 2.149610 -1.269798
1.198996 2.152147 -1.270430
1.217550 2.157519 -1.272308
1.231300 2.151306 -1.269074
1.247800 2.151640 -1.268723
1.265144 2.153886 -1.269209
1.283208 2.157708 -1.270380
1.293359 2.143733 -1.263713
1.307803 2.139672 -1.261402
1.325162 2.142161 -1.261963
1.337111 2.133048 -1.257413
1.353541 2.133838 -1.257204
-1.723686 2.270439 -1.509917
-1.714351 2.288491 -1.517332
-1.686527 2.379206 -1.556194
-1.659960 2.404731 -1.565583
-1.459959 2.443831 -1.567218
-1.293680 2.495825 -1.578373
-1.165002 2.408135 -1.528739
-1.155375 2.427945 -1.537171
-1.135005 2.421394 -1.532716
-1.121389 2.431513 -1.536420
-1.094984 2.408954 -1.524184
-1.067818 2.383543 -1.510588
-1.052917 2.389582 -1.512344
-1.021925 2.398441 -1.514313
-1.010645 2.414487 -1.520954
-0.992964 2.412871 -1.519018
-0.972630 2.403451 -1.513306
-0.948216 2.381702 -1.501635
-0.904065 2.349550 -1.483861
-0.891474 2.361383 -1.488506
-0.878114 2.371087 -1.492122
-0.864112 2.378955 -1.494853
-0.847953 2.380007 -1.494297
-0.834001 2.388187 -1.497185
-0.815882 2.382612 -1.493447
-0.798567 2.379418 -1.490868
-0.777251 2.362094 -1.481498
-0.759235 2.355622 -1.477365
-0.742269 2.352537 -1.474871
-0.729036 2.362917 -1.478852
-0.716052 2.374521 -1.483419
-0.702524 2.384396 -1.487156
-0.688178 2.391358 -1.489496
-0.671585 2.389521 -1.487623
-0.652001 2.375261 -1.479813
-0.635849 2.374561 -1.478502
-0.622769 2.386814 -1.483386
-0.607710 2.390872 -1.484354
-0.590906 2.387195 -1.481633
-0.574695 2.385928 -1.480068
-0.557731 2.380933 -1.476732
-0.533221 2.339177 -1.455897
-0.523701 2.369274 -1.469289
-0.510279 2.381044 -1.473949
-0.495531 2.386423 -1.475568
-0.478366 2.378996 -1.471106
-0.461497 2.372651 -1.467164
-0.445035 2.368119 -1.464091
-0.427800 2.358635 -1.458676
-0.412837 2.362198 -1.459452
-0.396677 2.358367 -1.456728
-0.380821 2.356118 -1.454758
-0.364640 2.351408 -1.451629
-0.348288 2.345037 -1.447720
-0.331024 2.331470 -1.440421
-0.313907 2.317806 -1.433087
-0.302430 2.346877 -1.445918
-0.288254 2.356341 -1.449493
-0.272504 2.353128 -1.447094
-0.255872 2.341649 -1.440809
-0.240351 2.339242 -1.438801
-0.223681 2.325185 -1.431320
-0.208074 2.320433 -1.428222
-0.193466 2.325863 -1.429909
-0.179369 2.337675 -1.434589
-0.164196 2.337595 -1.433689
-0.147985 2.323694 -1.426315
-0.132617 2.319443 -1.423470
-0.117468 2.317633 -1.421773
-0.102320 2.315330 -1.419848
-0.087128 2.311550 -1.417237
-0.071820 2.304452 -1.413080
-0.057756 2.322972 -1.420889
-0.042762 2.322764 -1.419953
-0.026991 2.299907 -1.408458
-0.012609 2.315374 -1.414837
0.002529 2.306252 -1.409758
0.017304 2.310282 -1.410808
0.031965 2.324475 -1.416586
0.047018 2.310984 -1.409488
0.061887 2.306409 -1.406544
0.076698 2.300386 -1.402932
0.091415 2.290340 -1.397459
0.106175 2.294098 -1.398395
0.120918 2.294920 -1.397972
0.135624 2.293952 -1.396722
0.150412 2.296667 -1.397180
0.165464 2.307078 -1.401199
0.180239 2.307177 -1.400448
0.194940 2.305615 -1.398932
0.209519 2.301881 -1.396417
0.222724 2.272547 -1.382092
0.237858 2.282266 -1.385800
0.252446 2.281641 -1.384737
0.267207 2.283717 -1.384921
0.282311 2.290253 -1.387162
0.295178 2.267057 -1.375720
0.310004 2.270437 -1.376517
0.324914 2.274366 -1.377568
0.339395 2.273214 -1.376286
0.354401 2.277513 -1.377511
0.368726 2.274725 -1.375486
0.382868 2.270468 -1.372792
0.396744 2.264186 -1.369175
0.410644 2.258585 -1.365879
0.423885 2.248041 -1.360325
0.437711 2.242823 -1.357219
0.453374 2.251664 -1.360548
0.468825 2.258247 -1.362846
0.483953 2.262029 -1.363864
0.498544 2.261845 -1.363075
0.511547 2.251276 -1.357551
0.525631 2.248072 -1.355396
0.540137 2.247528 -1.354460
0.554075 2.243544 -1.351961
0.567606 2.237357 -1.348465
0.582412 2.238482 -1.348306
0.597245 2.239564 -1.348131
0.609932 2.229180 -1.342748
0.624639 2.229537 -1.342255
0.640006 2.233028 -1.343192
0.656670 2.242497 -1.346845
0.669997 2.235538 -1.343045
0.685527 2.238941 -1.343953
0.699012 2.232801 -1.340540
0.711706 2.223289 -1.335606
0.726355 2.222470 -1.334620
0.741393 2.223150 -1.334317
0.755391 2.219344 -1.331991
0.770634 2.220542 -1.331934
0.786776 2.225053 -1.333380
0.799419 2.215669 -1.328553
0.816830 2.224531 -1.331975
0.831200 2.221561 -1.330058
0.843547 2.211154 -1.324793
0.857759 2.207605 -1.322630
0.871860 2.203605 -1.320272
0.885695 2.198634 -1.317483
0.900042 2.195370 -1.315471
0.916720 2.199731 -1.316899
0.929561 2.191262 -1.312557
0.941064 2.178618 -1.306345
0.955781 2.176282 -1.304779
0.978962 2.199889 -1.314879
0.989773 2.185033 -1.307695
1.003658 2.179617 -1.304760
1.021784 2.186593 -1.307395
1.036084 2.182122 -1.304896
1.049754 2.175814 -1.301578
1.062719 2.167547 -1.297388
1.082660 2.178488 -1.301813
1.094904 2.168124 -1.296693
1.114592 2.177690 -1.300504
1.128920 2.172772 -1.297830
1.146705 2.176756 -1.299141
1.156713 2.160732 -1.291503
1.170060 2.153403 -1.287757
1.185006 2.150114 -1.285820
1.201983 2.151753 -1.286083
1.218417 2.151963 -1.285705
1.234900 2.152220 -1.285345
1.250711 2.150866 -1.284261
1.269287 2.155879 -1.286012
1.284702 2.153605 -1.284504
1.298938 2.148792 -1.281857
1.319358 2.157797 -1.285360
1.325458 2.135499 -1.274905
1.340745 2.133624 -1.273540
-1.928580 2.173275 -1.500484
-1.936460 2.300508 -1.560063
-1.865407 2.321423 -1.563788
-1.848102 2.327564 -1.565146
-1.775098 2.280449 -1.537276
-1.746460 2.268251 -1.529223
-1.687884 2.273446 -1.526577
-1.706472 2.337540 -1.557593
-1.598290 2.258751 -1.512154
-1.625392 2.374930 -1.567843
-1.523454 2.265374 -1.508857
-1.433344 2.348564 -1.539753
-1.387274 2.408584 -1.563810
-1.219389 2.364023 -1.530232
-1.144281 2.353571 -1.519824
-1.125276 2.349695 -1.516639
-1.098797 2.370097 -1.524239
-1.075406 2.354481 -1.515294
-1.028960 2.367171 -1.517947
-1.013146 2.370402 -1.518357
-0.997710 2.374604 -1.519254
-0.966599 2.382226 -1.520686
-0.947646 2.376118 -1.516546
-0.921741 2.349131 -1.502182
-0.898311 2.328500 -1.490963
-0.881997 2.328716 -1.489976
-0.868838 2.338580 -1.493719
-0.856388 2.350884 -1.498656
-0.845053 2.367067 -1.505488
-0.828496 2.366591 -1.504184
-0.810939 2.362622 -1.501186
-0.792277 2.354605 -1.496224
-0.772558 2.342482 -1.489275
-0.752475 2.328465 -1.481421
-0.737983 2.333880 -1.483035
-0.724482 2.343016 -1.486461
-0.713172 2.360601 -1.493991
-0.700289 2.372774 -1.498889
-0.685814 2.379115 -1.500955
-0.667746 2.371263 -1.496145
-0.647285 2.353177 -1.486389
-0.630732 2.350444 -1.484082
-0.620871 2.376010 -1.495469
-0.603327 2.369105 -1.491150
-0.588041 2.371837 -1.491496
-0.570936 2.366249 -1.487829
-0.556842 2.374397 -1.490795
-0.539320 2.366323 -1.485942
-0.522345 2.360411 -1.482140
-0.505558 2.355004 -1.478588
-0.489121 2.351004 -1.475722
-0.477699 2.373575 -1.485636
-0.460597 2.365957 -1.481035
-0.442819 2.353910 -1.474317
-0.426992 2.352440 -1.472685
-0.415741 2.378469 -1.484243
-0.400903 2.383652 -1.485799
-0.381616 2.360256 -1.473670
-0.365430 2.355861 -1.470652
-0.348967 2.349091 -1.466503
-0.332666 2.342841 -1.462611
-0.315647 2.330580 -1.455854
-0.302186 2.344933 -1.461811
-0.288696 2.360129 -1.468164
-0.274089 2.367043 -1.470563
-0.256039 2.343863 -1.458623
-0.238392 2.322032 -1.447343
-0.222183 2.311895 -1.441641
-0.206296 2.303829 -1.436934
-0.190977 2.300879 -1.434664
-0.177426 2.317849 -1.441860
-0.163508 2.332287 -1.447847
-0.147402 2.319778 -1.441045
-0.131490 2.307959 -1.434581
-0.116564 2.309080 -1.434256
-0.101660 2.310526 -1.434087
-0.085894 2.296455 -1.426577
-0.072255 2.321580 -1.437612
-0.057079 2.318087 -1.435111
-0.042381 2.325364 -1.437701
-0.027241 2.321736 -1.435143
-0.011657 2.301484 -1.424748
0.002888 2.314733 -1.430158
0.017722 2.319532 -1.431584
0.032616 2.322816 -1.432295
0.047700 2.307775 -1.424386
0.062623 2.292333 -1.416298
0.077392 2.289184 -1.414000
0.092119 2.285755 -1.411574
0.106901 2.290915 -1.413185
0.121920 2.307621 -1.420211
0.136531 2.297977 -1.414878
0.150866 2.281938 -1.406557
0.166064 2.298262 -1.413402
0.180872 2.299726 -1.413287
0.195873 2.305489 -1.415184
0.210564 2.303569 -1.413491
0.223703 2.272429 -1.398151
0.238242 2.271255 -1.396823
0.253393 2.280068 -1.400158
0.268891 2.292706 -1.405276
0.283220 2.287527 -1.402087
0.297131 2.277650 -1.396715
0.311290 2.271974 -1.393308
0.325655 2.269283 -1.391297
0.340480 2.271779 -1.391703
0.355099 2.271894 -1.391005
0.369945 2.274146 -1.391304
0.383263 2.262065 -1.384952
0.398108 2.264446 -1.385319
0.411217 2.251946 -1.378790
0.425331 2.248524 -1.376478
0.441291 2.259609 -1.380893
0.455903 2.259714 -1.380222
0.470483 2.259498 -1.379408
0.485203 2.260184 -1.379016
0.500584 2.265141 -1.380602
0.514907 2.262829 -1.378832
0.528062 2.253251 -1.373714
0.541117 2.243555 -1.368551
0.554355 2.235410 -1.364113
0.568807 2.234550 -1.363043
0.587062 2.254681 -1.371650
0.598626 2.237529 -1.363083
0.611382 2.227419 -1.357770
0.623679 2.215370 -1.351577
0.642709 2.237244 -1.360992
0.657595 2.237803 -1.360608
0.672558 2.238549 -1.360314
0.685718 2.230791 -1.356122
0.701008 2.232826 -1.356433
0.716288 2.234555 -1.356608
0.729946 2.229077 -1.353485
0.743756 2.224305 -1.350694
0.758057 2.221581 -1.348849
0.774000 2.225398 -1.350006
0.788886 2.224711 -1.349106
0.804962 2.228450 -1.350238
0.819072 2.224425 -1.347824
0.830649 2.211000 -1.341123
0.846172 2.212214 -1.341120
0.862075 2.214534 -1.341629
0.875989 2.209625 -1.338844
0.889854 2.204531 -1.335982
0.905614 2.205786 -1.336024
0.917762 2.194880 -1.330528
0.929722 2.183542 -1.324845
0.940733 2.169383 -1.317888
0.966103 2.200389 -1.331506
0.976150 2.183053 -1.323117
0.991531 2.182204 -1.322239
1.008891 2.187051 -1.323959
1.025040 2.187997 -1.323908
1.039826 2.184798 -1.321978
1.052316 2.175018 -1.317065
1.067717 2.173450 -1.315887
1.082173 2.169161 -1.313479
1.101141 2.176968 -1.316565
1.114187 2.168667 -1.312344
1.131843 2.172483 -1.313622
1.148475 2.173402 -1.313588
1.162373 2.167228 -1.310340
1.176263 2.161089 -1.307109
1.191823 2.159120 -1.305768
1.207645 2.157745 -1.304695
1.222948 2.155091 -1.303041
1.236854 2.149163 -1.299902
1.267397 2.181980 -1.314279
1.275067 2.161522 -1.304559
1.290102 2.158258 -1.302608
1.306032 2.157115 -1.301606
1.319152 2.149889 -1.297847
1.332476 2.143385 -1.294405
1.343524 2.132294 -1.288883
-1.954493 2.290387 -1.575871
-1.464215 2.257314 -1.518003
-1.389543 2.331711 -1.546484
-1.234668 2.274409 -1.507245
-1.160351 2.304405 -1.515631
-1.108688 2.304673 -1.511899
-1.082685 2.325128 -1.519629
-1.063864 2.320656 -1.516153
-1.048676 2.325291 -1.517243
-1.036536 2.337920 -1.522332
-1.021156 2.342091 -1.523206
-1.002371 2.336963 -1.519454
-0.986053 2.338310 -1.518942
-0.971655 2.344917 -1.521058
-0.956165 2.348460 -1.521657
-0.918508 2.335727 -1.513042
-0.896854 2.320334 -1.504281
-0.877081 2.309985 -1.498041
-0.860040 2.307596 -1.495761
-0.856139 2.346428 -1.513889
-0.838216 2.341472 -1.510345
-0.821859 2.341306 -1.509182
-0.804282 2.336932 -1.505948
-0.788572 2.338583 -1.505699
-0.770368 2.331528 -1.501165
-0.751002 2.319968 -1.494424
-0.734888 2.319506 -1.493162
-0.725042 2.341877 -1.503140
-0.710683 2.348138 -1.505189
-0.692882 2.341383 -1.500848
-0.679080 2.349810 -1.503969
-0.660724 2.340324 -1.498305
-0.641845 2.328156 -1.491339
-0.625915 2.327594 -1.490072
-0.615040 2.348432 -1.499286
-0.604454 2.371380 -1.509524
-0.586855 2.363985 -1.504920
-0.571410 2.365953 -1.504899
-0.553798 2.357733 -1.499908
-0.537465 2.355117 -1.497662
-0.520095 2.347117 -1.492797
-0.499775 2.323586 -1.480375
-0.486701 2.336423 -1.485680
-0.473372 2.348500 -1.490610
-0.459950 2.360653 -1.495574
-0.444065 2.359398 -1.494019
-0.428038 2.357108 -1.491966
-0.415442 2.375322 -1.499868
-0.400376 2.379159 -1.500790
-0.382915 2.367640 -1.494271
-0.363605 2.342784 -1.481303
-0.348516 2.345287 -1.481597
-0.331939 2.337121 -1.476731
-0.317677 2.345516 -1.479879
-0.302862 2.350152 -1.481209
-0.289742 2.368817 -1.489312
-0.274617 2.371979 -1.489927
-0.258111 2.363012 -1.484695
-0.238636 2.325338 -1.465638
-0.220927 2.300959 -1.453010
-0.205538 2.297744 -1.450583
-0.191214 2.305619 -1.453496
-0.176349 2.308021 -1.453775
-0.162170 2.318990 -1.458172
-0.148046 2.331999 -1.463543
-0.132121 2.321288 -1.457530
-0.117891 2.334508 -1.462998
-0.101963 2.321671 -1.455977
-0.086313 2.311232 -1.450115
-0.071150 2.308095 -1.447755
-0.056608 2.317786 -1.451535
-0.041565 2.317111 -1.450357
-0.026525 2.315969 -1.448960
-0.011287 2.307297 -1.443971
0.003868 2.297914 -1.438650
0.018474 2.311661 -1.444367
0.033460 2.307595 -1.441589
0.048485 2.293262 -1.433928
0.063308 2.291437 -1.432230
0.078084 2.277209 -1.424637
0.092816 2.279572 -1.424942
0.107590 2.284196 -1.426323
0.122468 2.292637 -1.429515
0.137371 2.298579 -1.431520
0.151862 2.287287 -1.425353
0.166272 2.277267 -1.419798
0.181173 2.283298 -1.421855
0.196154 2.289867 -1.424165
0.211088 2.294119 -1.425380
0.225447 2.286689 -1.421072
0.239080 2.268077 -1.411488
0.255722 2.300327 -1.425938
0.269947 2.292245 -1.421338
0.284456 2.289185 -1.419114
0.298699 2.283114 -1.415477
0.312859 2.276778 -1.411721
0.327271 2.274015 -1.409656
0.341734 2.272060 -1.407978
0.356370 2.272021 -1.407205
0.369751 2.259868 -1.400741
0.385004 2.265980 -1.402870
0.397185 2.244572 -1.392076
0.414634 2.269112 -1.402865
0.426512 2.246766 -1.391651
0.441680 2.251525 -1.393161
0.457374 2.259747 -1.396296
0.472321 2.261929 -1.396603
0.485015 2.248327 -1.389526
0.499743 2.249113 -1.389192
0.514833 2.252074 -1.389880
0.528882 2.248255 -1.387402
0.542270 2.240566 -1.383125
0.554939 2.229016 -1.377053
0.569943 2.231298 -1.377447
0.586004 2.239160 -1.380449
0.598712 2.228462 -1.374800
0.615212 2.238003 -1.378593
0.631405 2.245340 -1.381360
0.644944 2.239019 -1.377773
0.659801 2.239226 -1.377231
0.673168 2.232256 -1.373359
0.685847 2.222310 -1.368112
0.701117 2.224293 -1.368418
0.717535 2.231044 -1.370944
0.733061 2.233505 -1.371482
0.747017 2.229110 -1.368845
0.761786 2.228060 -1.367768
0.774236 2.217585 -1.362329
0.789746 2.219365 -1.362579
0.805654 2.222415 -1.363424
0.820410 2.220817 -1.362122
0.832382 2.208822 -1.356017
0.848797 2.213165 -1.357481
0.863635 2.211548 -1.356194
0.877074 2.204926 -1.352601
0.890903 2.199679 -1.349653
0.905536 2.197116 -1.347954
0.922176 2.201039 -1.349256
0.935799 2.194870 -1.345906
0.946901 2.180714 -1.338881
0.966817 2.194312 -1.344665
0.981702 2.191825 -1.343036
1.000403 2.200701 -1.346650
1.015486 2.198366 -1.345102
1.026843 2.185059 -1.338511
1.040183 2.177663 -1.334649
1.056643 2.179098 -1.334858
1.071432 2.175662 -1.332830
1.087543 2.175754 -1.332430
1.103559 2.175407 -1.331831
1.117996 2.170728 -1.329245
1.132118 2.165209 -1.326278
1.148682 2.165962 -1.326193
1.164631 2.165003 -1.325323
1.180778 2.164434 -1.324633
1.197145 2.164313 -1.324147
1.212305 2.161188 -1.322281
1.226918 2.156773 -1.319823
1.243721 2.157564 -1.319746
1.260724 2.158767 -1.319853
1.282549 2.170931 -1.324970
1.295292 2.162331 -1.320572
1.309149 2.156478 -1.317424
1.325952 2.157308 -1.317322
1.339344 2.150830 -1.313866
1.345964 2.130175 -1.303921
-1.764631 2.221176 -1.545782
-1.468849 2.157567 -1.489350
-1.217715 2.232652 -1.503613
-1.194347 2.297608 -1.532615
-1.149008 2.273301 -1.517535
-1.075251 2.302060 -1.525650
-1.039844 2.298126 -1.521157
-1.031764 2.321113 -1.531540
-1.016085 2.324332 -1.531939
-0.995910 2.315277 -1.526157
-0.981846 2.322605 -1.528651
-0.961653 2.312833 -1.522541
-0.943496 2.308371 -1.519122
-0.926919 2.308171 -1.517861
-0.913216 2.316254 -1.520772
-0.894622 2.309826 -1.516403
-0.878484 2.310490 -1.515608
-0.861972 2.309868 -1.514177
-0.849479 2.321737 -1.519011
-0.838198 2.337770 -1.525931
-0.812985 2.308738 -1.510312
-0.796810 2.308548 -1.509136
-0.783646 2.318416 -1.512991
-0.767594 2.318548 -1.511988
-0.749511 2.311392 -1.507361
-0.734895 2.316267 -1.508740
-0.722646 2.329873 -1.514470
-0.704411 2.321528 -1.509277
-0.685948 2.311828 -1.503423
-0.670790 2.314469 -1.503714
-0.658552 2.328725 -1.509776
-0.639790 2.316925 -1.502908
-0.624756 2.319985 -1.503421
-0.613290 2.338248 -1.511469
-0.601794 2.357121 -1.519813
-0.587390 2.363794 -1.522114
-0.567768 2.346808 -1.512720
-0.550873 2.341626 -1.509173
-0.533616 2.334310 -1.504582
-0.518098 2.335066 -1.503983
-0.503808 2.341971 -1.506421
-0.486161 2.331639 -1.500365
-0.472878 2.343991 -1.505489
-0.459504 2.356437 -1.510657
-0.442035 2.346230 -1.504681
-0.426870 2.348768 -1.504978
-0.411618 2.350822 -1.505041
-0.396809 2.355645 -1.506464
-0.378573 2.338514 -1.497121
-0.363184 2.339098 -1.496476
-0.346779 2.332540 -1.492335
-0.329305 2.317643 -1.484120
-0.314727 2.323136 -1.485891
-0.302758 2.349278 -1.497757
-0.287609 2.351660 -1.498002
-0.273392 2.362025 -1.502146
-0.257620 2.359383 -1.499941
-0.240349 2.342343 -1.490719
-0.221677 2.309677 -1.473897
-0.206233 2.306665 -1.471538
-0.192132 2.317816 -1.476077
-0.177161 2.320061 -1.476281
-0.162475 2.325926 -1.478245
-0.147396 2.327228 -1.477993
-0.132993 2.338084 -1.482380
-0.117018 2.326463 -1.475859
-0.101504 2.320273 -1.471981
-0.085590 2.305399 -1.463900
-0.070490 2.303502 -1.462117
-0.055156 2.295653 -1.457456
-0.039408 2.274975 -1.446598
-0.025600 2.304151 -1.459852
-0.010790 2.308960 -1.461322
0.004526 2.294365 -1.453423
0.019542 2.287123 -1.449084
0.033881 2.323008 -1.465547
0.049062 2.302678 -1.454903
0.064018 2.284346 -1.445235
0.078804 2.281934 -1.443243
0.093510 2.272870 -1.438055
0.108246 2.274600 -1.438066
0.122874 2.269498 -1.434797
0.137988 2.288876 -1.443287
0.152722 2.287349 -1.441739
0.167430 2.285681 -1.440127
0.181799 2.275597 -1.434484
0.196448 2.274592 -1.433201
0.211203 2.276107 -1.433128
0.225332 2.265589 -1.427301
0.240716 2.278526 -1.432699
0.255198 2.275176 -1.430310
0.270538 2.284865 -1.434155
0.284635 2.276320 -1.429293
0.299240 2.275336 -1.428048
0.313575 2.271242 -1.425325
0.327937 2.267909 -1.422971
0.342796 2.270183 -1.423293
0.357097 2.266563 -1.420813
0.370403 2.253714 -1.413948
0.384206 2.246558 -1.409802
0.401814 2.273193 -1.421724
0.416065 2.269439 -1.419202
0.429289 2.257704 -1.412898
0.442845 2.249371 -1.408219
0.458073 2.253966 -1.409680
0.472650 2.253490 -1.408741
0.489043 2.265445 -1.413696
0.499944 2.240024 -1.400954
0.514140 2.237331 -1.398985
0.529374 2.241150 -1.400104
0.543823 2.239903 -1.398831
0.557239 2.232579 -1.394694
0.571653 2.231221 -1.393384
0.586361 2.231432 -1.392820
0.603270 2.243273 -1.397750
0.620002 2.253414 -1.401880
0.631986 2.238826 -1.394354
0.646414 2.236905 -1.392810
0.660693 2.234217 -1.390911
0.673896 2.226466 -1.386638
0.687771 2.222004 -1.383922
0.701477 2.216835 -1.380882
0.716961 2.219507 -1.381537
0.732691 2.222934 -1.382553
0.749842 2.231969 -1.386208
0.761853 2.219453 -1.379750
0.778244 2.224785 -1.381679
0.789963 2.211442 -1.374854
0.805387 2.212646 -1.374862
0.820033 2.210697 -1.373399
0.836540 2.215472 -1.375094
0.849297 2.206347 -1.370286
0.861793 2.196451 -1.365127
0.876344 2.193856 -1.363397
0.891389 2.192839 -1.362412
0.906898 2.193202 -1.362080
0.923836 2.198029 -1.363841
0.938521 2.195221 -1.362042
0.951660 2.187417 -1.357917
0.967311 2.187482 -1.357475
0.984899 2.193247 -1.359700
1.007455 2.213521 -1.368698
1.015278 2.189436 -1.357010
1.026515 2.175850 -1.350231
1.044549 2.181907 -1.352615
1.058728 2.176750 -1.349778
1.072028 2.169139 -1.345805
1.087504 2.167499 -1.344618
1.103428 2.166929 -1.343935
1.118779 2.164701 -1.342483
1.133761 2.161421 -1.340545
1.150119 2.161606 -1.340221
1.167826 2.165047 -1.341410
1.183598 2.163460 -1.340263
1.198662 2.160087 -1.338285
1.215555 2.161122 -1.338353
1.229766 2.155688 -1.335415
1.245011 2.152776 -1.333643
1.266388 2.164068 -1.338455
1.281634 2.161089 -1.336639
1.296628 2.157645 -1.334598
1.311520 2.154109 -1.332506
1.326020 2.149887 -1.330084
1.342833 2.150867 -1.330058
1.352472 2.136669 -1.322991
-1.705515 2.125409 -1.513323
-1.606028 2.093220 -1.488878
-1.595340 2.138925 -1.509563
-1.536775 2.138251 -1.503838
-1.474216 2.095982 -1.478033
-1.431072 2.151618 -1.500571
-1.398852 2.160294 -1.501827
-1.350557 2.243891 -1.537493
-1.264074 2.251753 -1.533953
-1.208780 2.208447 -1.508631
-1.201278 2.230097 -1.518412
-1.111099 2.219704 -1.506234
-1.135916 2.362154 -1.576777
-1.065425 2.272998 -1.528400
-1.015297 2.318000 -1.546376
-0.976873 2.304785 -1.537173
-0.960750 2.306241 -1.536707
-0.918949 2.281179 -1.521577
-0.903751 2.284528 -1.522118
-0.890173 2.292673 -1.525103
-0.876644 2.301089 -1.528230
-0.861679 2.305210 -1.529183
-0.845783 2.306389 -1.528652
-0.831152 2.311518 -1.530130
-0.815170 2.312279 -1.529403
-0.794721 2.298081 -1.521122
-0.780887 2.305596 -1.523830
-0.766238 2.310447 -1.525197
-0.748141 2.303222 -1.520476
-0.733699 2.308682 -1.522163
-0.716304 2.303423 -1.518455
-0.703959 2.316668 -1.524073
-0.682465 2.295460 -1.512357
-0.667538 2.298784 -1.512996
-0.655800 2.314807 -1.520018
-0.641523 2.321090 -1.522146
-0.621961 2.305552 -1.513331
-0.612192 2.330830 -1.524992
-0.597590 2.336127 -1.526633
-0.580852 2.332034 -1.523576
-0.563673 2.325592 -1.519352
-0.547588 2.323831 -1.517478
-0.530762 2.318291 -1.513723
-0.515649 2.320779 -1.513984
-0.499663 2.318860 -1.512050
-0.485914 2.328361 -1.515816
-0.473210 2.343883 -1.522580
-0.455496 2.332557 -1.515970
-0.440290 2.334676 -1.516062
-0.424664 2.334339 -1.514936
-0.407878 2.326827 -1.510249
-0.392710 2.328809 -1.510285
-0.378971 2.340036 -1.514912
-0.362249 2.331961 -1.509963
-0.345050 2.319841 -1.503018
-0.327274 2.302510 -1.493503
-0.312107 2.303214 -1.492929
-0.299298 2.322227 -1.501415
-0.284612 2.327457 -1.503080
-0.269762 2.331628 -1.504220
-0.255502 2.341280 -1.508068
-0.238676 2.327786 -1.500492
-0.222212 2.316294 -1.493915
-0.207816 2.324785 -1.497196
-0.191894 2.317386 -1.492649
-0.176393 2.313808 -1.489990
-0.162998 2.335579 -1.499804
-0.146783 2.322958 -1.492702
-0.131325 2.318991 -1.489862
-0.116237 2.319838 -1.489392
-0.101008 2.318265 -1.487736
-0.085335 2.308100 -1.481870
-0.070149 2.305317 -1.479632
-0.054037 2.280876 -1.466792
-0.039458 2.288562 -1.469692
-0.025171 2.306783 -1.477744
-0.010217 2.308159 -1.477554
0.004853 2.304814 -1.475060
0.020184 2.285059 -1.464559
0.034929 2.292809 -1.467493
0.049737 2.301524 -1.470897
0.064694 2.288589 -1.463747
0.079512 2.276902 -1.457216
0.094235 2.270106 -1.453076
0.108954 2.269292 -1.451853
0.123855 2.279832 -1.456154
0.138827 2.288966 -1.459769
0.154065 2.304575 -1.466527
0.169405 2.318573 -1.472498
0.183592 2.298567 -1.461971
0.197680 2.281137 -1.452707
0.211501 2.261978 -1.442619
0.226256 2.264056 -1.442830
0.240756 2.261456 -1.440779
0.255229 2.258876 -1.438744
0.268981 2.246218 -1.431841
0.284549 2.259887 -1.437670
0.299636 2.265692 -1.439697
0.313867 2.260608 -1.436473
0.327982 2.254791 -1.432900
0.343956 2.269242 -1.439106
0.361162 2.294537 -1.450533
0.371725 2.253896 -1.430204
0.386943 2.259360 -1.432087
0.401532 2.258804 -1.431078
0.416514 2.261496 -1.431636
0.429999 2.251964 -1.426324
0.443985 2.246942 -1.423188
0.459706 2.255007 -1.426341
0.474318 2.254520 -1.425393
0.488412 2.250422 -1.422720
0.501459 2.239589 -1.416827
0.515734 2.237216 -1.414998
0.531139 2.241884 -1.416546
0.544864 2.236070 -1.413083
0.560159 2.239623 -1.414108
0.574801 2.239161 -1.413219
0.589088 2.236651 -1.411358
0.604726 2.241346 -1.412946
0.620229 2.244955 -1.414019
0.633838 2.238669 -1.410377
0.647459 2.232620 -1.406858
0.661374 2.228134 -1.404093
0.675604 2.225191 -1.402073
0.693518 2.239038 -1.408056
0.706167 2.228617 -1.402490
0.717889 2.214475 -1.395165
0.732145 2.211583 -1.393204
0.749249 2.220488 -1.396859
0.766468 2.229295 -1.400472
0.775725 2.205851 -1.388771
0.793848 2.217757 -1.393870
0.807085 2.210336 -1.389800
0.819970 2.201709 -1.385170
0.836292 2.205828 -1.386593
0.851648 2.206117 -1.386208
0.863624 2.194287 -1.380089
0.877226 2.188322 -1.376760
0.893093 2.190064 -1.377090
0.908263 2.189216 -1.376201
0.924659 2.192195 -1.377131
0.941240 2.195455 -1.378201
0.955863 2.192222 -1.376207
0.970802 2.189869 -1.374638
0.985608 2.186984 -1.372826
0.999793 2.182131 -1.370092
1.014900 2.179953 -1.368629
1.033027 2.186377 -1.371234
1.047377 2.181643 -1.368578
1.060666 2.173899 -1.364510
1.073046 2.163713 -1.359298
1.087337 2.158841 -1.356598
1.101757 2.154291 -1.354056
1.119727 2.159039 -1.355898
1.136027 2.159166 -1.355566
1.154704 2.165197 -1.358015
1.172127 2.167765 -1.358833
1.186928 2.163657 -1.356509
1.200806 2.157314 -1.353134
1.216959 2.156527 -1.352371
1.232591 2.154464 -1.351004
1.249942 2.156421 -1.351522
1.264288 2.151385 -1.348747
1.284553 2.159918 -1.352338
1.298121 2.153251 -1.348781
1.310496 2.144176 -1.344083
1.322915 2.135513 -1.339569
1.338049 2.133024 -1.337938
1.360302 2.145868 -1.343478
-1.570804 2.093477 -1.503167
-1.527341 2.116943 -1.510310
-1.455622 2.090812 -1.491041
-1.425503 2.070226 -1.478349
-1.428280 2.107948 -1.496737
-1.221057 2.230424 -1.537616
-1.196287 2.214350 -1.527752
-1.105273 2.201425 -1.514064
-1.054947 2.242331 -1.530046
-1.025259 2.251824 -1.532398
-0.999858 2.272600 -1.540623
-0.989286 2.288972 -1.547834
-0.978522 2.305167 -1.554953
-0.959658 2.299085 -1.550584
-0.911584 2.255956 -1.525959
-0.898622 2.265559 -1.529723
-0.890049 2.288423 -1.540308
-0.878407 2.302606 -1.546426
-0.858839 2.292651 -1.540157
-0.843103 2.294234 -1.539823
-0.827126 2.294952 -1.539055
-0.811442 2.296505 -1.538724
-0.793467 2.290369 -1.534468
-0.778872 2.295282 -1.535874
-0.763096 2.296175 -1.535232
-0.747283 2.296833 -1.534478
-0.727269 2.282328 -1.525998
-0.716046 2.299229 -1.533545
-0.699567 2.297089 -1.531389
-0.683859 2.297662 -1.530623
-0.665797 2.288971 -1.525152
-0.650951 2.292550 -1.525931
-0.634595 2.290031 -1.523618
-0.618919 2.290087 -1.522620
-0.604764 2.296487 -1.524845
-0.590845 2.304092 -1.527684
-0.576529 2.310170 -1.529749
-0.561550 2.313390 -1.530370
-0.544198 2.305545 -1.525398
-0.526897 2.297414 -1.520291
-0.511124 2.296255 -1.518718
-0.495443 2.295377 -1.517293
-0.478980 2.290260 -1.513734
-0.463573 2.290374 -1.512821
-0.449945 2.300178 -1.516794
-0.435233 2.304299 -1.517905
-0.418318 2.295643 -1.512588
-0.404767 2.306649 -1.517167
-0.392686 2.327441 -1.526659
-0.376660 2.324033 -1.523992
-0.361348 2.325034 -1.523543
-0.342750 2.303174 -1.511632
-0.324955 2.285297 -1.501737
-0.310256 2.289048 -1.502688
-0.295741 2.294410 -1.504446
-0.280993 2.298199 -1.505417
-0.267234 2.310579 -1.510684
-0.252763 2.317635 -1.513286
-0.237272 2.315716 -1.511407
-0.222776 2.323207 -1.514228
-0.206785 2.315883 -1.509660
-0.190944 2.309192 -1.505415
-0.174935 2.299551 -1.499709
-0.158108 2.278394 -1.488281
-0.146610 2.324492 -1.510317
-0.130477 2.311484 -1.502951
-0.115370 2.311891 -1.502259
-0.100279 2.312422 -1.501632
-0.085273 2.314363 -1.501706
-0.070213 2.315385 -1.501328
-0.054460 2.300738 -1.493188
-0.039050 2.290668 -1.487326
-0.024295 2.296425 -1.489306
-0.009777 2.312057 -1.496170
0.005704 2.293401 -1.486079
0.020104 2.322209 -1.499449
0.035394 2.305770 -1.490468
0.050394 2.302950 -1.488219
0.065381 2.291400 -1.481670
0.080230 2.275469 -1.472972
0.094979 2.269371 -1.469131
0.109893 2.282121 -1.474573
0.124728 2.283314 -1.474327
0.139633 2.287397 -1.475504
0.155147 2.311900 -1.486715
0.170157 2.313781 -1.486808
0.183738 2.277984 -1.468412
0.198068 2.268011 -1.462707
0.212886 2.270260 -1.463003
0.227697 2.272021 -1.463063
0.241956 2.264135 -1.458401
0.255256 2.242583 -1.447061
0.269513 2.238063 -1.444068
0.285166 2.252966 -1.450576
0.300394 2.260571 -1.453515
0.314957 2.259392 -1.452165
0.330009 2.263762 -1.453528
0.344332 2.259942 -1.450900
0.360348 2.273393 -1.456697
0.373389 2.257222 -1.448061
0.387684 2.253853 -1.445672
0.402434 2.254670 -1.445328
0.417236 2.255774 -1.445128
0.430027 2.240746 -1.437090
0.443748 2.233922 -1.433052
0.459364 2.241440 -1.435988
0.475734 2.253653 -1.441206
0.489623 2.247980 -1.437746
0.501919 2.232102 -1.429347
0.516392 2.231036 -1.428139
0.531604 2.234492 -1.429130
0.545997 2.232718 -1.427593
0.561583 2.237853 -1.429407
0.576380 2.238122 -1.428872
0.590432 2.234177 -1.426307
0.605002 2.233071 -1.425122
0.619678 2.232431 -1.424169
0.634660 2.233225 -1.423917
0.648608 2.228766 -1.421136
0.664913 2.235643 -1.423833
0.679651 2.234722 -1.422775
0.692929 2.227047 -1.418470
0.706977 2.222989 -1.415918
0.721522 2.221109 -1.414425
0.736948 2.222875 -1.414696
0.747381 2.203694 -1.404896
0.761596 2.200504 -1.402802
0.780125 2.214388 -1.408925
0.794927 2.213029 -1.407726
0.809842 2.211965 -1.406678
0.822190 2.201182 -1.400973
0.833526 2.186939 -1.393619
0.853652 2.204538 -1.401556
0.869718 2.206999 -1.402235
0.881520 2.194472 -1.395736
0.894325 2.185602 -1.391003
0.911965 2.192900 -1.394027
0.926355 2.189136 -1.391758
0.942429 2.190688 -1.392045
0.961675 2.201942 -1.396981
0.974802 2.193704 -1.392598
0.989093 2.189071 -1.389949
1.002146 2.180700 -1.385521
1.017692 2.179714 -1.384634
1.035818 2.186001 -1.387228
1.050581 2.182343 -1.385077
1.063660 2.173909 -1.380652
1.077079 2.166489 -1.376720
1.086192 2.147486 -1.367267
1.103089 2.149611 -1.367903
1.119790 2.150990 -1.368187
1.139671 2.160373 -1.372289
1.156704 2.162095 -1.372739
1.173902 2.164047 -1.373298
1.188486 2.159382 -1.370705
1.203619 2.156084 -1.368763
1.218517 2.152236 -1.366556
1.234384 2.150718 -1.365456
1.247750 2.143381 -1.361581
1.268382 2.152899 -1.365719
1.284965 2.152995 -1.365365
1.299169 2.147807 -1.362488
1.310233 2.135895 -1.356404
1.330159 2.143648 -1.359652
1.339405 2.128391 -1.351952
-1.739753 2.019591 -1.500926
