ply
format ascii 1.0
comment ---
element vertex 1605
property float x
property float y
property float z
element face 0
property list uchar uint vertex_indices
end_header
-4.064265 -5.828312 0.149370
-4.126382 -5.869870 0.161560
-4.159912 -5.869731 0.166201
-4.199776 -5.830658 0.168358
-4.223684 -5.816673 0.170450
-4.256355 -5.814576 0.174766
-4.281715 -5.802313 0.177189
-4.323082 -5.811359 0.183648
-4.341362 -5.789319 0.184234
-4.368723 -5.779274 0.187098
-4.379907 -5.748074 0.185899
-4.470589 -5.819395 0.204495
-4.522573 -5.793688 0.209303
-4.542695 -5.773348 0.210241
-4.573594 -5.766387 0.213809
-4.585013 -5.735328 0.212608
-4.576468 -5.680265 0.206580
-4.569126 -5.627346 0.200897
-4.571174 -5.586270 0.197523
-4.571803 -5.543952 0.193840
-4.579157 -5.467736 0.188022
-4.577683 -5.424282 0.183934
-4.560091 -5.362992 0.176087
-4.557773 -5.319708 0.171888
-4.757205 -5.063694 0.174930
-4.767947 -5.036877 0.173858
-4.773749 -5.005344 0.171695
-4.778139 -4.972673 0.169235
-4.781454 -4.939229 0.166554
-4.711885 -4.730919 0.138031
-4.658373 -4.546882 0.113709
-4.658843 -4.481975 0.107553
-4.664925 -4.423007 0.102637
-4.665482 -4.391717 0.099673
-4.657724 -4.353618 0.094984
-4.659693 -4.262403 0.086278
-4.598975 -4.152505 0.067809
-4.423295 -3.982012 0.028983
-4.333053 -3.882315 0.007817
-4.338248 -3.859312 0.006138
-4.325732 -3.822620 0.000882
-4.338748 -3.806023 0.000787
-4.343084 -3.782786 -0.001061
-4.323734 -3.741731 -0.007640
-4.313190 -3.707746 -0.012434
-4.306568 -3.677004 -0.016431
-4.295184 -3.643026 -0.021356
-4.293322 -3.616317 -0.024387
-4.296870 -3.593700 -0.026355
-4.301912 -3.572261 -0.028035
-4.309505 -3.552710 -0.029226
-4.271492 -3.501270 -0.039257
-4.261483 -3.469923 -0.043831
-4.268582 -3.450601 -0.045104
-4.243590 -3.409514 -0.052530
-4.244570 -3.386376 -0.054970
-4.262787 -3.374839 -0.054140
-4.278671 -3.361646 -0.053782
-4.279935 -3.338827 -0.056204
-4.290996 -3.322441 -0.056795
-4.266457 -3.283272 -0.064057
-4.271058 -3.262980 -0.065864
-4.263642 -3.235217 -0.069910
-4.253058 -3.205700 -0.074534
-4.249743 -3.180883 -0.077811
-4.250396 -3.158623 -0.080362
-4.246049 -3.133454 -0.083832
-4.233065 -3.103313 -0.088868
-4.223414 -3.075393 -0.093288
-4.219126 -3.050806 -0.096733
-4.213405 -3.025542 -0.100435
-4.208523 -3.000917 -0.103983
-4.222506 -2.987044 -0.104178
-4.225664 -2.967068 -0.106315
-4.229506 -2.947515 -0.108341
-4.221669 -2.921656 -0.112424
-4.213850 -2.895990 -0.116495
-4.203555 -2.869190 -0.120987
-4.202617 -2.847514 -0.123847
-4.199665 -2.824890 -0.127052
-4.190145 -2.799024 -0.131378
-4.189142 -2.777676 -0.134234
-4.195028 -2.759879 -0.135915
-4.189070 -2.736249 -0.139601
-4.181231 -2.711870 -0.143588
-4.178980 -2.690381 -0.146616
-4.189037 -2.674891 -0.147576
-4.174677 -2.647901 -0.152589
-4.175546 -2.628276 -0.155047
-4.183923 -2.612212 -0.156249
-4.177005 -2.589251 -0.159943
-4.170012 -2.566476 -0.163610
-4.171040 -2.547473 -0.165934
-4.167529 -2.526638 -0.168955
-4.176534 -2.511400 -0.169918
-4.153306 -2.482541 -0.176009
-4.172222 -2.471809 -0.175299
-4.183463 -2.457895 -0.175778
-4.192910 -2.443341 -0.176497
-4.188959 -2.423507 -0.179273
-4.148269 -2.389325 -0.187742
-4.145263 -2.370624 -0.190199
-4.147176 -2.354119 -0.191811
-4.164164 -2.343636 -0.191006
-4.152882 -2.322578 -0.194509
-4.150270 -2.305152 -0.196577
-4.157364 -2.291623 -0.197063
-4.151409 -2.273583 -0.199465
-4.124391 -2.248341 -0.204990
-1.821056 -6.146447 -0.208636
-1.860583 -6.123302 -0.204574
-1.880821 -6.112145 -0.202318
-1.926493 -6.109275 -0.195456
-1.951587 -6.115496 -0.191051
-1.978105 -6.126176 -0.186057
-1.998650 -6.110980 -0.183681
-2.020800 -6.101743 -0.180597
-2.043668 -6.094718 -0.177201
-2.067103 -6.089267 -0.173566
-2.091300 -6.086102 -0.169616
-2.115833 -6.083582 -0.165534
-2.145428 -6.098901 -0.159421
-2.174517 -6.111269 -0.153556
-3.102986 -6.052631 0.000002
-3.108473 -6.004184 -0.002563
-3.130317 -5.990746 -0.000128
-3.158012 -5.989443 0.004053
-3.184295 -5.985061 0.007774
-3.210836 -5.981066 0.011541
-3.241873 -5.985859 0.016608
-3.259145 -5.963243 0.017574
-3.270430 -5.929254 0.016785
-3.306923 -5.944215 0.023356
-3.338743 -5.949708 0.028510
-3.375621 -5.964322 0.035074
-3.400735 -5.956496 0.038204
-3.432788 -5.961324 0.043286
-3.449073 -5.937120 0.043851
-3.472407 -5.925839 0.046405
-3.496816 -5.916438 0.049240
-3.533154 -5.927946 0.055382
-3.579825 -5.956909 0.064335
-3.606492 -5.950529 0.067678
-3.633161 -5.943997 0.070993
-3.668951 -5.952688 0.076774
-3.688799 -5.934309 0.078165
-3.707748 -5.914534 0.079305
-3.731374 -5.902507 0.081699
-3.758044 -5.895350 0.084890
-3.789231 -5.895264 0.089259
-3.885699 -5.897718 0.102909
-3.974727 -5.886078 0.114286
-4.001680 -5.877666 0.117314
-4.019544 -5.855694 0.117985
-4.033720 -5.828454 0.117713
-4.063910 -5.824584 0.121519
-4.092688 -5.818449 0.124938
-4.138941 -5.836882 0.132734
-4.178988 -5.845916 0.138906
-4.206952 -5.837651 0.142010
-4.243782 -5.841416 0.147294
-4.275256 -5.837479 0.151209
-4.309307 -5.836760 0.155729
-4.333419 -5.822435 0.157775
-4.357989 -5.808656 0.159918
-4.341948 -5.741573 0.152173
-4.415507 -5.791758 0.166190
-4.448234 -5.788142 0.170248
-4.499477 -5.807831 0.178718
-4.533675 -5.805304 0.183046
-4.562039 -5.795193 0.185953
-4.566695 -5.755591 0.183220
-4.574911 -5.720758 0.181354
-4.571977 -5.672706 0.176886
-4.563800 -5.618912 0.171232
-4.560308 -5.571370 0.166719
-4.562987 -5.489234 0.160046
-4.566536 -5.451372 0.157262
-4.554857 -5.396422 0.151013
-4.563577 -5.324688 0.145965
-4.606628 -5.252359 0.145286
-4.734218 -5.039653 0.143009
-4.739130 -5.007292 0.140757
-4.762124 -4.993036 0.142412
-4.775990 -4.969783 0.142094
-4.789251 -4.909665 0.138375
-4.786050 -4.834905 0.131218
-4.742735 -4.759138 0.118896
-4.672456 -4.559138 0.091807
-4.640267 -4.338593 0.067275
-4.652027 -4.317461 0.066716
-4.672714 -4.303829 0.067945
-4.664575 -4.266320 0.063376
-4.336044 -3.884683 -0.013121
-4.321508 -3.846147 -0.018629
-4.318262 -3.816829 -0.021896
-4.327628 -3.797490 -0.022692
-4.344916 -3.784259 -0.021957
-4.324469 -3.742378 -0.028554
-4.312221 -3.707126 -0.033536
-4.312249 -3.681349 -0.036136
-4.327108 -3.666653 -0.035894
-4.299186 -3.620747 -0.043835
-4.276934 -3.579492 -0.050656
-4.298953 -3.570334 -0.049062
-4.307628 -3.551586 -0.050017
-4.305811 -3.525520 -0.052956
-4.294007 -3.492702 -0.057763
-4.241198 -3.432041 -0.070199
-4.251985 -3.415469 -0.070751
-4.277627 -3.408880 -0.068573
-4.289429 -3.392858 -0.068986
-4.285563 -3.366476 -0.072294
-4.250310 -3.319788 -0.081337
-4.277774 -3.314206 -0.078917
-4.277443 -3.290610 -0.081581
-4.240386 -3.243897 -0.090880
-4.256914 -3.231337 -0.090495
-4.268564 -3.215647 -0.091014
-4.247092 -3.179607 -0.097463
-4.235905 -3.150188 -0.102059
-4.244382 -3.132818 -0.103167
-4.229071 -3.101313 -0.108483
-4.215342 -3.071030 -0.113506
-4.205057 -3.043018 -0.117913
-4.196709 -3.016341 -0.121973
-4.199627 -2.996264 -0.124078
-4.198939 -2.974211 -0.126815
-4.227624 -2.968580 -0.124517
-4.221697 -2.943656 -0.128179
-4.218004 -2.920106 -0.131456
-4.211903 -2.895395 -0.135139
-4.198115 -2.866764 -0.140111
-4.197463 -2.845283 -0.142860
-4.199565 -2.825325 -0.145150
-4.196733 -2.802902 -0.148262
-4.195997 -2.781665 -0.151020
-4.197217 -2.761509 -0.153452
-4.186687 -2.735623 -0.157805
-4.171638 -2.707754 -0.162871
-4.197955 -2.700133 -0.161188
-4.178918 -2.670686 -0.166861
-4.171776 -2.647178 -0.170576
-4.174720 -2.628565 -0.172647
-4.180762 -2.611466 -0.174206
-4.177444 -2.590188 -0.177233
-4.168080 -2.566384 -0.181180
-4.163527 -2.544965 -0.184324
-4.165119 -2.526441 -0.186462
-4.157845 -2.504250 -0.189941
-4.162536 -2.487411 -0.191507
-4.167910 -2.471000 -0.192923
-4.168638 -2.452811 -0.195004
-4.174244 -2.436825 -0.196279
-4.133395 -2.402250 -0.204585
-4.144349 -2.388989 -0.204898
-4.144221 -2.371504 -0.206829
-4.147725 -2.355690 -0.208135
-4.151992 -2.340403 -0.209249
-4.152400 -2.323894 -0.210862
-4.127343 -2.298154 -0.216193
-4.127492 -2.282247 -0.217658
-4.136679 -2.269930 -0.217689
-4.133388 -2.253348 -0.219484
-1.803110 -6.145011 -0.234455
-1.844431 -6.134244 -0.229576
-1.909593 -6.121676 -0.220906
-1.960808 -6.139925 -0.211858
-1.982243 -6.129358 -0.209118
-2.002295 -6.112432 -0.206930
-2.022974 -6.097597 -0.204456
-2.049630 -6.105729 -0.199554
-2.074877 -6.107266 -0.195237
-2.094762 -6.087749 -0.193040
-2.116534 -6.075192 -0.190074
-2.145679 -6.089171 -0.184251
-2.176530 -6.108119 -0.177817
-3.113616 -6.069726 -0.023176
-3.118422 -6.019695 -0.025762
-3.136237 -5.997700 -0.024507
-3.156495 -5.981018 -0.022548
-3.175603 -5.962157 -0.020931
-3.211059 -5.976345 -0.014630
-3.247771 -5.992463 -0.008030
-3.268003 -5.975610 -0.006174
-3.286748 -5.956002 -0.004750
-3.313406 -5.951774 -0.001111
-3.350039 -5.966320 0.005285
-3.381655 -5.970865 0.010224
-3.409509 -5.968068 0.014079
-3.440493 -5.970810 0.018760
-3.459455 -5.951396 0.020110
-3.475948 -5.927693 0.020778
-3.506711 -5.929582 0.025311
-3.544692 -5.943837 0.031748
-3.581975 -5.956295 0.037938
-3.613970 -5.959108 0.042661
-3.640456 -5.952193 0.045879
-3.661954 -5.936734 0.047753
-3.692289 -5.936033 0.051935
-3.711723 -5.917070 0.053230
-3.737419 -5.908424 0.056147
-3.762274 -5.898300 0.058822
-3.786331 -5.886805 0.061270
-3.813905 -5.880805 0.064600
-3.844936 -5.880039 0.068786
-3.877171 -5.880846 0.073242
-3.940891 -5.880349 0.081852
-3.977477 -5.886749 0.087287
-4.003351 -5.876753 0.090005
-4.032142 -5.870938 0.093425
-4.047225 -5.844912 0.093431
-4.065747 -5.824049 0.094287
-4.094242 -5.817544 0.097580
-4.139358 -5.834391 0.104899
-4.182841 -5.848290 0.111760
-4.226297 -5.861552 0.118557
-4.254220 -5.852862 0.121562
-4.284348 -5.847010 0.125072
-4.316164 -5.843215 0.128957
-4.342185 -5.831415 0.131436
-4.374318 -5.827593 0.135342
-4.405337 -5.822046 0.138955
-4.415771 -5.789557 0.137718
-4.467398 -5.810283 0.146105
-4.485189 -5.787210 0.146563
-4.510846 -5.774147 0.148840
-4.549932 -5.777757 0.154195
-4.561727 -5.747202 0.153247
-4.562778 -5.703723 0.149856
-4.582088 -5.682874 0.150649
-4.564699 -5.617971 0.143123
-4.559025 -5.567895 0.138305
-4.559198 -5.525317 0.134842
-4.572720 -5.498791 0.134396
-4.553048 -5.392674 0.123151
-4.558624 -5.358100 0.121005
-4.566374 -5.326283 0.119357
-4.575264 -5.295997 0.117973
-4.728787 -5.033262 0.115142
-4.777505 -4.970467 0.115796
-4.766647 -4.816015 0.101068
-4.745964 -4.761575 0.093777
-4.688527 -4.540181 0.067233
-4.719830 -4.502391 0.067617
-4.653630 -4.318622 0.043034
-4.653772 -4.257270 0.037405
-4.659916 -4.201726 0.032964
-4.328149 -3.878380 -0.036148
-4.326142 -3.849788 -0.039088
-4.321618 -3.819458 -0.042499
-4.323659 -3.794458 -0.044657
-4.336594 -3.777947 -0.044761
-4.341036 -3.754997 -0.046475
-4.325041 -3.716831 -0.052018
-4.330275 -3.694845 -0.053579
-4.323746 -3.664301 -0.057331
-4.323494 -3.638592 -0.059912
-4.281312 -3.582800 -0.070221
-4.288679 -3.563160 -0.071373
-4.311723 -3.554662 -0.069670
-4.312858 -3.530647 -0.071993
-4.315550 -3.507845 -0.074036
-4.293379 -3.468080 -0.080580
-4.280403 -3.435011 -0.085441
-4.302705 -3.425993 -0.083960
-4.289363 -3.393064 -0.088881
-4.290260 -3.369832 -0.091255
-4.247840 -3.318443 -0.101310
-4.252740 -3.298312 -0.102959
-4.267292 -3.284406 -0.102924
-4.240405 -3.244202 -0.110169
-4.256283 -3.231244 -0.109928
-4.277080 -3.221237 -0.108862
-4.281393 -3.200959 -0.110683
-4.212825 -3.136510 -0.125059
-4.210761 -3.112970 -0.127945
-4.214855 -3.093212 -0.129785
-4.227912 -3.078762 -0.130115
-4.207708 -3.044913 -0.136098
-4.198727 -3.017862 -0.140167
-4.193815 -2.993330 -0.143547
-4.206619 -2.978907 -0.143969
-4.206795 -2.957392 -0.146515
-4.211366 -2.938377 -0.148339
-4.211982 -2.917243 -0.150826
-4.212399 -2.896082 -0.153350
-4.205446 -2.871088 -0.157081
-4.197141 -2.845557 -0.161022
-4.195298 -2.823568 -0.163908
-4.197301 -2.803665 -0.166170
-4.198790 -2.783568 -0.168516
-4.197417 -2.762115 -0.171316
-4.172522 -2.729138 -0.177840
-4.186699 -2.715657 -0.178147
-4.187459 -2.695635 -0.180574
-4.176382 -2.670068 -0.184841
-4.170896 -2.647382 -0.188203
-4.174417 -2.629073 -0.190142
-4.180065 -2.611828 -0.191734
-4.172429 -2.588630 -0.195348
-4.168040 -2.567119 -0.198423
-4.166997 -2.547293 -0.200948
-4.164766 -2.527124 -0.203612
-4.148869 -2.501263 -0.208291
-4.166416 -2.489996 -0.207878
-4.168662 -2.472305 -0.209724
-4.162811 -2.451439 -0.212720
-4.135044 -2.421884 -0.218897
-4.168887 -2.417748 -0.215874
-4.166988 -2.399243 -0.218079
-4.134571 -2.368992 -0.224681
-4.164876 -2.363716 -0.222007
-4.152286 -2.341947 -0.225527
-4.126369 -2.315534 -0.230883
-4.112423 -2.294137 -0.234397
-4.107837 -2.276624 -0.236459
-4.119195 -2.265268 -0.236132
-4.165379 -2.266659 -0.230723
-1.825145 -6.128022 -0.255865
-1.846418 -6.125405 -0.253190
-1.869447 -6.129223 -0.249779
-1.893297 -6.134964 -0.246046
-1.917166 -6.139055 -0.242326
-1.942145 -6.146331 -0.238169
-1.966323 -6.148617 -0.234354
-1.986027 -6.131085 -0.232318
-2.005086 -6.110455 -0.230498
-2.025444 -6.094702 -0.228131
-2.053684 -6.109307 -0.222716
-2.096741 -6.083895 -0.217010
-2.118697 -6.072308 -0.213965
-2.145989 -6.079778 -0.208941
-2.176120 -6.096456 -0.202905
-2.530919 -6.290674 -0.131247
-3.108882 -6.054137 -0.050881
-3.121917 -6.021659 -0.050929
-3.136677 -5.993311 -0.050481
-3.157802 -5.978478 -0.048250
-3.181284 -5.968550 -0.045380
-3.210143 -5.969409 -0.041046
-3.245574 -5.983050 -0.034943
-3.281837 -5.997768 -0.028671
-3.292282 -5.961839 -0.029485
-3.327376 -5.973729 -0.023610
-3.362461 -5.985085 -0.017794
-3.387648 -5.977370 -0.014684
-3.421991 -5.986541 -0.009160
-3.477285 -5.979201 -0.001797
-3.501155 -5.968467 0.000844
-3.516145 -5.941927 0.001144
-3.547132 -5.943767 0.005603
-3.580080 -5.948695 0.010528
-3.611597 -5.950777 0.015042
-3.637690 -5.943302 0.018126
-3.664858 -5.937506 0.021458
-3.650668 -5.862665 0.014274
-3.714831 -5.918209 0.026936
-3.734059 -5.899027 0.028196
-3.763690 -5.896732 0.032046
-3.786476 -5.883250 0.034162
-3.814476 -5.877986 0.037551
-3.845702 -5.877572 0.041707
-3.876999 -5.876973 0.045846
-3.906092 -5.872696 0.049412
-3.946960 -5.886070 0.055809
-3.979297 -5.886045 0.060088
-4.019772 -5.897811 0.066291
-4.054328 -5.852033 0.067466
-4.068539 -5.824914 0.067321
-4.099354 -5.821746 0.071109
-4.144513 -5.838628 0.078244
-4.182403 -5.844663 0.083616
-4.212020 -5.838770 0.087012
-4.242527 -5.833888 0.090588
-4.267865 -5.821731 0.092940
-4.304163 -5.824253 0.097800
-4.342559 -5.829195 0.103103
-4.363213 -5.810250 0.104310
-4.398467 -5.810449 0.108831
-4.478814 -5.822462 0.119987
-4.495108 -5.797410 0.120134
-4.523194 -5.787350 0.122922
-4.554219 -5.780804 0.126342
-4.554618 -5.736183 0.122943
-4.573902 -5.715182 0.123746
-4.594655 -5.651939 0.121435
-4.567810 -5.576406 0.112171
-4.563368 -5.528359 0.107854
-4.578803 -5.462072 0.104573
-4.562911 -5.402304 0.097883
-4.550432 -5.306808 0.088776
-4.584531 -5.304826 0.092840
-4.763655 -5.029931 0.092526
-4.775514 -5.004551 0.091867
-4.785475 -4.977447 0.090826
-4.784736 -4.940147 0.087644
-4.739666 -4.860683 0.075628
-4.753614 -4.803117 0.072480
-4.669439 -4.622020 0.047195
-4.655629 -4.576138 0.041660
-4.665835 -4.552351 0.040830
-4.646016 -4.374291 0.023102
-4.630589 -4.268391 0.011980
-4.600997 -4.213560 0.003701
-4.646719 -4.190940 0.006884
-4.329542 -3.879440 -0.057328
-4.331367 -3.853873 -0.059465
-4.333409 -3.828644 -0.061561
-4.327425 -3.797379 -0.065128
-4.334729 -3.776552 -0.066259
-4.340606 -3.754720 -0.067657
-4.334580 -3.724053 -0.071220
-4.318155 -3.685924 -0.076652
-4.324947 -3.665283 -0.077884
-4.323089 -3.638410 -0.080677
-4.311496 -3.604704 -0.085206
-4.305684 -3.575449 -0.088693
-4.301473 -3.547565 -0.091890
-4.297606 -3.520131 -0.095023
-4.275504 -3.480253 -0.101359
-4.293653 -3.468459 -0.100621
-4.264335 -3.424288 -0.108190
-4.262820 -3.399365 -0.110894
-4.270834 -3.380942 -0.111951
-4.272096 -3.358086 -0.114189
-4.254744 -3.323188 -0.119628
-4.254973 -3.300003 -0.122045
-4.260890 -3.280570 -0.123500
-4.260676 -3.257295 -0.126009
-4.250787 -3.228075 -0.130158
-4.269244 -3.216664 -0.129537
-4.271295 -3.195056 -0.131694
-4.224392 -3.143823 -0.142020
-4.217392 -3.117252 -0.145665
-4.225582 -3.099891 -0.146798
-4.225621 -3.077734 -0.149292
-4.232673 -3.059746 -0.150645
-4.222013 -3.031579 -0.154903
-4.210666 -3.003249 -0.159264
-4.209441 -2.980842 -0.161979
-4.207788 -2.958301 -0.164768
-4.202250 -2.933733 -0.168182
-4.202972 -2.912724 -0.170596
-4.211105 -2.895776 -0.171838
-4.206979 -2.872303 -0.175031
-4.201945 -2.848491 -0.178363
-4.193786 -2.823209 -0.182178
-4.188728 -2.799709 -0.185496
-4.193784 -2.781489 -0.187237
-4.197381 -2.762573 -0.189205
-4.189725 -2.738145 -0.192900
-4.189598 -2.717592 -0.195424
-4.187145 -2.696025 -0.198290
-4.178937 -2.671854 -0.202009
-4.175035 -2.649926 -0.205050
-4.177927 -2.631332 -0.207046
-4.178685 -2.611855 -0.209340
-4.171526 -2.588916 -0.212783
-4.168361 -2.567998 -0.215593
-4.175633 -2.551892 -0.216827
-4.174473 -2.532187 -0.219264
-4.177384 -2.514431 -0.221062
-4.156113 -2.486532 -0.226324
-4.172771 -2.475012 -0.226021
-4.159333 -2.451032 -0.230013
-4.139322 -2.424725 -0.234868
-4.138124 -2.406469 -0.236945
-4.119485 -2.381506 -0.241431
-4.170384 -2.384395 -0.235962
-4.172074 -2.367885 -0.237417
-4.157064 -2.345218 -0.241142
-4.129092 -2.318064 -0.246586
-4.108931 -2.294394 -0.250824
-4.107739 -2.278225 -0.252308
-4.132622 -2.271891 -0.250070
-4.119708 -2.252000 -0.253005
-1.791784 -6.152586 -0.281547
-1.854995 -6.147134 -0.274008
-1.877470 -6.148422 -0.270931
-1.898687 -6.142450 -0.268353
-1.921776 -6.143372 -0.265031
-1.944226 -6.140083 -0.261953
-1.965507 -6.130674 -0.259308
-1.986958 -6.121069 -0.256576
-2.000812 -6.079961 -0.256642
-2.032171 -6.108739 -0.250184
-2.054830 -6.101600 -0.246943
-2.076707 -6.090826 -0.243966
-2.099730 -6.083902 -0.240559
-2.122339 -6.074948 -0.237282
-2.150092 -6.084206 -0.232191
-2.195873 -6.156468 -0.220876
-2.449234 -6.373185 -0.166975
-2.626603 -6.316740 -0.139619
-3.115111 -6.061973 -0.075414
-3.116499 -6.004954 -0.078521
-3.140612 -5.996257 -0.075447
-3.167353 -5.992933 -0.071693
-3.189362 -5.979856 -0.069237
-3.215806 -5.975739 -0.065621
-3.251221 -5.989264 -0.059664
-3.261931 -5.953824 -0.060264
-3.297327 -5.966770 -0.054390
-3.326143 -5.966569 -0.050284
-3.351815 -5.960167 -0.047031
-3.387066 -5.971595 -0.041336
-3.422333 -5.982540 -0.035690
-3.458825 -5.995227 -0.029784
-3.485460 -5.989504 -0.026435
-3.511309 -5.982224 -0.023315
-3.529616 -5.961451 -0.022119
-3.546873 -5.939003 -0.021195
-3.574668 -5.935044 -0.017651
-3.590949 -5.911113 -0.016992
-3.632561 -5.930450 -0.010087
-3.658186 -5.922211 -0.007170
-3.690047 -5.924231 -0.002755
-3.706200 -5.900051 -0.002199
-3.741873 -5.907885 0.003081
-3.766631 -5.897658 0.005683
-3.791572 -5.887635 0.008308
-3.819965 -5.882968 0.011736
-3.856625 -5.891023 0.017100
-3.881917 -5.881010 0.019727
-3.906165 -5.869293 0.022088
-3.935447 -5.865137 0.025610
-3.980064 -5.883784 0.032682
-4.022882 -5.899071 0.039276
-4.047721 -5.887271 0.041654
-4.062250 -5.860359 0.041639
-4.084876 -5.845342 0.043484
-4.107820 -5.830756 0.045387
-4.142348 -5.832520 0.049910
-4.180078 -5.838414 0.055120
-4.207312 -5.829307 0.057923
-4.220937 -5.801355 0.057650
-4.247575 -5.791320 0.060290
-4.322820 -5.800157 0.070376
-4.366395 -5.811818 0.076672
-4.395240 -5.803642 0.079682
-4.399437 -5.763343 0.077276
-4.452659 -5.786407 0.085574
-4.545562 -5.813165 0.099046
-4.550884 -5.774349 0.096850
-4.567452 -5.749819 0.097085
-4.578941 -5.719192 0.096236
-4.619398 -5.723914 0.101553
-4.596317 -5.608372 0.090131
-4.577419 -5.458729 0.076620
-4.557876 -5.394865 0.069439
-4.559509 -5.355886 0.066693
-4.773998 -5.039320 0.067865
-4.784155 -5.012212 0.066916
-4.695623 -4.713454 0.032702
-4.669739 -4.490180 0.011425
-4.664380 -4.421391 0.005071
-4.633076 -4.331791 -0.006012
-4.634551 -4.271500 -0.010990
-4.606169 -4.217663 -0.018774
-4.419392 -3.978638 -0.060171
-4.353767 -3.898625 -0.074399
-4.335196 -3.856842 -0.080126
-4.329085 -3.825248 -0.083606
-4.342055 -3.808669 -0.083691
-4.337050 -3.778338 -0.086969
-4.344661 -3.757819 -0.088019
-4.327655 -3.718903 -0.093397
-4.314628 -3.683364 -0.098057
-4.325144 -3.665503 -0.098603
-4.331166 -3.644385 -0.099943
-4.321206 -3.611813 -0.104055
-4.320816 -3.586378 -0.106509
-4.306546 -3.551284 -0.111345
-4.281115 -3.508721 -0.118071
-4.278100 -3.482206 -0.120954
-4.268939 -3.451653 -0.124879
-4.263863 -3.424141 -0.128108
-4.254437 -3.393906 -0.132066
-4.271720 -3.381726 -0.131547
-4.274219 -3.359689 -0.133521
-4.266139 -3.330838 -0.137262
-4.262787 -3.305272 -0.140217
-4.264791 -3.283293 -0.142293
-4.248637 -3.249911 -0.147356
-4.244589 -3.224437 -0.150429
-4.253252 -3.207004 -0.151437
-4.235831 -3.173565 -0.156687
-4.232239 -3.148849 -0.159693
-4.233934 -3.127456 -0.161853
-4.230844 -3.103297 -0.164789
-4.229279 -3.080170 -0.167485
-4.230317 -3.058671 -0.169776
-4.226954 -3.034722 -0.172769
-4.217990 -3.007722 -0.176645
-4.217183 -2.985513 -0.179240
-4.213210 -2.961643 -0.182332
-4.205980 -2.936120 -0.185929
-4.206005 -2.914719 -0.188403
-4.203200 -2.891885 -0.191315
-4.202294 -2.870183 -0.193937
-4.200080 -2.847895 -0.196757
-4.195536 -2.824514 -0.199928
-4.189512 -2.800522 -0.203312
-4.189375 -2.779683 -0.205804
-4.192890 -2.760773 -0.207746
-4.194997 -2.741223 -0.209895
-4.190718 -2.718632 -0.212980
-4.188789 -2.697336 -0.215701
-4.187445 -2.676457 -0.218319
-4.187884 -2.656555 -0.220657
-4.185067 -2.635261 -0.223444
-4.168793 -2.607947 -0.228142
-4.167582 -2.587802 -0.230628
-4.179055 -2.573510 -0.231267
-4.179494 -2.554364 -0.233451
-4.173652 -2.532640 -0.236483
-4.172854 -2.513339 -0.238749
-4.176763 -2.496243 -0.240303
-4.160439 -2.470798 -0.244631
-4.156070 -2.450707 -0.247216
-4.147089 -2.428997 -0.250370
-4.133276 -2.405659 -0.254112
-4.162992 -2.400106 -0.251782
-4.166030 -2.383980 -0.253059
-4.184555 -2.374124 -0.252143
-4.172780 -2.352708 -0.255280
-4.143616 -2.325088 -0.260677
-4.123942 -2.301598 -0.264678
-4.129247 -2.287840 -0.265204
-4.157591 -2.282763 -0.262541
-4.219320 -2.289799 -0.255323
-1.839203 -6.156613 -0.298704
-1.865576 -6.177911 -0.294224
-1.902993 -6.145032 -0.291098
-1.917449 -6.108706 -0.291036
-1.964693 -6.112837 -0.284056
-1.986055 -6.103580 -0.281357
-2.008799 -6.099071 -0.278142
-2.032496 -6.097415 -0.274574
-2.058907 -6.105341 -0.270057
-2.081514 -6.097560 -0.266843
-2.102750 -6.084085 -0.264071
-2.159613 -6.108223 -0.253664
-2.212373 -6.204803 -0.240482
-2.471815 -6.348262 -0.190327
-3.128238 -6.024376 -0.101452
-3.141162 -5.992239 -0.101307
-3.166005 -5.985071 -0.098085
-3.196495 -5.989284 -0.093440
-3.224269 -5.987729 -0.089532
-3.242281 -5.966640 -0.088139
-3.265488 -5.955956 -0.085443
-3.286439 -5.940908 -0.083337
-3.323790 -5.957338 -0.077144
-3.363101 -5.976858 -0.070521
-3.391062 -5.974451 -0.066773
-3.386846 -5.912278 -0.070993
-3.443506 -5.962649 -0.060230
-3.482799 -5.980214 -0.053810
-3.507446 -5.970895 -0.051009
-3.524725 -5.948451 -0.050015
-3.546815 -5.934641 -0.047870
-3.568076 -5.919411 -0.045941
-3.593190 -5.910835 -0.043110
-3.624062 -5.911933 -0.038936
-3.666705 -5.932498 -0.032018
-3.692679 -5.924636 -0.029082
-3.716910 -5.913777 -0.026580
-3.741545 -5.903505 -0.024005
-3.768147 -5.896320 -0.020995
-3.825917 -5.888705 -0.014002
-3.864819 -5.900217 -0.008257
-3.887810 -5.886579 -0.006187
-3.910661 -5.872693 -0.004166
-3.934312 -5.859991 -0.001980
-3.969538 -5.864603 0.002791
-4.000775 -5.862885 0.006629
-4.038434 -5.870334 0.011867
-4.073260 -5.873193 0.016433
-4.098883 -5.862405 0.018927
-4.111670 -5.833180 0.018577
-4.139259 -5.825134 0.021475
-4.179692 -5.834907 0.027152
-4.217637 -5.840715 0.032243
-4.243069 -5.828905 0.034585
-4.262660 -5.809053 0.035651
-4.291313 -5.801457 0.038654
-4.325366 -5.800879 0.042788
-4.401351 -5.809071 0.052628
-4.415524 -5.781691 0.052463
-4.425751 -5.749436 0.051471
-4.496871 -5.794839 0.063236
-4.535883 -5.798627 0.068213
-4.554770 -5.776911 0.068973
-4.562016 -5.740888 0.067320
-4.616722 -5.718570 0.072308
-4.629956 -5.690265 0.071888
-4.590681 -5.599722 0.060782
-4.537598 -5.494277 0.046964
-4.561737 -5.438866 0.045868
-4.556607 -5.350989 0.038946
-4.565328 -5.320461 0.037769
-4.581873 -5.298878 0.038151
-4.745884 -5.047598 0.038631
-4.797552 -5.024547 0.042796
-4.788822 -4.979074 0.038350
-4.721154 -4.841486 0.020165
-4.723444 -4.704445 0.009824
-4.667050 -4.487422 -0.013572
-4.674862 -4.462088 -0.014744
-4.659946 -4.417230 -0.019993
-4.648041 -4.313257 -0.029759
-4.639588 -4.275485 -0.033785
-4.374056 -3.914661 -0.092416
-4.339158 -3.859895 -0.100783
-4.334202 -3.829190 -0.103949
-4.326529 -3.796652 -0.107573
-4.336080 -3.777585 -0.108245
-4.332883 -3.748904 -0.111099
-4.309540 -3.705336 -0.117367
-4.310742 -3.680514 -0.119460
-4.323375 -3.664255 -0.119632
-4.320097 -3.636387 -0.122491
-4.317574 -3.609272 -0.125223
-4.319901 -3.585818 -0.127148
-4.298842 -3.545938 -0.132955
-4.289869 -3.514970 -0.136745
-4.286420 -3.488103 -0.139620
-4.275242 -3.456118 -0.143761
-4.268393 -3.427368 -0.147188
-4.270035 -3.404562 -0.149232
-4.277239 -3.385569 -0.150386
-4.275509 -3.360716 -0.152995
-4.265912 -3.330873 -0.156872
-4.269230 -3.309627 -0.158681
-4.268594 -3.285925 -0.161131
-4.242831 -3.246443 -0.167569
-4.231241 -3.216289 -0.171745
-4.242615 -3.200631 -0.172307
-4.242718 -3.178018 -0.174656
-4.226421 -3.145553 -0.179568
-4.234035 -3.127758 -0.180759
-4.237906 -3.107741 -0.182547
-4.231648 -3.081818 -0.185905
-4.225508 -3.056139 -0.189246
-4.223870 -3.033220 -0.191900
-4.218646 -3.008374 -0.195104
-4.215648 -2.984937 -0.197972
-4.218884 -2.965094 -0.199906
-4.223675 -2.946157 -0.201618
-4.214334 -2.919564 -0.205445
-4.208237 -2.894919 -0.208782
-4.188894 -2.863400 -0.214067
-4.191668 -2.843828 -0.216081
-4.195134 -2.824673 -0.217999
-4.192840 -2.802613 -0.220757
-4.190068 -2.780435 -0.223577
-4.191596 -2.760545 -0.225769
-4.191123 -2.739748 -0.228242
-4.189300 -2.718404 -0.230897
-4.192474 -2.699609 -0.232827
-4.191170 -2.678756 -0.235377
-4.187977 -2.657151 -0.238171
-4.183395 -2.635068 -0.241131
-4.168640 -2.608496 -0.245473
-4.170248 -2.589673 -0.247500
-4.185247 -2.576993 -0.247649
-4.185309 -2.557692 -0.249826
-4.169295 -2.531534 -0.254153
-4.162835 -2.509864 -0.257115
-4.165994 -2.492561 -0.258713
-4.163491 -2.473047 -0.261020
-4.154212 -2.450960 -0.264172
-4.152349 -2.432242 -0.266255
-4.169677 -2.421556 -0.265711
-4.163253 -2.401441 -0.268259
-4.169563 -2.386681 -0.269038
-4.202259 -2.382415 -0.266265
-4.172355 -2.354003 -0.271651
-4.153569 -2.330397 -0.275468
-4.135873 -2.307672 -0.279038
-4.142784 -2.294535 -0.279300
-4.159569 -2.285254 -0.278190
-1.867837 -6.170087 -0.317695
-1.889143 -6.166532 -0.315219
-1.944346 -6.110435 -0.310624
-1.967393 -6.109765 -0.307402
-1.986580 -6.092035 -0.305458
-2.007049 -6.078943 -0.303036
-2.032330 -6.084225 -0.298988
-2.060588 -6.099823 -0.293960
-2.083297 -6.092812 -0.290735
-2.105502 -6.083313 -0.287647
-2.128313 -6.075586 -0.284339
-2.170079 -6.135609 -0.275051
-2.219572 -6.220148 -0.263438
-2.304416 -6.330464 -0.244901
-2.433578 -6.394607 -0.220784
-2.648963 -6.365028 -0.186181
-3.105848 -6.031703 -0.130133
-3.119226 -6.000303 -0.129754
-3.125171 -5.954014 -0.131221
-3.159673 -5.967083 -0.125611
-3.195146 -5.981587 -0.119815
-3.229872 -5.994030 -0.114255
-3.250758 -5.978574 -0.112117
-3.280262 -5.980084 -0.107909
-3.303602 -5.969396 -0.105227
-3.321973 -5.949200 -0.103761
-3.365999 -5.977712 -0.096177
-3.405141 -5.996205 -0.089826
-3.423958 -5.976448 -0.088343
-3.446328 -5.963360 -0.086036
-3.466345 -5.946033 -0.084301
-3.503536 -5.959548 -0.078573
-3.523676 -5.942316 -0.076858
-3.538520 -5.915903 -0.076382
-3.568652 -5.916266 -0.072391
-3.584842 -5.892439 -0.071630
-3.603502 -5.873025 -0.070312
-3.667674 -5.930134 -0.058671
-3.697119 -5.928080 -0.054983
-3.719293 -5.913826 -0.052964
-3.752868 -5.918122 -0.048408
-3.773598 -5.901351 -0.046757
-3.793069 -5.882618 -0.045399
-3.833055 -5.896335 -0.039517
-3.868586 -5.902513 -0.034666
-3.896832 -5.897002 -0.031453
-3.919153 -5.882229 -0.029560
-3.938583 -5.863065 -0.028311
-3.965968 -5.855906 -0.025350
-3.999771 -5.858106 -0.021031
-4.032744 -5.858730 -0.016927
-4.076760 -5.875101 -0.010497
-4.104401 -5.867232 -0.007603
-4.118784 -5.840280 -0.007541
-4.228480 -5.852845 0.006569
-4.255798 -5.843536 0.009270
-4.279100 -5.828625 0.011117
-4.305067 -5.817256 0.013501
-4.333088 -5.808513 0.016288
-4.409211 -5.816790 0.025899
-4.445109 -5.817508 0.030208
-4.463828 -5.795846 0.031004
-4.484821 -5.777146 0.032254
-4.533650 -5.793480 0.039087
-4.564488 -5.741734 0.039274
-4.584000 -5.721083 0.040180
-4.591899 -5.642582 0.035840
-4.593667 -5.601332 0.033267
-4.595543 -5.560642 0.030735
-4.570910 -5.447733 0.020221
-4.568326 -5.403491 0.016904
-4.560657 -5.313667 0.009864
-4.586701 -5.302754 0.012092
-4.718488 -5.056344 0.009670
-4.772082 -5.035574 0.014143
-4.777451 -4.967135 0.009781
-4.776013 -4.929365 0.006869
-4.744591 -4.757881 -0.009213
-4.717344 -4.664277 -0.019168
-4.672841 -4.459950 -0.039498
-4.644985 -4.310429 -0.054115
-4.648561 -4.282729 -0.055938
-4.345766 -3.892076 -0.118786
-4.361028 -3.877022 -0.118474
-4.337582 -3.831758 -0.124616
-4.334193 -3.802520 -0.127408
-4.328392 -3.771674 -0.130594
-4.316007 -3.736105 -0.134857
-4.300531 -3.698576 -0.139613
-4.305673 -3.676762 -0.140989
-4.307020 -3.652250 -0.142991
-4.302914 -3.623909 -0.145880
-4.302297 -3.598305 -0.148207
-4.308515 -3.577750 -0.149439
-4.301530 -3.547919 -0.152797
-4.292209 -3.516700 -0.156523
-4.293666 -3.493230 -0.158533
-4.299655 -3.472996 -0.159834
-4.266289 -3.426059 -0.167347
-4.273249 -3.406855 -0.168500
-4.277338 -3.385775 -0.170119
-4.260641 -3.351056 -0.174983
-4.269097 -3.333108 -0.175938
-4.272738 -3.312058 -0.177655
-4.266079 -3.284488 -0.180968
-4.238831 -3.244087 -0.187429
-4.228380 -3.214680 -0.191306
-4.258559 -3.210706 -0.189019
-4.248464 -3.181740 -0.192861
-4.225638 -3.145281 -0.198611
-4.226957 -3.123718 -0.200729
-4.241006 -3.109801 -0.200961
-4.236121 -3.084671 -0.204029
-4.229099 -3.058459 -0.207414
-4.227303 -3.035434 -0.210031
-4.225143 -3.012317 -0.212707
-4.214084 -2.984313 -0.216682
-4.210663 -2.960787 -0.219543
-4.219734 -2.944264 -0.220605
-4.221150 -2.923556 -0.222782
-4.210124 -2.896230 -0.226743
-4.193472 -2.866142 -0.231491
-4.191784 -2.844211 -0.234101
-4.193595 -2.824212 -0.236216
-4.189939 -2.801479 -0.239097
-4.191024 -2.781293 -0.241309
-4.189532 -2.759905 -0.243874
-4.185722 -2.737491 -0.246748
-4.190140 -2.719257 -0.248476
-4.201425 -2.704405 -0.249257
-4.187256 -2.677386 -0.253497
-4.179591 -2.653727 -0.256817
-4.179681 -2.633904 -0.259059
-4.176837 -2.612870 -0.261666
-4.161645 -2.586407 -0.265883
-4.177285 -2.574111 -0.265953
-4.177036 -2.554766 -0.268099
-4.173671 -2.534237 -0.270610
-4.164176 -2.511285 -0.273870
-4.159075 -2.490510 -0.276490
-4.160305 -2.472666 -0.278224
-4.158914 -2.453939 -0.280233
-4.151255 -2.432883 -0.282980
-4.166159 -2.421296 -0.282753
-4.175796 -2.407699 -0.283136
-4.180597 -2.392356 -0.284062
-4.166854 -2.369998 -0.287261
-4.163922 -2.352223 -0.288994
-4.147380 -2.329582 -0.292352
-4.140315 -2.310954 -0.294413
-4.138484 -2.294633 -0.295720
-4.115615 -2.270915 -0.299566
-4.116657 -2.256369 -0.300317
-1.804616 -6.153090 -0.348717
-1.826448 -6.158123 -0.346173
-1.848835 -6.163739 -0.343427
-1.866959 -6.147835 -0.342115
-1.909060 -6.138759 -0.337384
-1.931288 -6.137260 -0.334579
-1.951529 -6.125934 -0.332387
-1.967771 -6.097014 -0.331428
-2.010339 -6.079128 -0.326125
-2.032843 -6.073783 -0.323034
-2.084903 -6.087444 -0.314609
-2.105865 -6.073695 -0.311911
-2.129423 -6.069114 -0.308399
-2.157517 -6.080252 -0.303519
-2.350152 -6.293452 -0.264293
-2.467282 -6.318036 -0.244094
-2.566814 -6.365560 -0.225956
-2.596726 -6.370468 -0.220867
-3.105068 -6.024894 -0.156316
-3.111374 -5.978780 -0.157518
-3.130674 -5.960440 -0.155618
-3.162784 -5.968521 -0.150706
-3.201639 -5.989830 -0.144251
-3.235357 -6.000149 -0.139060
-3.260825 -5.993690 -0.135839
-3.275529 -5.966105 -0.135145
-3.298296 -5.954479 -0.132595
-3.324484 -5.949403 -0.129282
-3.388228 -5.960077 -0.120156
-3.424244 -5.972515 -0.114715
-3.443617 -5.954008 -0.113082
-3.478899 -5.964396 -0.107887
-3.500389 -5.949632 -0.105826
-3.518536 -5.929003 -0.104527
-3.546239 -5.925264 -0.101122
-3.564880 -5.905640 -0.099748
-3.592564 -5.901645 -0.096399
-3.627851 -5.910344 -0.091416
-3.657548 -5.909200 -0.087695
-3.692050 -5.915771 -0.082964
-3.729479 -5.926727 -0.077643
-3.758797 -5.923981 -0.074112
-3.783388 -5.913390 -0.071624
-3.802141 -5.893419 -0.070402
-3.823608 -5.877837 -0.068615
-3.867117 -5.896664 -0.062184
-3.900513 -5.899189 -0.057936
-3.924189 -5.886495 -0.055762
-3.940809 -5.863067 -0.055079
-3.970751 -5.859763 -0.051632
-3.999546 -5.854512 -0.048451
-4.038016 -5.863268 -0.043302
-4.058885 -5.845936 -0.041809
-4.097451 -5.854118 -0.036710
-4.130098 -5.853380 -0.032858
-4.143709 -5.825454 -0.032897
-4.232978 -5.856190 -0.020494
-4.266799 -5.855798 -0.016533
-4.283924 -5.832412 -0.015935
-4.346602 -5.823868 -0.009125
-4.381838 -5.824364 -0.004991
-4.416253 -5.823445 -0.001051
-4.448675 -5.819630 0.002468
-4.494061 -5.786507 0.005648
-4.527468 -5.783382 0.009291
-4.561441 -5.780682 0.013015
-4.567339 -5.743054 0.011323
-4.580418 -5.714569 0.011017
-4.589647 -5.681618 0.009981
-4.566900 -5.610602 0.002886
-4.590533 -5.595673 0.004609
-4.582243 -5.543122 0.000309
-4.566953 -5.483055 -0.005273
-4.577785 -5.412646 -0.008605
-4.559731 -5.351326 -0.014607
-4.558620 -5.309837 -0.017435
-4.590275 -5.305233 -0.014214
-4.768472 -5.031053 -0.013097
-4.772182 -4.997774 -0.014992
-4.786578 -4.975202 -0.015011
-4.759674 -4.876915 -0.024739
-4.768450 -4.849727 -0.025716
-4.766697 -4.777848 -0.030990
-4.812376 -4.716218 -0.030616
-4.673551 -4.492328 -0.061363
-4.656059 -4.444909 -0.066665
-4.601271 -4.365779 -0.078168
-4.391345 -3.928165 -0.132862
-4.330138 -3.852604 -0.144891
-4.354410 -3.844787 -0.143144
-4.341881 -3.808384 -0.147306
-4.332771 -3.774967 -0.150911
-4.314137 -3.734651 -0.156017
-4.305370 -3.702184 -0.159546
-4.303209 -3.674922 -0.162029
-4.301503 -3.648196 -0.164441
-4.292617 -3.616424 -0.167978
-4.292197 -3.591048 -0.170192
-4.301860 -3.573037 -0.170849
-4.298462 -3.545803 -0.173540
-4.292848 -3.517211 -0.176573
-4.290479 -3.491094 -0.179109
-4.290963 -3.467110 -0.181215
-4.258656 -3.420961 -0.188307
-4.277522 -3.409833 -0.187630
-4.259931 -3.374285 -0.192474
-4.276353 -3.361539 -0.192205
-4.297360 -3.351689 -0.191281
-4.268568 -3.309496 -0.197797
-4.247287 -3.272607 -0.203175
-4.254550 -3.254185 -0.204327
-4.254373 -3.231118 -0.206590
-4.248344 -3.204535 -0.209718
-4.256407 -3.186781 -0.210798
-4.225019 -3.145077 -0.217613
-4.235760 -3.129184 -0.218322
-4.244739 -3.112206 -0.219308
-4.246968 -3.091243 -0.221280
-4.241834 -3.066065 -0.224312
-4.232173 -3.038443 -0.227986
-4.223377 -3.011529 -0.231534
-4.200350 -2.976810 -0.237074
-4.198351 -2.954170 -0.239656
-4.199525 -2.933391 -0.241800
-4.208404 -2.916878 -0.242887
-4.212585 -2.897821 -0.244635
-4.195078 -2.867274 -0.249361
-4.191538 -2.844376 -0.252162
-4.191371 -2.823366 -0.254500
-4.191036 -2.802370 -0.256859
-4.190195 -2.781220 -0.259281
-4.191013 -2.761016 -0.261473
-4.186676 -2.738355 -0.264342
-4.192439 -2.720800 -0.265858
-4.186092 -2.697439 -0.268959
-4.189204 -2.678794 -0.270796
-4.184959 -2.656770 -0.273573
-4.166860 -2.628476 -0.278114
-4.167377 -2.609103 -0.280201
-4.172017 -2.591750 -0.281727
-4.165548 -2.569520 -0.284638
-4.175625 -2.554868 -0.285397
-4.181128 -2.538283 -0.286698
-4.172297 -2.515632 -0.289760
-4.161716 -2.492532 -0.292974
-4.168685 -2.477157 -0.293924
-4.166342 -2.458055 -0.295973
-4.164973 -2.439612 -0.297829
-4.157543 -2.418969 -0.300357
-4.175446 -2.408806 -0.299686
-4.182307 -2.394359 -0.300300
-4.175915 -2.374939 -0.302452
-4.153687 -2.349752 -0.306439
-4.151822 -2.332828 -0.307846
-4.144001 -2.313972 -0.309882
-4.136460 -2.295591 -0.311784
-4.143848 -2.283066 -0.311789
-4.086625 -2.247329 -0.319473
-1.831319 -6.161347 -0.368383
-1.850572 -6.152764 -0.366760
-1.894673 -6.156557 -0.361608
-1.925572 -6.096802 -0.360374
-1.952196 -6.113713 -0.356237
-1.968654 -6.086397 -0.355145
-2.016231 -6.089704 -0.348416
-2.038858 -6.084990 -0.345345
-2.061274 -6.078595 -0.342297
-2.083554 -6.070945 -0.339251
-2.107703 -6.069622 -0.335639
-2.133589 -6.073863 -0.331513
-2.164671 -6.095820 -0.325919
-2.215858 -6.187091 -0.314759
-2.482640 -6.357358 -0.266107
-2.641623 -6.330266 -0.241214
-2.805395 -6.312500 -0.215827
-2.900365 -6.264005 -0.202890
-2.942023 -6.295246 -0.195415
-3.093590 -6.055645 -0.182404
-3.116906 -6.044900 -0.179533
-3.114154 -5.979627 -0.182625
-3.142183 -5.979344 -0.178710
-3.173631 -5.985836 -0.174059
-3.204157 -5.990090 -0.169657
-3.237387 -5.999415 -0.164691
-3.256397 -5.980218 -0.162937
-3.270100 -5.950856 -0.162376
-3.292645 -5.938982 -0.159870
-3.319854 -5.936029 -0.156362
-3.350043 -5.938522 -0.152235
-3.385891 -5.951271 -0.146912
-3.417133 -5.954986 -0.142637
-3.458260 -5.976405 -0.136265
-3.477665 -5.957872 -0.134621
-3.498765 -5.942500 -0.132631
-3.517839 -5.923609 -0.131091
-3.548062 -5.924344 -0.127199
-3.578435 -5.925049 -0.123311
-3.605392 -5.919616 -0.120176
-3.630019 -5.910072 -0.117558
-3.659990 -5.909402 -0.113849
-3.693426 -5.914210 -0.109452
-3.726135 -5.917439 -0.105244
-3.750385 -5.906569 -0.102816
-3.775933 -5.897716 -0.100143
-3.794855 -5.878204 -0.098848
-3.819445 -5.867722 -0.096411
-3.855936 -5.875711 -0.091584
-3.897991 -5.891828 -0.085674
-3.923671 -5.882296 -0.083106
-3.944069 -5.864659 -0.081616
-3.974721 -5.862422 -0.078096
-4.004675 -5.858888 -0.074743
-4.025057 -5.841060 -0.073312
-4.058773 -5.842654 -0.069265
-4.103121 -5.859205 -0.063167
-4.146607 -5.873888 -0.057285
-4.280849 -5.872239 -0.041865
-4.310004 -5.865062 -0.038930
-4.311469 -5.820472 -0.041304
-4.357448 -5.835666 -0.035197
-4.395077 -5.839232 -0.030719
-4.429766 -5.838555 -0.026830
-4.455897 -5.826488 -0.024580
-4.436050 -5.755414 -0.030957
-4.484738 -5.772316 -0.024503
-4.524188 -5.776949 -0.019814
-4.556221 -5.771924 -0.016535
-4.577456 -5.753339 -0.015272
-4.592715 -5.727463 -0.015118
-4.600813 -5.649268 -0.018903
-4.567580 -5.524015 -0.030117
-4.560679 -5.473957 -0.033913
-4.574699 -5.448649 -0.033923
-4.558490 -5.348317 -0.041839
-4.578490 -5.290633 -0.043239
-4.773344 -5.072242 -0.036374
-4.793906 -4.945057 -0.042598
-4.687288 -4.536495 -0.081289
-4.625916 -4.418191 -0.095748
-4.668834 -4.360972 -0.095606
-4.332301 -3.881106 -0.163733
-4.345912 -3.864890 -0.163687
-4.329704 -3.825418 -0.168263
-4.334031 -3.802230 -0.169664
-4.330560 -3.773199 -0.172269
-4.325057 -3.742860 -0.175183
-4.317538 -3.711264 -0.178402
-4.313665 -3.682657 -0.181064
-4.308703 -3.653472 -0.183892
-4.287654 -3.612800 -0.189137
-4.284582 -3.585558 -0.191672
-4.295135 -3.568248 -0.192178
-4.297729 -3.545311 -0.193885
-4.282605 -3.510073 -0.198225
-4.294545 -3.493962 -0.198566
-4.271854 -3.454043 -0.204012
-4.274925 -3.432089 -0.205673
-4.246056 -3.388725 -0.211997
-4.274854 -3.384312 -0.209936
-4.282912 -3.365955 -0.210912
-4.272748 -3.335716 -0.214528
-4.265285 -3.307478 -0.217755
-4.256928 -3.278886 -0.221110
-4.253700 -3.253765 -0.223738
-4.245776 -3.225855 -0.227036
-4.232522 -3.194854 -0.231084
-4.221142 -3.165281 -0.234863
-4.231423 -3.149108 -0.235619
-4.234661 -3.128674 -0.237376
-4.245570 -3.112856 -0.238088
-4.246416 -3.091081 -0.240208
-4.245727 -3.068498 -0.242548
-4.248216 -3.047848 -0.244464
-4.219516 -3.009517 -0.250619
-4.205576 -2.979944 -0.254754
-4.199262 -2.954880 -0.257854
-4.205863 -2.937090 -0.259227
-4.209911 -2.917923 -0.260953
-4.201897 -2.892310 -0.264284
-4.201090 -2.870721 -0.266659
-4.192725 -2.845264 -0.270023
-4.188837 -2.822331 -0.272792
-4.189294 -2.801775 -0.274990
-4.190241 -2.781564 -0.277120
-4.190804 -2.761254 -0.279293
-4.189843 -2.740291 -0.281651
-4.190832 -2.720409 -0.283748
-4.198834 -2.704027 -0.284942
-4.179327 -2.674532 -0.289588
-4.170890 -2.650623 -0.292799
-4.168466 -2.629753 -0.295225
-4.167375 -2.609673 -0.297451
-4.171581 -2.592170 -0.298988
-4.181808 -2.577488 -0.299751
-4.185108 -2.559793 -0.301328
-4.190800 -2.543296 -0.302568
-4.191795 -2.524899 -0.304329
-4.173924 -2.498640 -0.308305
-4.176378 -2.481363 -0.309761
-4.189338 -2.468663 -0.309896
-4.176830 -2.445590 -0.313002
-4.183357 -2.430626 -0.313764
-4.137315 -2.394769 -0.320661
-4.159713 -2.386747 -0.319379
-4.159415 -2.369901 -0.320691
-4.196747 -2.367877 -0.317511
-4.155703 -2.335879 -0.323408
-4.161819 -2.322338 -0.323698
-4.165404 -2.308098 -0.324190
-4.152425 -2.288036 -0.326508
-4.287280 -2.322134 -0.311621
-1.856086 -6.159289 -0.388808
-1.900004 -6.162955 -0.383912
-1.980461 -6.121037 -0.375655
-2.000576 -6.108136 -0.373442
-2.021672 -6.098405 -0.370900
-2.042805 -6.088038 -0.368295
-2.065338 -6.082366 -0.365262
-2.087116 -6.073067 -0.362390
-2.112133 -6.075198 -0.358612
-2.143958 -6.101204 -0.353009
-2.173967 -6.119025 -0.347886
-2.355954 -6.384703 -0.311569
-2.532797 -6.251113 -0.287030
-2.616873 -6.333013 -0.271245
-2.624260 -6.274794 -0.271745
-3.000906 -6.224795 -0.215580
-3.103041 -6.070812 -0.206332
-3.093050 -5.989402 -0.210726
-3.133983 -6.016195 -0.204038
-3.169309 -6.030554 -0.198620
-3.170536 -5.974712 -0.200584
-3.202594 -5.982176 -0.195932
-3.233274 -5.986491 -0.191616
-3.256553 -5.975875 -0.188911
-3.272951 -5.951844 -0.187686
-3.299754 -5.948178 -0.184284
-3.319590 -5.931066 -0.182375
-3.354671 -5.942835 -0.177302
-3.382906 -5.941329 -0.173698
-3.426820 -5.968518 -0.166881
-3.456254 -5.968446 -0.163109
-3.481867 -5.961219 -0.160157
-3.488041 -5.919184 -0.161207
-3.510524 -5.906583 -0.158930
-3.545533 -5.915865 -0.154135
-3.575713 -5.916333 -0.150357
-3.607144 -5.918655 -0.146362
-3.625306 -5.898197 -0.145061
-3.662689 -5.910073 -0.139938
-3.696917 -5.916193 -0.135486
-3.722806 -5.908223 -0.132724
-3.737928 -5.882650 -0.132108
-3.763733 -5.874475 -0.129403
-3.794342 -5.873813 -0.125782
-3.824751 -5.872557 -0.122232
-3.859009 -5.877028 -0.117966
-3.898596 -5.889328 -0.112706
-3.928496 -5.886289 -0.109354
-3.979704 -5.866622 -0.104375
-4.008329 -5.861097 -0.101344
-4.032766 -5.849226 -0.099131
-4.052830 -5.830926 -0.097762
-4.153856 -5.881201 -0.083658
-4.176312 -5.818536 -0.084376
-4.175976 -5.771638 -0.086874
-4.248416 -5.825011 -0.075933
-4.276617 -5.817024 -0.073205
-4.345569 -5.863608 -0.063040
-4.362362 -5.839575 -0.062463
-4.392554 -5.833326 -0.059458
-4.433773 -5.841256 -0.054481
-4.461390 -5.831116 -0.051995
-4.456423 -5.779113 -0.055380
-4.473469 -5.755678 -0.054803
-4.551219 -5.808609 -0.043410
-4.551877 -5.764274 -0.045795
-4.576020 -5.749382 -0.044008
-4.598865 -5.732845 -0.042464
-4.621602 -5.716147 -0.040953
-4.629700 -5.681882 -0.042016
-4.554975 -5.507348 -0.059921
-4.565950 -5.478315 -0.060412
-4.568189 -5.439411 -0.062408
-4.565756 -5.395559 -0.065195
-4.563473 -5.352361 -0.067939
-4.556233 -5.304075 -0.071512
-4.699772 -5.034333 -0.072787
-4.755282 -5.053124 -0.065983
-4.760693 -4.984655 -0.069689
-4.769411 -4.956728 -0.070560
-4.785306 -4.899923 -0.072555
-4.784407 -4.863401 -0.074971
-4.690282 -4.571439 -0.103231
-4.631493 -4.298200 -0.127444
-4.583753 -4.227939 -0.136855
-4.646980 -4.220061 -0.131517
-4.631157 -4.177322 -0.136051
-4.327716 -3.904367 -0.183755
-4.332478 -3.881080 -0.185020
-4.326369 -3.849361 -0.187913
-4.314345 -3.813314 -0.191681
-4.314765 -3.787240 -0.193599
-4.316175 -3.762098 -0.195376
-4.316880 -3.736581 -0.197262
-4.332621 -3.722507 -0.196956
-4.324918 -3.690960 -0.200088
-4.300168 -3.647148 -0.205692
-4.325580 -3.640402 -0.204023
-4.299797 -3.596515 -0.209762
-4.289286 -3.564059 -0.213288
-4.300254 -3.547098 -0.213742
-4.297447 -3.520481 -0.216177
-4.284410 -3.486952 -0.220067
-4.286489 -3.464123 -0.221818
-4.253779 -3.417748 -0.228470
-4.248589 -3.390475 -0.231241
-4.261903 -3.375734 -0.231438
-4.269921 -3.357446 -0.232395
-4.257140 -3.325591 -0.236247
-4.253198 -3.299739 -0.238878
-4.259168 -3.280399 -0.240157
-4.244004 -3.247712 -0.244338
-4.231941 -3.217279 -0.248089
-4.221439 -3.188080 -0.251627
-4.209985 -3.158539 -0.255291
-4.220417 -3.142537 -0.256020
-4.231089 -3.126645 -0.256741
-4.227233 -3.102083 -0.259413
-4.243543 -3.089523 -0.259428
-4.245412 -3.068455 -0.261372
-4.229527 -3.037245 -0.265650
-4.225383 -3.013010 -0.268388
-4.207388 -2.981126 -0.272924
-4.209750 -2.960888 -0.274820
-4.217493 -2.943673 -0.276035
-4.218659 -2.922877 -0.278104
-4.213323 -2.898664 -0.281004
-4.204419 -2.872713 -0.284351
-4.194955 -2.846673 -0.287757
-4.191714 -2.824081 -0.290371
-4.185986 -2.800350 -0.293288
-4.188412 -2.780931 -0.295181
-4.187161 -2.759746 -0.297523
-4.185612 -2.738540 -0.299888
-4.192451 -2.721576 -0.301215
-4.201042 -2.705502 -0.302320
-4.189738 -2.679947 -0.305816
-4.180598 -2.655681 -0.309013
-4.176976 -2.634237 -0.311511
-4.170039 -2.611459 -0.314367
-4.178713 -2.596021 -0.315330
-4.191173 -2.582355 -0.315817
-4.201625 -2.567838 -0.316506
-4.201169 -2.548614 -0.318428
-4.189573 -2.524774 -0.321586
-4.176609 -2.500684 -0.324830
-4.179026 -2.483445 -0.326225
-4.190498 -2.470187 -0.326515
-4.185668 -2.450339 -0.328603
-4.149999 -2.418256 -0.334116
-4.147509 -2.400114 -0.335757
-4.160880 -2.388552 -0.335521
-4.169818 -2.375399 -0.335705
-4.140999 -2.347837 -0.340045
-4.158085 -2.338379 -0.339133
-4.170336 -2.327230 -0.338678
-4.163596 -2.309188 -0.340250
-4.165525 -2.294704 -0.340757
-4.180144 -2.285129 -0.339760
-1.829998 -6.115166 -0.415870
-1.880901 -6.156657 -0.409281
-1.919730 -6.135797 -0.405849
-1.939082 -6.123363 -0.404048
-1.962524 -6.127144 -0.401098
-2.007358 -6.121952 -0.395584
-2.026604 -6.105005 -0.393561
-2.045984 -6.088039 -0.391438
-2.067063 -6.077136 -0.388823
-2.092451 -6.081858 -0.385076
-2.121739 -6.099909 -0.380326
-2.148668 -6.107897 -0.376141
-2.180637 -6.132801 -0.370696
-2.393844 -6.410423 -0.330764
-2.510573 -6.342304 -0.313964
-2.704613 -6.334455 -0.283581
-2.802757 -6.221263 -0.271408
-2.976557 -6.229375 -0.245332
-3.082126 -5.961426 -0.238664
-3.110938 -5.963194 -0.234659
-3.158065 -6.002518 -0.226932
-3.171014 -5.970967 -0.226257
-3.203487 -5.979299 -0.221618
-3.232726 -5.980763 -0.217676
-3.257143 -5.972459 -0.214745
-3.279852 -5.960781 -0.212185
-3.309284 -5.962077 -0.208304
-3.333582 -5.953323 -0.205483
-3.353553 -5.936369 -0.203549
-3.388345 -5.947150 -0.198701
-3.423769 -5.958607 -0.193772
-3.463105 -5.976692 -0.188118
-3.474846 -5.944374 -0.187913
-3.488411 -5.915742 -0.187359
-3.510551 -5.902587 -0.185149
-3.543780 -5.908802 -0.180817
-3.575513 -5.912031 -0.176812
-3.606335 -5.913363 -0.173016
-3.633696 -5.908539 -0.169917
-3.650656 -5.886132 -0.168825
-3.706870 -5.928911 -0.160302
-3.721338 -5.902108 -0.159735
-3.740341 -5.882924 -0.158323
-3.770014 -5.880974 -0.154926
-3.805385 -5.887826 -0.150494
-3.835479 -5.885945 -0.147081
-3.868308 -5.888067 -0.143191
-3.905057 -5.895888 -0.138611
-3.933104 -5.889974 -0.135668
-3.958798 -5.880317 -0.133183
-3.991067 -5.880383 -0.129519
-4.016334 -5.869769 -0.127159
-4.038454 -5.854443 -0.125389
-4.068802 -5.851052 -0.122151
-4.101790 -5.851211 -0.118464
-4.163613 -5.844725 -0.111923
-4.189135 -5.833580 -0.109650
-4.210372 -5.816407 -0.108156
-4.271070 -5.806799 -0.102003
-4.330081 -5.840133 -0.093942
-4.358305 -5.831563 -0.091316
-4.380555 -5.814959 -0.089750
-4.418825 -5.819238 -0.085423
-4.451394 -5.815739 -0.082112
-4.474250 -5.799541 -0.080499
-4.477742 -5.758770 -0.082217
-4.533214 -5.783700 -0.075049
-4.564635 -5.777909 -0.072027
-4.576755 -5.748111 -0.072301
-4.599593 -5.731612 -0.070765
-4.622453 -5.715111 -0.069239
-4.561780 -5.555793 -0.084005
-4.563892 -5.474138 -0.088155
-4.557655 -5.344173 -0.095836
-4.537232 -5.281224 -0.101369
-4.536245 -5.240708 -0.103697
-4.739527 -5.036322 -0.094951
-4.750505 -5.010350 -0.095397
-4.758520 -4.981603 -0.096309
-4.770119 -4.779040 -0.107396
-4.731293 -4.708645 -0.115432
-4.769558 -4.709698 -0.111740
-4.703646 -4.582899 -0.125905
-4.699867 -4.546692 -0.128555
-4.704437 -4.518175 -0.129952
-4.685824 -4.469617 -0.134805
-4.667760 -4.390603 -0.141617
-4.602652 -4.243371 -0.157326
-4.647206 -4.250114 -0.152862
-4.316926 -3.868536 -0.208548
-4.319941 -3.844131 -0.210011
-4.313466 -3.812475 -0.212835
-4.294129 -3.771170 -0.217484
-4.310414 -3.757570 -0.217076
-4.316709 -3.736342 -0.218100
-4.333757 -3.723263 -0.217627
-4.331259 -3.695588 -0.219914
-4.303617 -3.649616 -0.225709
