ply
format ascii 1.0
comment ---
element vertex 1594
property float x
property float y
property float z
element face 0
property list uchar uint vertex_indices
end_header
-4.107956 -5.794620 -0.173482
-4.132926 -5.793613 -0.175851
-4.136217 -5.784008 -0.176174
-4.180166 -5.789530 -0.180430
-4.194554 -5.783575 -0.181881
-4.228900 -5.784679 -0.185279
-4.262578 -5.785120 -0.188643
-4.268189 -5.775193 -0.189338
-4.298972 -5.773955 -0.192478
-4.314611 -5.767138 -0.194184
-4.347717 -5.766047 -0.197595
-4.376448 -5.763124 -0.200606
-4.390170 -5.754949 -0.202186
-4.430029 -5.755074 -0.206307
-4.450240 -5.748527 -0.208544
-4.483090 -5.745728 -0.212018
-4.507423 -5.739976 -0.214677
-4.525266 -5.732025 -0.216714
-4.546454 -5.724903 -0.219082
-4.559935 -5.715338 -0.220703
-4.568263 -5.704187 -0.221823
-4.570052 -5.691145 -0.222303
-4.574022 -5.678726 -0.222991
-4.577853 -5.666270 -0.223660
-4.580395 -5.653474 -0.224197
-4.574659 -5.638538 -0.223915
-4.575423 -5.625369 -0.224260
-4.576650 -5.612356 -0.224642
-4.576472 -5.599033 -0.224876
-4.572590 -5.584869 -0.224735
-4.572194 -5.571612 -0.224926
-4.571065 -5.558239 -0.225032
-4.570288 -5.545003 -0.225162
-4.567214 -5.531315 -0.225053
-4.569186 -5.518791 -0.225431
-4.568079 -5.505644 -0.225492
-4.564209 -5.491984 -0.225267
-4.558162 -5.477967 -0.224815
-4.555671 -5.464749 -0.224702
-4.552043 -5.451378 -0.224463
-4.552180 -5.438781 -0.224586
-4.549366 -5.425687 -0.224404
-4.555173 -5.414179 -0.225066
-4.555526 -5.401713 -0.225175
-4.557038 -5.389471 -0.225387
-4.546939 -5.375366 -0.224435
-4.544074 -5.362526 -0.224189
-4.538441 -5.349322 -0.223658
-4.541558 -5.337492 -0.223985
-4.545022 -5.325710 -0.224335
-4.542044 -5.313030 -0.224035
-4.533340 -5.299638 -0.223155
-4.532316 -5.287341 -0.223029
-4.534390 -5.275460 -0.223200
-4.531477 -5.262984 -0.222866
-4.529171 -5.250626 -0.222582
-4.530393 -5.238695 -0.222640
-4.528213 -5.226412 -0.222351
-4.519778 -5.213536 -0.221432
-4.518177 -5.201409 -0.221183
-4.514391 -5.189111 -0.220709
-4.514659 -5.177212 -0.220628
-4.513570 -5.165212 -0.220405
-4.513565 -5.153316 -0.220281
-4.512582 -5.141358 -0.220053
-4.515354 -5.129674 -0.220188
-4.655415 -5.126668 -0.233887
-4.699286 -5.116722 -0.238059
-4.708392 -5.104496 -0.238786
-4.678672 -5.077659 -0.235488
-4.681444 -5.065161 -0.235568
-4.708658 -5.053509 -0.238047
-4.714977 -5.040962 -0.238461
-4.711727 -5.028106 -0.237925
-4.707366 -5.015257 -0.237275
-4.701500 -5.002423 -0.236472
-4.716020 -4.989894 -0.237662
-4.715505 -4.977113 -0.237371
-4.713912 -4.964332 -0.236969
-4.715252 -4.951558 -0.236848
-4.710006 -4.938808 -0.236078
-4.706419 -4.926086 -0.235466
-4.702662 -4.913396 -0.234832
-4.702157 -4.900670 -0.234510
-4.699808 -4.887988 -0.234004
-4.701279 -4.875210 -0.233866
-4.703433 -4.862388 -0.233788
-4.698670 -4.849807 -0.233034
-4.692813 -4.837310 -0.232171
-4.695119 -4.824468 -0.232094
-4.694207 -4.811765 -0.231701
-4.693184 -4.799069 -0.231294
-4.693740 -4.786274 -0.231034
-4.693836 -4.773497 -0.230727
-4.693656 -4.760726 -0.230388
-4.697878 -4.747614 -0.230468
-4.694045 -4.735101 -0.229770
-4.685856 -4.722984 -0.228652
-4.680312 -4.710695 -0.227785
-4.681498 -4.697808 -0.227559
-4.684374 -4.684729 -0.227490
-4.685312 -4.671814 -0.227231
-4.685825 -4.658923 -0.226928
-4.678971 -4.646850 -0.225921
-4.678748 -4.634044 -0.225541
-4.672202 -4.622005 -0.224558
-4.666050 -4.609963 -0.223611
-4.673834 -4.596118 -0.223978
-4.674589 -4.583150 -0.223676
-4.669041 -4.571055 -0.222776
-4.661736 -4.559255 -0.221708
-4.663197 -4.546180 -0.221462
-4.664798 -4.533054 -0.221225
-4.665638 -4.520019 -0.220912
-4.664807 -4.507236 -0.220438
-4.665911 -4.494113 -0.220141
-4.652161 -4.483568 -0.218455
-4.648854 -4.471256 -0.217740
-4.647361 -4.458621 -0.217191
-4.648794 -4.445428 -0.216909
-4.646583 -4.432910 -0.216284
-4.647961 -4.419679 -0.215988
-4.652716 -4.405725 -0.215997
-4.656002 -4.392012 -0.215865
-4.652969 -4.379598 -0.215146
-4.644958 -4.368281 -0.213965
-4.641330 -4.356040 -0.213183
-4.641510 -4.342942 -0.212746
-4.642418 -4.329650 -0.212369
-4.639557 -4.317223 -0.211642
-4.637552 -4.304593 -0.210988
-4.625312 -4.294495 -0.209400
-4.634336 -4.279114 -0.209737
-4.633521 -4.266156 -0.209174
-4.629910 -4.253913 -0.208352
-4.635612 -4.239186 -0.208363
-4.627418 -4.228164 -0.207117
-4.620735 -4.216774 -0.206002
-4.617448 -4.204462 -0.205185
-4.617482 -4.191196 -0.204659
-4.617275 -4.177970 -0.204103
-4.616291 -4.164945 -0.203470
-4.614450 -4.152156 -0.202753
-4.612602 -4.139353 -0.202028
-4.610209 -4.126704 -0.201246
-4.611278 -4.112944 -0.200761
-4.607115 -4.100824 -0.199806
-4.605594 -4.087842 -0.199075
-4.607513 -4.073690 -0.198635
-4.604783 -4.061051 -0.197779
-4.596531 -4.050293 -0.196434
-4.595701 -4.036991 -0.195724
-4.590350 -4.025251 -0.194614
-4.590543 -4.011533 -0.193972
-4.598404 -3.994973 -0.193977
-4.599327 -3.980846 -0.193371
-4.593789 -3.969078 -0.192202
-4.588699 -3.957147 -0.191060
-4.586270 -3.944191 -0.190134
-4.587214 -3.929890 -0.189481
-4.578615 -3.919299 -0.188009
-4.573800 -3.907224 -0.186847
-4.574986 -3.892702 -0.186174
-4.564373 -3.882966 -0.184503
-4.557659 -3.857514 -0.182335
-4.558983 -3.842741 -0.181617
-4.551695 -3.817307 -0.179318
-4.557608 -3.800295 -0.178926
-4.511964 -3.777658 -0.172527
-4.461781 -3.786637 -0.167583
-4.334599 -3.832512 -0.156527
-4.325714 -3.823154 -0.154926
-4.319345 -3.812602 -0.153514
-4.318567 -3.799303 -0.152529
-4.319128 -3.785269 -0.151632
-4.315037 -3.773482 -0.150356
-4.307203 -3.763559 -0.148778
-4.306055 -3.750212 -0.147704
-4.303939 -3.737294 -0.146540
-4.306299 -3.721964 -0.145702
-4.301054 -3.710562 -0.144271
-4.296894 -3.698553 -0.142910
-4.295656 -3.684918 -0.141757
-4.298370 -3.669038 -0.140883
-4.291711 -3.658251 -0.139301
-4.288738 -3.645388 -0.137983
-4.283555 -3.633735 -0.136495
-4.284954 -3.618279 -0.135477
-4.285715 -3.603097 -0.134401
-4.286384 -3.587882 -0.133311
-4.282949 -3.575022 -0.131922
-4.279820 -3.561953 -0.130553
-4.279378 -3.547229 -0.129372
-4.276610 -3.533878 -0.128029
-4.269811 -3.523010 -0.126414
-4.263405 -3.511939 -0.124836
-4.269264 -3.493150 -0.124104
-4.264965 -3.480752 -0.122692
-4.268164 -3.463546 -0.121799
-4.268577 -3.448108 -0.120734
-4.270760 -3.431501 -0.119806
-4.258636 -3.424405 -0.117962
-4.256681 -3.410656 -0.116817
-4.263601 -3.390946 -0.116278
-4.252769 -3.383366 -0.114627
-4.248900 -3.371174 -0.113467
-4.239824 -3.362748 -0.112020
-4.241506 -3.346946 -0.111302
-4.243987 -3.330659 -0.110680
-4.249887 -3.312004 -0.110320
-4.245919 -3.300546 -0.109395
-4.237805 -3.292304 -0.108271
-4.210008 -3.298800 -0.105995
-3.982019 -5.803894 -0.171944
-4.017044 -5.809105 -0.175257
-4.018108 -5.799930 -0.175173
-4.045143 -5.801130 -0.177745
-4.067263 -5.799973 -0.179855
-4.077159 -5.793642 -0.180767
-4.111981 -5.796831 -0.184224
-4.128224 -5.792398 -0.185843
-4.158059 -5.792873 -0.188863
-4.182487 -5.790920 -0.191371
-4.195833 -5.784527 -0.192792
-4.212072 -5.778976 -0.194533
-4.239742 -5.777307 -0.197455
-4.269264 -5.775948 -0.200591
-4.294187 -5.772625 -0.203287
-4.315902 -5.767895 -0.205681
-4.338701 -5.763274 -0.208206
-4.365504 -5.759727 -0.211156
-4.390624 -5.755332 -0.213952
-4.421072 -5.752388 -0.217304
-4.461165 -5.752194 -0.221651
-4.483866 -5.746143 -0.224243
-4.508404 -5.740432 -0.227032
-4.527922 -5.732965 -0.229316
-4.543818 -5.724242 -0.231236
-4.558700 -5.715087 -0.233054
-4.565609 -5.703524 -0.234058
-4.570830 -5.691449 -0.234886
-4.573972 -5.678787 -0.235496
-4.580677 -5.667102 -0.236467
-4.581901 -5.653934 -0.236869
-4.575285 -5.638752 -0.236457
-4.573355 -5.624885 -0.236517
-4.575551 -5.612120 -0.236992
-4.574044 -5.598471 -0.237076
-4.576244 -5.585778 -0.237532
-4.572962 -5.571819 -0.237411
-4.568130 -5.557584 -0.237118
-4.564050 -5.543614 -0.236891
-4.563406 -5.530490 -0.237007
-4.565740 -5.518061 -0.237420
-4.565680 -5.505149 -0.237574
-4.564669 -5.492086 -0.237617
-4.555916 -5.477521 -0.236845
-4.554818 -5.464584 -0.236855
-4.553195 -5.451598 -0.236798
-4.553911 -5.439102 -0.236972
-4.553882 -5.426502 -0.237058
-4.552373 -5.413677 -0.236978
-4.553047 -5.401277 -0.237114
-4.552951 -5.388776 -0.237158
-4.556110 -5.376836 -0.237530
-4.543433 -5.362407 -0.236243
-4.547448 -5.350674 -0.236682
-4.543937 -5.337819 -0.236327
-4.543597 -5.325478 -0.236292
-4.540792 -5.312825 -0.235989
-4.528615 -5.298972 -0.234702
-4.530858 -5.287114 -0.234905
-4.534640 -5.275448 -0.235259
-4.533003 -5.263119 -0.235039
-4.532217 -5.250923 -0.234899
-4.535978 -5.239253 -0.235222
-4.525134 -5.226027 -0.234019
-4.518664 -5.213358 -0.233261
-4.517065 -5.201231 -0.233002
-4.516758 -5.189251 -0.232868
-4.514046 -5.177078 -0.232477
-4.509375 -5.164782 -0.231875
-4.509378 -5.152900 -0.231750
-4.521723 -5.141924 -0.232897
-4.521931 -5.130017 -0.232777
-4.713895 -5.117453 -0.252333
-4.714762 -5.104706 -0.252248
-4.713457 -5.091849 -0.251932
-4.706762 -5.078768 -0.251052
-4.704602 -5.065935 -0.250635
-4.708033 -5.053323 -0.250787
-4.723201 -5.041042 -0.252142
-4.718827 -5.028111 -0.251476
-4.708054 -5.015082 -0.250147
-4.718184 -5.002507 -0.250961
-4.718129 -4.989712 -0.250722
-4.718532 -4.976920 -0.250524
-4.715619 -4.964111 -0.249981
-4.715492 -4.951323 -0.249718
-4.713843 -4.938541 -0.249294
-4.708179 -4.925814 -0.248454
-4.707637 -4.913055 -0.248134
-4.708324 -4.900272 -0.247934
-4.698743 -4.887732 -0.246682
-4.701795 -4.874902 -0.246714
-4.701483 -4.862151 -0.246399
-4.698800 -4.849489 -0.245838
-4.695636 -4.836864 -0.245225
-4.690557 -4.824353 -0.244413
-4.689347 -4.811677 -0.243991
-4.685150 -4.799174 -0.243262
-4.690026 -4.786138 -0.243448
-4.699147 -4.772763 -0.244057
-4.700431 -4.759853 -0.243869
-4.698593 -4.747158 -0.243363
-4.698573 -4.734323 -0.243036
-4.681171 -4.722962 -0.240958
-4.684676 -4.709868 -0.240979
-4.680290 -4.697478 -0.240205
-4.684987 -4.684212 -0.240338
-4.685541 -4.671321 -0.240052
-4.684556 -4.658580 -0.239608
-4.688328 -4.645294 -0.239635
-4.679887 -4.633406 -0.238440
-4.671677 -4.621556 -0.237268
-4.666991 -4.609318 -0.236444
-4.666381 -4.596570 -0.236022
-4.671288 -4.583054 -0.236143
-4.668198 -4.570614 -0.235468
-4.667226 -4.557877 -0.234999
-4.666079 -4.545159 -0.234509
-4.662798 -4.532771 -0.233806
-4.661964 -4.520003 -0.233340
-4.661703 -4.507132 -0.232927
-4.654018 -4.495513 -0.231782
-4.652067 -4.482944 -0.231197
-4.659788 -4.468632 -0.231554
-4.654004 -4.456728 -0.230586
-4.648218 -4.444862 -0.229614
-4.646540 -4.432232 -0.229041
-4.643273 -4.419917 -0.228308
-4.642969 -4.407007 -0.227860
-4.641739 -4.394274 -0.227317
-4.648939 -4.379727 -0.227586
-4.646035 -4.367301 -0.226871
-4.640289 -4.355519 -0.225878
-4.639345 -4.342672 -0.225344
-4.640710 -4.329272 -0.225026
-4.639854 -4.316365 -0.224490
-4.632880 -4.304932 -0.223362
-4.632070 -4.292012 -0.222820
-4.628641 -4.279738 -0.222022
-4.631558 -4.265834 -0.221824
-4.636264 -4.251404 -0.221788
-4.627125 -4.240611 -0.220430
-4.617453 -4.230027 -0.219018
-4.612398 -4.218225 -0.218040
-4.610814 -4.205464 -0.217383
-4.621568 -4.189135 -0.217880
-4.622134 -4.175652 -0.217409
-4.616342 -4.164025 -0.216334
-4.611129 -4.152249 -0.215307
-4.608188 -4.139791 -0.214486
-4.609529 -4.125987 -0.214056
-4.610681 -4.112194 -0.213599
-4.607060 -4.099895 -0.212690
-4.605282 -4.086989 -0.211944
-4.606084 -4.073202 -0.211426
-4.604937 -4.060026 -0.210719
-4.607265 -4.045626 -0.210321
-4.604254 -4.033021 -0.209423
-4.593791 -4.023042 -0.207835
-4.594355 -4.009164 -0.207245
-4.601172 -3.992954 -0.207211
-4.602399 -3.978692 -0.206655
-4.596360 -3.967090 -0.205432
-4.587553 -3.956553 -0.203949
-4.582702 -3.944531 -0.202813
-4.579173 -3.931989 -0.201786
-4.573993 -3.920083 -0.200600
-4.571770 -3.906987 -0.199666
-4.577603 -3.890579 -0.199433
-4.572246 -3.878661 -0.198194
-4.564396 -3.867777 -0.196724
-4.565266 -3.853226 -0.196009
-4.557134 -3.842456 -0.194492
-4.552587 -3.830152 -0.193276
-4.550683 -3.773293 -0.189680
-4.517313 -3.774096 -0.185929
-4.501642 -3.766923 -0.183691
-4.334974 -3.831307 -0.168653
-4.325423 -3.822264 -0.166975
-4.311660 -3.815295 -0.164935
-4.314827 -3.800101 -0.164303
-4.310318 -3.788599 -0.163015
-4.318696 -3.770597 -0.162780
-4.308629 -3.761784 -0.161003
-4.307866 -3.748223 -0.159980
-4.312943 -3.731549 -0.159418
-4.303249 -3.722497 -0.157637
-4.298524 -3.710831 -0.156249
-4.294985 -3.698496 -0.154945
-4.293018 -3.685260 -0.153755
-4.292415 -3.671211 -0.152661
-4.292246 -3.656839 -0.151587
-4.293201 -3.641751 -0.150589
-4.287930 -3.630108 -0.149092
-4.284998 -3.617102 -0.147770
-4.285748 -3.601910 -0.146725
-4.285802 -3.587038 -0.145617
-4.286464 -3.571728 -0.144548
-4.286449 -3.556745 -0.143423
-4.284348 -3.542962 -0.142136
-4.279727 -3.530692 -0.140662
-4.274263 -3.518950 -0.139131
-4.271864 -3.505309 -0.137835
-4.270741 -3.490851 -0.136640
-4.269743 -3.476296 -0.135464
-4.268139 -3.462124 -0.134258
-4.267530 -3.447311 -0.133139
-4.263314 -3.434887 -0.131782
-4.258700 -3.422793 -0.130423
-4.249019 -3.414194 -0.128735
-4.246469 -3.400911 -0.127584
-4.247683 -3.385127 -0.126730
-4.234769 -3.379175 -0.124932
-4.238896 -3.361552 -0.124355
-4.241698 -3.344899 -0.123727
-4.251544 -3.323296 -0.123623
-4.257495 -3.304480 -0.123295
-4.249103 -3.296111 -0.122046
-4.241508 -3.287403 -0.120908
-4.250295 -3.266866 -0.120927
-4.012734 -5.817661 -0.184879
-4.009903 -5.806988 -0.184365
-4.030149 -5.805667 -0.186329
-4.038609 -5.799240 -0.187080
-4.047434 -5.792747 -0.187903
-4.054027 -5.785161 -0.188525
-4.083153 -5.786201 -0.191558
-4.129784 -5.793596 -0.196471
-4.165596 -5.796303 -0.200272
-4.178435 -5.789919 -0.201679
-4.198364 -5.785948 -0.203864
-4.218175 -5.781652 -0.206064
-4.238025 -5.777101 -0.208295
-4.265302 -5.774922 -0.211335
-4.286053 -5.770129 -0.213709
-4.315341 -5.768023 -0.217008
-4.339678 -5.763900 -0.219802
-4.364322 -5.759603 -0.222647
-4.388787 -5.754974 -0.225489
-4.418391 -5.751746 -0.228892
-4.451991 -5.749480 -0.232733
-4.478097 -5.744524 -0.235788
-4.498686 -5.737612 -0.238264
-4.521585 -5.731203 -0.240993
-4.544590 -5.724613 -0.243737
-4.558674 -5.715207 -0.245531
-4.563885 -5.703144 -0.246374
-4.569110 -5.691070 -0.247216
-4.574970 -5.679158 -0.248121
-4.577103 -5.666219 -0.248621
-4.577986 -5.652969 -0.248979
-4.576987 -5.639267 -0.249127
-4.571946 -5.624588 -0.248831
-4.569201 -5.610586 -0.248772
-4.569627 -5.597439 -0.249044
-4.568073 -5.583860 -0.249093
-4.575537 -5.572471 -0.250105
-4.576949 -5.559659 -0.250453
-4.564803 -5.543821 -0.249323
-4.562991 -5.530433 -0.249299
-4.565547 -5.518050 -0.249736
-4.565359 -5.505109 -0.249865
-4.562129 -5.491588 -0.249653
-4.555307 -5.477421 -0.249038
-4.555099 -5.464658 -0.249130
-4.555859 -5.452123 -0.249315
-4.558517 -5.439973 -0.249695
-4.554742 -5.426668 -0.249365
-4.551623 -5.413552 -0.249094
-4.548712 -5.400538 -0.248835
-4.548643 -5.388059 -0.248874
-4.548585 -5.375616 -0.248904
-4.557953 -5.364686 -0.249947
-4.550717 -5.351164 -0.249175
-4.545979 -5.338109 -0.248664
-4.541675 -5.325188 -0.248190
-4.528943 -5.311168 -0.246790
-4.528373 -5.298916 -0.246702
-4.530814 -5.287081 -0.246932
-4.530549 -5.274909 -0.246859
-4.528358 -5.262529 -0.246567
-4.531192 -5.250765 -0.246813
-4.526677 -5.238184 -0.246250
-4.524481 -5.225907 -0.245932
-4.517307 -5.213166 -0.245065
-4.517737 -5.201235 -0.245015
-4.518693 -5.189362 -0.245015
-4.519275 -5.177459 -0.244965
-4.511530 -5.164881 -0.244006
-4.511908 -5.153011 -0.243920
-4.515274 -5.141365 -0.244150
-4.533532 -5.130707 -0.245984
-4.631769 -5.124946 -0.256461
-4.652215 -5.113719 -0.258509
-4.722875 -5.105017 -0.265973
-4.717656 -5.091923 -0.265227
-4.721568 -5.079288 -0.265460
-4.727324 -5.066695 -0.265885
-4.711985 -5.053305 -0.264030
-4.721145 -5.040812 -0.264808
-4.731641 -5.028270 -0.265723
-4.728930 -5.015347 -0.265210
-4.722250 -5.002383 -0.264266
-4.720470 -4.989539 -0.263842
-4.715464 -4.976685 -0.263068
-4.714767 -4.963888 -0.262750
-4.715654 -4.951091 -0.262598
-4.713775 -4.938301 -0.262143
-4.713224 -4.925509 -0.261827
-4.714300 -4.912692 -0.261679
-4.712301 -4.899921 -0.261198
-4.716461 -4.887011 -0.261369
-4.702719 -4.874585 -0.259628
-4.702744 -4.861808 -0.259351
-4.696888 -4.849252 -0.258444
-4.693043 -4.836656 -0.257747
-4.694456 -4.823833 -0.257605
-4.681324 -4.811759 -0.255917
-4.689970 -4.798544 -0.256534
-4.689677 -4.785795 -0.256199
-4.696861 -4.772539 -0.256651
-4.693156 -4.759985 -0.255948
-4.691342 -4.747311 -0.255442
-4.695155 -4.734187 -0.255524
-4.693777 -4.721461 -0.255057
-4.686918 -4.709232 -0.254010
-4.685484 -4.696540 -0.253530
-4.682996 -4.683953 -0.252937
-4.680729 -4.671355 -0.252364
-4.681911 -4.658388 -0.252149
-4.685418 -4.645133 -0.252173
-4.675782 -4.633389 -0.250821
-4.674732 -4.620665 -0.250363
-4.674717 -4.607803 -0.250009
-4.675398 -4.594834 -0.249725
-4.667710 -4.582996 -0.248567
-4.668164 -4.570057 -0.248253
-4.670990 -4.556748 -0.248180
-4.672839 -4.543547 -0.248002
-4.666781 -4.531550 -0.247004
-4.660142 -4.519688 -0.245943
-4.658253 -4.507083 -0.245369
-4.650814 -4.495430 -0.244222
-4.644734 -4.483590 -0.243212
-4.647648 -4.470168 -0.243123
-4.652888 -4.456267 -0.243266
-4.652143 -4.443437 -0.242793
-4.643049 -4.432224 -0.241462
-4.641264 -4.419618 -0.240875
-4.643898 -4.406105 -0.240734
-4.635746 -4.394806 -0.239492
-4.636294 -4.381701 -0.239130
-4.643399 -4.367131 -0.239428
-4.637087 -4.355479 -0.238361
-4.635283 -4.342833 -0.237747
-4.637850 -4.329160 -0.237568
-4.630343 -4.317844 -0.236369
-4.638697 -4.302713 -0.236762
-4.642928 -4.288500 -0.236733
-4.630829 -4.278361 -0.235059
-4.632482 -4.264760 -0.234760
-4.630593 -4.252051 -0.234100
-4.622253 -4.241064 -0.232791
-4.620186 -4.228417 -0.232103
-4.610396 -4.217912 -0.230642
-4.609969 -4.204823 -0.230106
-4.615141 -4.190094 -0.230116
-4.622331 -4.174690 -0.230317
-4.619432 -4.162191 -0.229513
-4.610946 -4.151384 -0.228152
-4.605195 -4.139784 -0.227055
-4.603216 -4.127027 -0.226322
-4.605988 -4.112739 -0.226045
-4.607438 -4.098815 -0.225630
-4.608004 -4.085129 -0.225118
-4.605673 -4.072364 -0.224316
-4.606753 -4.058427 -0.223836
-4.610321 -4.043581 -0.223585
-4.609971 -4.030025 -0.222945
-4.599978 -4.019844 -0.221367
-4.601418 -4.005611 -0.220880
-4.602451 -3.991464 -0.220342
-4.601418 -3.978022 -0.219595
-4.592346 -3.967558 -0.218072
-4.586132 -3.956051 -0.216812
-4.579723 -3.944632 -0.215525
-4.581203 -3.930141 -0.214973
-4.577570 -3.917606 -0.213927
-4.573786 -3.905112 -0.212855
-4.579815 -3.888604 -0.212691
-4.566649 -3.879890 -0.210717
-4.559953 -3.868551 -0.209339
-4.555347 -3.856336 -0.208144
-4.549067 -3.844823 -0.206783
-4.521478 -3.842569 -0.203447
-4.559317 -3.797327 -0.205293
-4.554250 -3.785100 -0.203987
-4.549793 -3.772577 -0.202724
-4.443568 -3.792988 -0.191381
-4.331219 -3.832041 -0.180420
-4.325552 -3.821155 -0.179066
-4.321350 -3.809546 -0.177832
-4.307844 -3.802475 -0.175759
-4.311810 -3.786799 -0.175224
-4.306988 -3.775413 -0.173897
-4.312797 -3.758593 -0.173489
-4.315163 -3.743391 -0.172759
-4.315795 -3.728976 -0.171862
-4.307807 -3.719005 -0.170204
-4.298134 -3.709940 -0.168391
-4.295391 -3.697172 -0.167165
-4.295531 -3.682777 -0.166171
-4.298108 -3.666950 -0.165369
-4.296082 -3.653567 -0.164164
-4.289315 -3.642792 -0.162550
-4.290733 -3.627352 -0.161612
-4.286052 -3.615323 -0.160156
-4.281694 -3.603081 -0.158720
-4.287892 -3.584600 -0.158145
-4.289988 -3.568404 -0.157222
-4.287290 -3.554990 -0.155903
-4.284338 -3.541697 -0.154563
-4.278489 -3.530159 -0.152990
-4.275972 -3.516570 -0.151689
-4.272964 -3.503273 -0.150354
-4.273053 -3.488006 -0.149270
-4.271790 -3.473570 -0.148089
-4.272789 -3.457663 -0.147095
-4.265186 -3.447352 -0.145449
-4.255779 -3.438329 -0.143689
-4.251774 -3.425835 -0.142370
-4.251795 -3.410700 -0.141383
-4.247050 -3.398840 -0.140064
-4.241964 -3.387324 -0.138753
-4.245436 -3.369996 -0.138119
-4.247773 -3.353491 -0.137435
-4.247343 -3.338997 -0.136586
-4.252626 -3.320534 -0.136200
-4.257742 -3.302238 -0.135845
-4.255000 -3.289705 -0.134962
-4.224769 -3.297462 -0.132132
-4.226957 -3.281815 -0.131721
-3.994372 -5.810835 -0.192699
-4.002942 -5.804933 -0.193449
-4.024945 -5.804328 -0.195717
-4.042518 -5.801579 -0.197527
-4.045010 -5.792483 -0.197704
-4.056657 -5.786867 -0.198925
-4.097929 -5.792608 -0.203447
-4.154301 -5.803660 -0.209666
-4.158210 -5.794050 -0.210125
-4.179009 -5.790658 -0.212478
-4.205589 -5.789114 -0.215496
-4.224636 -5.784467 -0.217710
-4.246906 -5.780721 -0.220305
-4.275515 -5.778940 -0.223625
-4.292962 -5.772907 -0.225731
-4.315094 -5.768270 -0.228376
-4.336192 -5.763022 -0.230925
-4.369380 -5.761575 -0.234832
-4.396495 -5.757770 -0.238081
-4.417264 -5.751620 -0.240637
-4.448168 -5.748485 -0.244333
-4.475035 -5.743769 -0.247589
-4.497212 -5.737346 -0.250331
-4.520664 -5.731097 -0.253221
-4.547177 -5.725541 -0.256457
-4.559182 -5.715501 -0.258075
-4.566101 -5.703914 -0.259123
-4.570947 -5.691711 -0.259935
-4.572581 -5.678612 -0.260383
-4.573449 -5.665332 -0.260739
-4.574825 -5.652226 -0.261144
-4.575511 -5.638972 -0.261464
-4.568249 -5.623726 -0.260881
-4.566217 -5.609916 -0.260877
-4.565472 -5.596491 -0.261007
-4.569228 -5.584207 -0.261635
-4.571222 -5.571518 -0.262054
-4.573540 -5.558932 -0.262499
-4.565233 -5.543974 -0.261733
-4.565454 -5.531028 -0.261919
-4.567852 -5.518596 -0.262340
-4.565293 -5.505140 -0.262190
-4.559906 -5.491173 -0.261708
-4.558288 -5.478058 -0.261640
-4.558598 -5.465380 -0.261780
-4.558344 -5.452630 -0.261845
-4.556819 -5.439686 -0.261755
-4.554447 -5.426641 -0.261557
-4.552726 -5.413770 -0.261422
-4.548331 -5.400492 -0.260974
-4.544997 -5.387467 -0.260635
-4.545158 -5.375072 -0.260681
-4.554139 -5.364095 -0.261718
-4.553288 -5.351562 -0.261629
-4.548831 -5.338531 -0.261122
-4.543493 -5.325445 -0.260505
-4.540092 -5.312702 -0.260097
-4.533366 -5.299572 -0.259304
-4.535952 -5.287727 -0.259557
-4.527754 -5.274541 -0.258578
-4.528547 -5.262527 -0.258610
-4.528200 -5.250392 -0.258504
-4.523990 -5.237854 -0.257953
-4.521110 -5.225513 -0.257543
-4.520818 -5.213473 -0.257419
-4.519204 -5.201324 -0.257137
-4.519945 -5.189418 -0.257114
-4.517676 -5.177257 -0.256743
-4.516646 -5.165229 -0.256504
-4.513573 -5.153064 -0.256028
-4.520372 -5.141653 -0.256660
-4.515521 -5.129395 -0.255969
-4.606930 -5.123275 -0.266134
-4.677643 -5.115100 -0.273947
-4.694243 -5.103354 -0.275646
-4.704171 -5.091131 -0.276583
-4.703299 -5.078338 -0.276297
-4.691597 -5.065123 -0.274787
-4.712881 -5.040397 -0.276774
-4.725708 -5.027945 -0.278001
-4.726217 -5.015110 -0.277838
-4.726498 -5.002265 -0.277644
-4.718330 -4.989315 -0.276498
-4.713263 -4.976462 -0.275696
-4.714218 -4.963670 -0.275562
-4.720670 -4.950856 -0.276038
-4.716219 -4.938049 -0.275290
-4.714196 -4.925252 -0.274808
-4.714421 -4.912434 -0.274574
-4.714896 -4.899602 -0.274362
-4.704285 -4.887038 -0.272912
-4.710954 -4.874053 -0.273381
-4.703277 -4.861492 -0.272251
-4.694735 -4.849029 -0.271022
-4.691851 -4.836390 -0.270418
-4.693358 -4.823557 -0.270297
-4.695972 -4.810643 -0.270295
-4.692982 -4.798019 -0.269669
-4.692419 -4.785261 -0.269307
-4.692287 -4.772470 -0.268990
-4.690359 -4.759799 -0.268471
-4.688199 -4.747154 -0.267923
-4.691038 -4.734111 -0.267923
-4.693385 -4.721073 -0.267864
-4.688740 -4.708634 -0.267033
-4.681497 -4.696475 -0.265916
-4.682089 -4.683588 -0.265654
-4.680601 -4.670901 -0.265162
-4.680143 -4.658102 -0.264780
-4.675920 -4.645723 -0.263983
-4.675942 -4.632867 -0.263647
-4.673263 -4.620331 -0.263013
-4.683386 -4.606162 -0.263769
-4.677880 -4.593964 -0.262821
-4.668996 -4.582268 -0.261505
-4.662967 -4.570235 -0.260497
-4.676662 -4.555336 -0.261623
-4.676157 -4.542452 -0.261206
-4.663772 -4.531422 -0.259502
-4.658650 -4.519318 -0.258582
-4.657990 -4.506505 -0.258140
-4.655856 -4.493933 -0.257537
-4.646554 -4.482626 -0.256160
-4.650741 -4.468951 -0.256229
-4.646533 -4.456777 -0.255393
-4.646338 -4.443860 -0.254985
-4.647557 -4.430651 -0.254723
-4.643837 -4.418399 -0.253930
-4.642236 -4.405728 -0.253360
-4.644723 -4.392196 -0.253220
-4.638330 -4.380526 -0.252132
-4.646253 -4.365753 -0.252560
-4.643469 -4.353284 -0.251847
-4.638074 -4.341420 -0.250853
-4.635585 -4.328905 -0.250163
-4.636708 -4.315527 -0.249850
-4.634443 -4.302942 -0.249174
-4.637148 -4.289118 -0.249017
-4.639169 -4.275415 -0.248781
-4.628870 -4.264855 -0.247246
-4.627558 -4.252001 -0.246650
-4.632692 -4.237400 -0.246722
-4.621751 -4.227119 -0.245109
-4.621773 -4.213865 -0.244635
-4.613295 -4.202992 -0.243270
-4.615634 -4.189051 -0.243025
-4.618371 -4.174939 -0.242812
-4.619339 -4.161297 -0.242408
-4.614378 -4.149412 -0.241384
-4.603713 -4.139305 -0.239767
-4.601067 -4.126755 -0.238970
-4.602140 -4.113009 -0.238548
-4.609697 -4.097116 -0.238781
-4.607973 -4.084162 -0.238053
-4.610120 -4.069893 -0.237712
-4.608520 -4.056833 -0.236979
-4.600053 -4.046113 -0.235540
-4.589062 -4.036320 -0.233839
-4.598030 -4.019516 -0.234151
-4.597852 -4.005866 -0.233526
-4.597201 -3.992344 -0.232842
-4.597929 -3.978270 -0.232286
-4.592529 -3.966440 -0.231105
-4.582990 -3.956193 -0.229502
-4.587563 -3.940544 -0.229297
-4.590054 -3.925607 -0.228871
-4.585466 -3.913397 -0.227730
-4.574346 -3.903806 -0.225932
-4.568964 -3.891936 -0.224693
-4.566864 -3.878709 -0.223767
-4.561242 -3.852736 -0.221736
-4.548872 -3.843801 -0.219771
-4.529322 -3.838057 -0.217100
-4.580420 -3.772149 -0.219633
-4.509010 -3.775692 -0.211106
-4.465889 -3.781425 -0.206148
-4.327595 -3.832696 -0.192168
-4.324369 -3.820656 -0.191042
-4.321361 -3.808470 -0.189924
-4.320694 -3.795088 -0.189012
-4.322610 -3.780349 -0.188327
-4.319680 -3.767943 -0.187172
-4.314041 -3.756866 -0.185754
-4.307287 -3.746344 -0.184220
-4.305070 -3.733454 -0.183094
-4.303905 -3.719947 -0.182050
-4.298501 -3.708626 -0.180606
-4.295748 -3.695852 -0.179392
-4.297771 -3.680418 -0.178596
-4.299523 -3.665020 -0.177760
-4.297821 -3.651438 -0.176601
-4.295587 -3.638087 -0.175382
-4.290591 -3.626251 -0.173908
-4.286097 -3.614101 -0.172471
-4.282094 -3.601640 -0.171071
-4.285998 -3.584487 -0.170356
-4.286669 -3.569131 -0.169349
-4.280684 -3.557699 -0.167760
-4.276582 -3.545128 -0.166334
-4.273707 -3.531789 -0.165014
-4.271718 -3.517878 -0.163771
-4.271764 -3.502660 -0.162704
-4.270832 -3.488019 -0.161558
-4.271729 -3.472178 -0.160573
-4.274827 -3.454871 -0.159780
-4.263614 -3.446876 -0.157814
-4.253494 -3.438299 -0.155963
-4.249091 -3.426042 -0.154607
-4.255827 -3.406345 -0.154183
-4.252150 -3.393682 -0.152936
-4.246362 -3.382564 -0.151551
-4.251601 -3.363920 -0.151086
-4.247877 -3.351561 -0.149938
-4.243699 -3.339654 -0.148794
-4.239623 -3.327825 -0.147703
-4.248179 -3.307062 -0.147654
-4.248674 -3.292170 -0.147014
-4.231328 -3.290483 -0.145028
-4.217977 -3.286205 -0.143413
-3.935196 -5.786827 -0.195653
-3.984485 -5.798089 -0.201162
-4.009933 -5.798948 -0.203947
-4.037160 -5.800154 -0.206966
-4.063378 -5.800562 -0.209899
-4.073020 -5.794018 -0.210953
-4.081613 -5.786855 -0.211916
-4.131286 -5.795372 -0.217642
-4.154458 -5.793183 -0.220344
-4.190670 -5.795573 -0.224577
-4.207324 -5.790252 -0.226582
-4.222278 -5.784065 -0.228417
-4.247604 -5.781401 -0.231472
-4.275689 -5.779401 -0.234868
-4.294989 -5.773987 -0.237270
-4.309346 -5.766631 -0.239120
-4.334080 -5.762624 -0.242186
-4.373688 -5.763311 -0.246990
-4.391987 -5.756560 -0.249342
-4.416417 -5.751601 -0.252415
-4.448552 -5.748844 -0.256394
-4.477947 -5.744902 -0.260064
-4.498250 -5.737870 -0.262685
-4.530993 -5.734415 -0.266759
-4.545985 -5.725365 -0.268771
-4.560287 -5.715991 -0.270702
-4.565318 -5.703844 -0.271551
-4.572578 -5.692315 -0.272657
-4.575737 -5.679619 -0.273278
-4.577014 -5.666426 -0.273674
-4.578528 -5.653329 -0.274090
-4.573155 -5.638468 -0.273691
-4.569251 -5.624087 -0.273455
-4.568046 -5.610472 -0.273526
-4.569155 -5.597488 -0.273858
-4.566564 -5.583652 -0.273746
-4.566054 -5.570383 -0.273869
-4.560759 -5.556062 -0.273417
-4.561073 -5.543109 -0.273615
-4.565656 -5.531143 -0.274305
-4.567159 -5.518513 -0.274621
-4.564482 -5.505033 -0.274434
-4.561806 -5.491623 -0.274236
-4.561232 -5.478706 -0.274275
-4.559862 -5.465679 -0.274209
-4.556129 -5.452256 -0.273853
-4.552311 -5.438891 -0.273476
-4.553098 -5.426437 -0.273632
-4.556522 -5.414478 -0.274088
-4.553993 -5.401499 -0.273832
-4.542447 -5.387072 -0.272500
-4.541325 -5.374478 -0.272389
-4.547091 -5.363009 -0.273081
-4.552233 -5.351419 -0.273690
-4.548551 -5.338505 -0.273247
-4.546225 -5.325846 -0.272955
-4.541511 -5.312904 -0.272372
-4.537690 -5.300149 -0.271885
-4.533313 -5.287383 -0.271323
-4.530975 -5.274932 -0.270994
-4.526424 -5.262259 -0.270394
-4.527329 -5.250273 -0.270431
-4.523830 -5.237812 -0.269940
-4.521345 -5.225507 -0.269560
-4.523160 -5.213672 -0.269680
-4.522846 -5.201631 -0.269541
-4.519958 -5.189371 -0.269092
-4.518888 -5.177307 -0.268849
-4.515466 -5.165072 -0.268323
-4.516787 -5.153244 -0.268348
-4.501260 -5.140192 -0.266384
-4.524830 -5.129945 -0.269012
-4.652289 -5.126049 -0.283839
-4.681151 -5.115202 -0.287064
-4.687828 -5.102898 -0.287675
-4.686479 -5.077460 -0.287150
-4.692752 -5.065033 -0.287693
-4.698231 -5.052522 -0.288135
-4.714088 -5.040279 -0.289786
-4.716365 -5.027538 -0.289841
-4.719492 -5.014792 -0.289989
-4.720799 -5.001987 -0.289918
-4.714347 -4.989075 -0.288937
-4.711194 -4.976245 -0.288336
-4.715984 -4.963463 -0.288656
-4.718959 -4.950637 -0.288759
-4.720380 -4.937790 -0.288676
-4.716035 -4.924989 -0.287918
-4.709706 -4.912255 -0.286926
-4.704747 -4.899547 -0.286089
-4.712914 -4.886548 -0.286772
-4.712947 -4.873709 -0.286506
-4.706962 -4.861070 -0.285539
-4.698659 -4.848570 -0.284301
-4.694065 -4.835977 -0.283490
-4.693595 -4.823218 -0.283152
-4.694707 -4.810371 -0.282993
-4.694118 -4.797603 -0.282634
-4.693878 -4.784808 -0.282312
-4.694429 -4.771953 -0.282077
-4.690790 -4.759384 -0.281358
-4.692669 -4.746415 -0.281269
-4.692954 -4.733547 -0.280993
-4.683888 -4.721469 -0.279643
-4.678242 -4.709154 -0.278683
-4.689122 -4.695304 -0.279611
-4.671218 -4.684221 -0.277244
-4.676555 -4.670857 -0.277531
-4.680679 -4.657563 -0.277676
-4.680109 -4.644753 -0.277281
-4.677586 -4.632167 -0.276662
-4.679039 -4.619100 -0.276492
-4.679213 -4.606169 -0.276173
-4.680599 -4.593059 -0.275988
-4.671114 -4.581423 -0.274568
-4.666483 -4.569169 -0.273697
-4.671503 -4.555519 -0.273914
-4.674536 -4.542108 -0.273902
-4.665726 -4.530513 -0.272551
-4.658650 -4.518705 -0.271394
-4.658844 -4.505737 -0.271054
-4.662082 -4.492228 -0.271052
-4.663956 -4.478910 -0.270892
-4.655935 -4.467350 -0.269619
-4.649204 -4.455608 -0.268489
-4.651035 -4.442280 -0.268315
-4.651266 -4.429228 -0.267957
-4.648391 -4.416778 -0.267249
-4.649098 -4.403600 -0.266937
-4.650676 -4.390213 -0.266717
-4.647709 -4.377766 -0.265988
-4.646708 -4.364895 -0.265473
-4.647628 -4.351581 -0.265166
-4.642471 -4.339632 -0.264183
-4.641193 -4.326799 -0.263625
-4.638943 -4.314190 -0.262955
-4.636108 -4.301723 -0.262216
-4.632916 -4.289347 -0.261434
-4.631588 -4.276505 -0.260851
-4.631988 -4.263201 -0.260454
-4.629559 -4.250616 -0.259741
-4.629816 -4.237304 -0.259316
-4.636569 -4.222183 -0.259594
-4.626816 -4.211570 -0.258065
-4.622160 -4.199579 -0.257087
-4.618023 -4.187454 -0.256160
-4.620383 -4.173429 -0.255933
-4.620640 -4.159978 -0.255470
-4.613772 -4.148658 -0.254229
-4.605572 -4.137785 -0.252840
-4.602404 -4.125381 -0.251989
-4.609398 -4.109727 -0.252222
-4.606274 -4.097250 -0.251360
-4.613659 -4.081303 -0.251615
-4.611757 -4.068348 -0.250866
-4.605314 -4.056916 -0.249625
-4.595347 -4.046724 -0.248001
-4.589920 -4.035003 -0.246855
-4.594132 -4.019871 -0.246724
-4.592416 -4.006786 -0.245953
-4.590536 -3.993733 -0.245155
-4.592161 -3.979352 -0.244717
-4.591147 -3.965897 -0.243990
-4.594193 -3.950854 -0.243678
-4.593957 -3.936994 -0.243010
-4.592742 -3.923467 -0.242227
-4.586729 -3.911803 -0.240934
-4.572829 -3.903321 -0.238812
-4.569406 -3.890655 -0.237770
-4.565200 -3.878289 -0.236636
-4.558886 -3.866788 -0.235274
-4.550744 -3.856069 -0.233714
-4.540383 -3.832120 -0.231172
-4.573427 -3.759464 -0.231380
-4.526040 -3.766656 -0.225779
-4.320970 -3.834761 -0.203589
-4.320589 -3.821387 -0.202757
-4.318015 -3.809006 -0.201692
-4.326939 -3.790920 -0.201752
-4.326644 -3.777237 -0.200881
-4.320133 -3.766604 -0.199384
-4.314374 -3.755581 -0.197951
-4.306267 -3.745750 -0.196277
-4.304185 -3.732788 -0.195179
-4.299690 -3.721036 -0.193835
-4.296404 -3.708604 -0.192595
-4.297770 -3.693613 -0.191790
-4.297181 -3.679581 -0.190782
-4.297760 -3.664822 -0.189872
-4.301460 -3.648224 -0.189244
-4.298535 -3.635228 -0.187975
-4.292225 -3.624113 -0.186378
-4.286210 -3.612820 -0.184803
-4.287138 -3.597466 -0.183868
-4.282530 -3.585282 -0.182411
-4.279495 -3.572139 -0.181095
-4.276881 -3.558704 -0.179814
-4.274257 -3.545237 -0.178529
-4.270685 -3.532320 -0.177157
-4.269403 -3.517963 -0.175994
-4.267049 -3.504242 -0.174737
-4.272166 -3.485756 -0.174154
-4.272959 -3.469940 -0.173186
-4.270172 -3.456404 -0.171910
-4.263047 -3.445728 -0.170266
-4.256584 -3.434698 -0.168700
-4.260149 -3.417051 -0.168032
-4.260795 -3.401342 -0.167128
-4.258793 -3.387456 -0.166018
-4.256072 -3.374132 -0.164876
-4.253489 -3.360801 -0.163778
-4.251928 -3.346854 -0.162803
-4.241377 -3.339376 -0.161102
-4.239956 -3.325605 -0.160220
-4.245207 -3.307149 -0.159943
-4.242219 -3.294741 -0.159017
-4.236598 -3.284438 -0.157920
-4.233770 -3.272284 -0.157107
-3.981149 -5.807008 -0.210712
-3.977442 -5.795975 -0.210094
-4.003407 -5.797045 -0.213074
-4.049963 -5.806106 -0.218557
-4.067054 -5.802749 -0.220529
-4.073439 -5.794855 -0.221245
-4.077741 -5.785967 -0.221741
-4.126241 -5.794023 -0.227572
-4.152637 -5.793055 -0.230777
-4.178450 -5.791508 -0.233938
-4.208833 -5.791313 -0.237675
-4.219477 -5.783507 -0.239064
-4.235726 -5.777553 -0.241148
-4.277645 -5.780507 -0.246342
-4.292295 -5.773425 -0.248275
-4.307493 -5.766346 -0.250290
-4.347916 -5.767656 -0.255362
-4.369877 -5.762348 -0.258223
-4.387814 -5.755477 -0.260612
-4.419559 -5.752890 -0.264678
-4.442546 -5.747184 -0.267697
-4.476155 -5.744579 -0.272009
-4.498266 -5.738098 -0.274936
-4.525332 -5.732911 -0.278469
-4.556056 -5.728558 -0.282449
-4.560757 -5.716313 -0.283273
-4.566354 -5.704315 -0.284203
-4.572431 -5.692437 -0.285187
-4.575699 -5.679763 -0.285824
-4.586770 -5.669219 -0.287406
-4.582894 -5.654630 -0.287161
-4.578121 -5.639894 -0.286798
-4.572930 -5.625152 -0.286374
-4.575315 -5.612414 -0.286865
-4.577531 -5.599659 -0.287327
-4.569876 -5.584556 -0.286572
-4.558944 -5.568808 -0.285406
-4.556887 -5.555266 -0.285314
-4.557937 -5.542494 -0.285592
-4.565757 -5.531254 -0.286689
-4.567513 -5.518673 -0.287033
-4.565970 -5.505426 -0.286962
-4.564279 -5.492208 -0.286862
-4.564204 -5.479375 -0.286950
-4.557217 -5.465230 -0.286179
-4.553604 -5.451838 -0.285811
-4.550743 -5.438661 -0.285525
-4.554186 -5.426692 -0.286003
-4.556141 -5.414464 -0.286288
-4.551949 -5.401196 -0.285807
-4.540110 -5.386726 -0.284378
-4.536333 -5.373709 -0.283928
-4.544253 -5.362599 -0.284906
-4.550609 -5.351203 -0.285683
-4.547724 -5.338409 -0.285315
-4.543288 -5.325448 -0.284747
-4.542858 -5.313107 -0.284662
-4.539008 -5.300338 -0.284149
-4.535112 -5.287622 -0.283621
-4.526809 -5.274417 -0.282545
-4.527608 -5.262397 -0.282577
-4.526185 -5.250132 -0.282329
-4.526377 -5.238076 -0.282270
-4.523793 -5.225743 -0.281864
-4.524068 -5.213737 -0.281801
-4.524808 -5.201786 -0.281788
-4.520236 -5.189356 -0.281116
-4.517108 -5.177107 -0.280614
-4.510454 -5.164609 -0.279675
-4.511868 -5.152805 -0.279716
-4.516601 -5.141237 -0.280157
-4.512113 -5.129008 -0.279464
-4.676960 -5.127521 -0.299456
-4.678850 -5.114973 -0.299520
-4.676230 -5.102170 -0.299027
-4.694671 -5.077704 -0.300911
-4.716203 -5.065839 -0.303343
-4.711976 -5.052868 -0.302628
-4.706369 -5.039895 -0.301741
-4.709309 -5.027196 -0.301889
-4.715831 -5.014546 -0.302466
-4.718924 -5.001778 -0.302621
-4.716042 -4.988908 -0.302044
-4.713571 -4.976066 -0.301514
-4.714918 -4.963253 -0.301441
-4.719363 -4.950419 -0.301739
-4.719249 -4.937569 -0.301480
-4.713790 -4.924776 -0.300570
-4.710023 -4.912002 -0.299860
-4.711301 -4.899153 -0.299757
-4.712773 -4.886281 -0.299673
-4.715683 -4.873345 -0.299758
-4.714296 -4.860524 -0.299321
-4.709523 -4.847840 -0.298472
-4.705013 -4.835182 -0.297653
-4.697262 -4.822715 -0.296441
-4.693910 -4.810077 -0.295755
-4.696467 -4.797118 -0.295776
-4.696702 -4.784271 -0.295514
-4.691131 -4.771803 -0.294553
-4.701972 -4.758194 -0.295554
-4.698770 -4.745551 -0.294871
-4.698239 -4.732708 -0.294504
-4.693645 -4.720209 -0.293650
-4.684191 -4.708183 -0.292213
-4.678858 -4.695840 -0.291267
-4.671767 -4.683712 -0.290110
-4.666701 -4.671425 -0.289192
-4.676721 -4.657517 -0.290063
-4.681213 -4.644134 -0.290274
-4.682089 -4.631126 -0.290052
-4.679631 -4.618509 -0.289432
-4.677095 -4.605911 -0.288800
-4.676342 -4.593084 -0.288376
-4.676618 -4.580108 -0.288071
-4.662905 -4.569115 -0.286114
-4.667902 -4.555471 -0.286360
-4.665493 -4.542895 -0.285731
-4.662533 -4.530412 -0.285034
-4.657350 -4.518302 -0.284074
-4.658541 -4.505160 -0.283860
-4.658434 -4.492214 -0.283490
-4.664286 -4.478199 -0.283813
-4.659429 -4.466052 -0.282880
-4.652298 -4.454357 -0.281680
-4.652777 -4.441259 -0.281365
-4.652565 -4.428273 -0.280966
-4.651337 -4.415473 -0.280445
-4.653054 -4.402061 -0.280262
-4.654315 -4.388709 -0.280022
-4.652945 -4.375889 -0.279472
-4.647006 -4.364068 -0.278391
-4.646761 -4.351002 -0.277964
-4.644280 -4.338431 -0.277275
-4.644274 -4.325280 -0.276868
-4.643386 -4.312318 -0.276354
-4.639662 -4.300034 -0.275509
-4.635249 -4.287935 -0.274582
-4.632236 -4.275498 -0.273811
-4.633559 -4.261941 -0.273533
-4.630745 -4.249438 -0.272775
-4.632526 -4.235699 -0.272537
-4.631699 -4.222630 -0.271996
-4.629970 -4.209793 -0.271346
-4.621181 -4.198951 -0.269888
-4.621621 -4.185497 -0.269474
-4.624368 -4.171329 -0.269314
-4.624988 -4.157738 -0.268906
-4.613766 -4.147713 -0.267154
-4.601103 -4.138214 -0.265236
-4.612264 -4.121316 -0.265996
-4.607411 -4.109386 -0.264946
-4.606643 -4.096144 -0.264347
-4.609887 -4.081548 -0.264190
-4.608739 -4.068351 -0.263532
-4.600553 -4.057520 -0.262081
-4.594420 -4.046022 -0.260853
-4.597547 -4.031302 -0.260647
-4.596591 -4.017957 -0.259978
-4.594429 -4.005013 -0.259166
-4.593494 -3.991595 -0.258481
-4.593345 -3.977847 -0.257872
-4.592943 -3.964147 -0.257226
-4.595204 -3.949383 -0.256861
-4.593157 -3.936211 -0.256011
-4.588660 -3.923967 -0.254884
-4.584844 -3.911445 -0.253821
-4.582406 -3.898351 -0.252898
-4.577275 -3.886324 -0.251672
-4.557266 -3.866340 -0.248135
-4.551789 -3.854493 -0.246844
-4.546280 -3.828407 -0.244814
-4.571891 -3.758978 -0.244489
-4.498677 -3.778168 -0.235940
-4.325099 -3.831705 -0.216082
-4.318788 -3.821152 -0.214649
-4.331507 -3.801334 -0.215194
-4.325719 -3.790401 -0.213788
-4.323585 -3.777635 -0.212751
-4.319178 -3.765955 -0.211465
-4.316013 -3.753609 -0.210295
-4.311092 -3.742121 -0.208932
-4.306592 -3.730384 -0.207601
-4.300987 -3.719197 -0.206146
-4.302181 -3.704357 -0.205371
-4.302798 -3.689725 -0.204522
-4.298923 -3.677448 -0.203206
-4.296349 -3.664409 -0.202010
-4.296003 -3.650066 -0.201025
-4.298163 -3.634221 -0.200277
-4.293138 -3.622364 -0.198803
-4.289450 -3.609708 -0.197453
-4.279070 -3.600921 -0.195439
-4.280649 -3.585122 -0.194594
-4.279742 -3.570704 -0.193498
-4.276227 -3.557792 -0.192143
-4.274073 -3.544023 -0.190917
-4.276195 -3.527576 -0.190100
-4.275006 -3.513099 -0.188962
-4.270688 -3.500551 -0.187529
-4.280045 -3.479311 -0.187398
-4.273664 -3.468019 -0.185778
-4.269953 -3.455045 -0.184422
-4.267330 -3.441383 -0.183182
-4.262006 -3.429534 -0.181705
-4.265845 -3.411621 -0.181099
-4.262940 -3.398226 -0.179886
-4.253663 -3.389244 -0.178113
-4.252604 -3.374758 -0.177124
-4.255196 -3.357796 -0.176497
-4.255595 -3.342405 -0.175702
-4.248302 -3.332541 -0.174246
-4.249297 -3.316936 -0.173579
-4.248697 -3.302574 -0.172809
-4.246706 -3.289354 -0.171959
-4.231081 -3.286309 -0.169939
-4.227032 -3.275029 -0.169004
-3.947686 -5.793767 -0.216298
-3.991687 -5.802719 -0.221643
-4.015807 -5.802928 -0.224527
-4.037553 -5.801805 -0.227143
-4.061504 -5.801230 -0.230063
-4.066572 -5.792799 -0.230652
-4.098140 -5.794595 -0.234580
-4.125339 -5.794277 -0.237989
-4.156311 -5.795028 -0.241896
-4.183177 -5.793827 -0.245316
-4.210622 -5.792486 -0.248834
-4.220182 -5.784240 -0.250138
-4.242690 -5.780511 -0.253082
-4.277175 -5.780760 -0.257546
-4.299676 -5.776405 -0.260529
-4.324592 -5.772617 -0.263831
-4.349928 -5.768687 -0.267202
-4.367039 -5.761724 -0.269554
-4.396169 -5.758533 -0.273426
-4.423646 -5.754501 -0.277102
-4.451111 -5.750185 -0.280786
-4.482141 -5.746711 -0.284926
-4.504182 -5.740163 -0.287941
-4.542107 -5.738220 -0.292962
-4.557899 -5.729324 -0.295197
-4.563904 -5.717439 -0.296196
-4.566421 -5.704529 -0.296751
-4.567429 -5.691211 -0.297111
-4.573117 -5.679223 -0.298058
-4.579771 -5.667485 -0.299121
-4.584293 -5.655160 -0.299907
-4.576962 -5.639742 -0.299184
-4.575871 -5.626049 -0.299243
-4.575797 -5.612672 -0.299422
-4.577628 -5.599814 -0.299834
-4.579715 -5.587051 -0.300268
-4.567262 -5.570889 -0.298845
-4.554607 -5.554854 -0.297386
-4.558683 -5.542773 -0.298042
-4.567987 -5.531852 -0.299355
-4.568745 -5.519042 -0.299570
-4.563986 -5.505105 -0.299072
-4.563183 -5.492076 -0.299068
-4.562880 -5.479198 -0.299117
-4.556781 -5.465229 -0.298417
-4.553545 -5.451907 -0.298071
-4.553275 -5.439209 -0.298093
-4.556292 -5.427146 -0.298525
-4.554019 -5.414157 -0.298272
-4.549294 -5.400804 -0.297697
-4.538946 -5.386590 -0.296395
-4.538742 -5.374153 -0.296377
-4.542800 -5.362420 -0.296893
-4.546513 -5.350623 -0.297356
-4.543434 -5.337815 -0.296945
-4.541993 -5.325297 -0.296733
-4.542133 -5.313036 -0.296714
-4.540301 -5.300535 -0.296435
-4.533613 -5.287447 -0.295529
-4.528327 -5.274618 -0.294794
-4.526346 -5.262253 -0.294472
-4.526965 -5.250222 -0.294474
-4.525353 -5.237958 -0.294184
-4.532084 -5.226604 -0.294949
-4.532184 -5.214534 -0.294862
-4.523004 -5.201588 -0.293587
-4.520310 -5.189332 -0.293131
-4.516701 -5.177033 -0.292552
-4.516020 -5.165019 -0.292339
-4.510575 -5.152653 -0.291515
-4.511576 -5.140814 -0.291503
-4.511018 -5.128867 -0.291287
-4.672741 -5.127175 -0.311655
-4.667780 -5.114238 -0.310859
-4.685960 -5.089898 -0.312811
-4.704859 -5.078043 -0.315019
-4.705138 -5.065273 -0.314862
-4.708084 -5.052597 -0.315037
-4.703493 -5.039664 -0.314253
-4.708661 -5.027027 -0.314698
-4.716673 -5.014402 -0.315496
-4.723728 -5.001685 -0.316167
-4.719934 -4.988772 -0.315464
-4.716588 -4.975894 -0.314813
-4.714888 -4.963050 -0.314365
-4.717145 -4.950210 -0.314411
-4.716867 -4.937360 -0.314134
-4.714460 -4.924533 -0.313585
-4.707743 -4.911793 -0.312491
-4.708806 -4.898948 -0.312371
-4.710535 -4.886069 -0.312330
-4.707898 -4.873299 -0.311737
-4.710203 -4.860374 -0.311760
-4.708130 -4.847593 -0.311232
-4.706595 -4.834799 -0.310767
-4.703146 -4.822104 -0.310060
-4.699392 -4.809449 -0.309313
-4.698781 -4.796637 -0.308955
-4.695219 -4.784005 -0.308226
-4.703043 -4.770628 -0.308911
-4.699501 -4.757988 -0.308179
-4.707702 -4.744467 -0.308903
-4.701208 -4.732058 -0.307798
-4.692497 -4.719888 -0.306416
-4.686158 -4.707573 -0.305327
-4.680221 -4.695268 -0.304287
-4.669800 -4.683456 -0.302690
-4.661982 -4.671456 -0.301414
-4.664064 -4.658429 -0.301360
-4.678329 -4.643971 -0.302805
-4.682662 -4.630551 -0.303020
-4.681245 -4.617790 -0.302523
-4.676558 -4.605449 -0.301622
-4.668265 -4.593621 -0.300275
-4.669298 -4.580565 -0.300073
-4.668642 -4.567727 -0.299660
-4.667184 -4.554997 -0.299146
-4.665395 -4.542317 -0.298589
-4.665003 -4.529418 -0.298200
-4.663631 -4.516665 -0.297688
-4.653787 -4.505325 -0.296140
-4.664646 -4.490503 -0.297115
-4.659742 -4.478345 -0.296164
-4.653086 -4.466535 -0.294999
-4.651548 -4.453817 -0.294453
-4.652941 -4.440536 -0.294260
-4.649030 -4.428262 -0.293421
-4.648023 -4.415423 -0.292930
-4.652439 -4.401458 -0.293092
-4.655226 -4.387774 -0.293052
-4.651936 -4.375351 -0.292274
-4.647078 -4.363286 -0.291304
-4.642415 -4.351203 -0.290354
-4.646780 -4.337065 -0.290487
-4.649445 -4.323262 -0.290411
-4.644727 -4.311182 -0.289443
-4.641706 -4.298708 -0.288676
-4.639649 -4.286000 -0.288020
-4.637207 -4.273385 -0.287313
-4.635758 -4.260511 -0.286721
-4.630562 -4.248617 -0.285677
-4.629779 -4.235558 -0.285155
-4.629596 -4.222314 -0.284698
-4.623819 -4.210608 -0.283572
-4.618674 -4.198752 -0.282517
-4.622423 -4.184340 -0.282510
-4.633671 -4.167651 -0.283381
-4.632034 -4.154678 -0.282722
-4.619167 -4.145113 -0.280733
-4.608332 -4.135014 -0.278981
-4.605759 -4.122388 -0.278196
-4.612453 -4.106789 -0.278491
-4.610792 -4.093801 -0.277798
-4.607943 -4.081183 -0.276959
-4.608974 -4.067257 -0.276565
-4.602067 -4.055981 -0.275238
-4.596519 -4.044267 -0.274064
-4.603026 -4.028338 -0.274282
-4.601746 -4.015071 -0.273586
-4.597958 -4.002677 -0.272591
-4.593084 -3.990675 -0.271463
-4.596611 -3.975554 -0.271295
-4.592855 -3.963091 -0.270277
-4.592283 -3.949401 -0.269617
-4.590398 -3.936173 -0.268796
-4.585425 -3.924124 -0.267611
-4.579527 -3.912441 -0.266312
-4.582678 -3.897113 -0.266034
-4.564526 -3.890402 -0.263323
-4.562689 -3.877068 -0.262459
-4.552329 -3.867269 -0.260619
-4.535470 -3.846155 -0.257352
-4.604201 -3.801981 -0.264370
-4.570773 -3.787571 -0.259156
-4.561982 -3.776947 -0.257426
-4.357813 -3.828738 -0.232523
-4.336341 -3.825244 -0.229412
-4.327153 -3.816007 -0.227651
-4.323661 -3.804022 -0.226506
-4.321991 -3.791101 -0.225548
-4.318934 -3.778810 -0.224425
-4.317226 -3.765790 -0.223437
-4.317583 -3.751650 -0.222658
-4.311885 -3.740548 -0.221212
-4.306095 -3.729475 -0.219745
-4.304481 -3.716175 -0.218715
-4.305248 -3.701532 -0.217927
-4.305510 -3.687062 -0.217070
-4.300350 -3.675462 -0.215624
-4.296077 -3.663344 -0.214262
-4.291897 -3.651136 -0.212900
-4.293765 -3.635468 -0.212163
-4.291713 -3.621927 -0.211003
-4.286233 -3.610304 -0.209477
-4.280276 -3.598942 -0.207895
-4.274720 -3.587333 -0.206351
-4.280687 -3.568829 -0.205987
-4.276946 -3.556030 -0.204617
-4.271436 -3.544283 -0.203064
-4.278077 -3.525042 -0.202746
-4.285862 -3.504932 -0.202535
-4.279317 -3.493690 -0.200875
-4.268220 -3.485380 -0.198766
-4.268024 -3.470160 -0.197759
-4.272613 -3.451797 -0.197234
-4.263619 -3.442266 -0.195370
-4.258565 -3.430225 -0.193914
-4.259921 -3.413954 -0.193106
-4.259363 -3.398967 -0.192128
-4.251243 -3.389177 -0.190436
-4.244133 -3.378832 -0.188871
-4.249147 -3.360183 -0.188510
-4.249354 -3.344910 -0.187713
-4.252388 -3.327703 -0.187220
-4.248471 -3.315527 -0.186096
-4.249991 -3.299577 -0.185533
-4.246359 -3.287483 -0.184520
-4.237038 -3.279750 -0.183015
-4.213086 -3.283136 -0.180179
-3.965595 -5.802157 -0.228262
-4.006605 -5.809753 -0.233440
-4.015062 -5.803401 -0.234415
-4.031625 -5.800136 -0.236471
-4.054752 -5.799224 -0.239407
-4.068630 -5.794287 -0.241170
-4.074057 -5.785786 -0.241863
-4.136045 -5.799031 -0.249923
-4.161331 -5.797523 -0.253244
-4.188008 -5.796194 -0.256772
-4.205339 -5.791039 -0.259108
-4.227095 -5.787258 -0.262042
-4.255068 -5.785439 -0.265803
-4.277392 -5.781269 -0.268850
-4.305141 -5.778728 -0.272620
-4.325643 -5.773363 -0.275463
-4.342835 -5.766636 -0.277889
-4.371240 -5.763471 -0.281788
-4.394750 -5.758388 -0.285060
-4.425324 -5.755351 -0.289263
-4.441870 -5.747528 -0.291644
-4.483094 -5.747285 -0.297255
-4.510580 -5.742396 -0.301078
-4.524909 -5.733260 -0.303182
-4.550753 -5.727434 -0.306796
-4.563454 -5.717532 -0.308688
-4.565848 -5.704579 -0.309227
-4.568115 -5.691608 -0.309744
-4.572152 -5.679150 -0.310489
-4.578066 -5.667209 -0.311474
-4.578851 -5.653889 -0.311778
-4.576408 -5.639768 -0.311650
-4.576756 -5.626438 -0.311880
-4.574579 -5.612523 -0.311770
-4.572062 -5.598596 -0.311605
-4.567621 -5.584283 -0.311177
-4.570281 -5.571740 -0.311676
-4.559516 -5.556121 -0.310394
-4.561332 -5.543499 -0.310761
-4.563098 -5.530897 -0.311112
-4.554188 -5.516019 -0.310044
-4.551194 -5.502523 -0.309746
-4.558474 -5.491216 -0.310796
-4.559113 -5.478547 -0.310959
-4.555923 -5.465161 -0.310605
-4.552148 -5.451736 -0.310165
-4.550736 -5.438827 -0.310027
-4.551755 -5.426410 -0.310200
-4.552690 -5.414004 -0.310353
-4.548428 -5.400732 -0.309810
-4.547247 -5.388049 -0.309665
-4.544322 -5.375125 -0.309280
-4.549169 -5.363484 -0.309913
-4.548582 -5.350996 -0.309820
-4.547046 -5.338400 -0.309592
-4.545108 -5.325789 -0.309303
-4.542626 -5.313145 -0.308933
-4.535736 -5.299960 -0.307972
-4.533810 -5.287501 -0.307660
-4.531378 -5.275019 -0.307274
-4.526059 -5.262235 -0.306498
-4.523147 -5.249796 -0.306033
-4.528455 -5.238304 -0.306647
-4.535444 -5.226955 -0.307475
-4.537274 -5.215037 -0.307614
-4.524874 -5.201751 -0.305869
