ply
format ascii 1.0
comment ---
element vertex 1667
property float x
property float y
property float z
element face 0
property list uchar uint vertex_indices
end_header
-2.313280 -1.007262 0.926888
-2.316030 -0.998689 0.932156
-2.317405 -0.989755 0.935795
-2.315145 -0.980053 0.935155
-2.313361 -0.970432 0.935041
-2.313861 -0.961213 0.937585
-2.312225 -0.951584 0.937600
-2.309745 -0.941808 0.936602
-2.306210 -0.931871 0.934340
-2.305175 -0.922342 0.935009
-2.303962 -0.912781 0.935457
-2.298976 -0.902694 0.931432
-2.294712 -0.892756 0.928245
-2.295792 -0.883530 0.931384
-2.293133 -0.873834 0.930089
-2.290286 -0.864144 0.928564
-2.291449 -0.854899 0.931811
-2.291746 -0.845544 0.934034
-2.292973 -0.836260 0.937378
-2.287925 -0.826433 0.933239
-2.283789 -0.816738 0.930188
-2.282788 -0.807310 0.930892
-2.285700 -0.798129 0.936298
-2.285257 -0.788718 0.937700
-2.280266 -0.779095 0.933652
-2.278438 -0.769662 0.933413
-2.276617 -0.760249 0.933195
-2.275890 -0.750884 0.934311
-2.275696 -0.741532 0.936088
-2.280596 -0.732234 0.944045
-2.281992 -0.722843 0.947796
-2.276529 -0.713446 0.943257
-2.269101 -0.704139 0.936337
-2.266081 -0.694853 0.934775
-2.268184 -0.685475 0.939464
-2.267556 -0.676144 0.940855
-2.265165 -0.666880 0.940115
-2.265653 -0.657507 0.942911
-2.263149 -0.648274 0.942074
-2.258478 -0.639196 0.938595
-2.256999 -0.629956 0.939044
-2.256238 -0.620669 0.940397
-2.253358 -0.611553 0.939165
-2.253020 -0.602236 0.941082
-2.253039 -0.592873 0.943467
-2.250470 -0.583762 0.942677
-2.247257 -0.574743 0.941108
-2.244235 -0.565729 0.939792
-2.242534 -0.556574 0.940132
-2.239470 -0.547605 0.938798
-2.233082 -0.539128 0.933336
-2.232283 -0.529896 0.934855
-2.231333 -0.520677 0.936210
-2.231865 -0.511207 0.939444
-2.229793 -0.502149 0.939443
-2.229259 -0.492822 0.941396
-2.226406 -0.483909 0.940455
-2.226492 -0.474444 0.943238
-2.223863 -0.465495 0.942621
-2.220436 -0.456722 0.941014
-2.218648 -0.447620 0.941499
-2.218976 -0.438043 0.944691
-2.214715 -0.429488 0.942079
-2.210295 -0.421005 0.939277
-2.206182 -0.412482 0.936877
-2.204284 -0.403427 0.937321
-2.201883 -0.394499 0.937142
-2.198808 -0.385754 0.936119
-2.197483 -0.376538 0.937363
-2.197498 -0.366924 0.940358
-2.194848 -0.358052 0.939947
-2.194069 -0.348621 0.941975
-2.192584 -0.339382 0.943116
-2.189183 -0.330731 0.941797
-2.185946 -0.322041 0.940708
-2.181003 -0.313927 0.937413
-2.177361 -0.305407 0.935827
-2.181185 -0.294303 0.944023
-2.175821 -0.286366 0.940231
-2.172027 -0.277899 0.938506
-2.172633 -0.267807 0.942591
-2.167808 -0.259727 0.939550
-2.165362 -0.250752 0.939666
-2.166397 -0.240386 0.944417
-2.162777 -0.231840 0.943031
-2.156818 -0.224272 0.938552
-2.152226 -0.216174 0.935901
-2.150044 -0.207062 0.936482
-2.148186 -0.197790 0.937526
-2.148500 -0.187521 0.941514
-2.147149 -0.177949 0.943306
-2.143661 -0.169338 0.942250
-2.142874 -0.159448 0.944866
-2.139052 -0.150976 0.943409
-2.136106 -0.142080 0.943163
-2.131173 -0.134167 0.940237
-2.130950 -0.123878 0.943751
-2.128158 -0.114860 0.943795
-2.123990 -0.106551 0.941984
-2.119116 -0.098628 0.939220
-2.116400 -0.089547 0.939445
-2.116063 -0.079126 0.942986
-2.112430 -0.070498 0.942011
-2.109231 -0.061615 0.941664
-2.106784 -0.052279 0.942392
-2.102531 -0.043983 0.940634
-2.097008 -0.036455 0.937118
-2.093593 -0.027663 0.936574
-2.094164 -0.016380 0.941667
-2.093182 -0.005984 0.944628
-2.088271 0.001959 0.942079
-2.082651 0.009429 0.938540
-2.075586 0.015919 0.932960
-2.075846 0.027270 0.937831
-2.070925 0.035187 0.935347
-2.069829 0.045740 0.938371
-2.067014 0.055157 0.938970
-2.061972 0.063024 0.936390
-2.059131 0.072472 0.937013
-2.058137 0.083310 0.940352
-2.055321 0.092872 0.941091
-2.051170 0.101465 0.939911
-2.046474 0.109653 0.937956
-2.043695 0.119328 0.938836
-2.039397 0.127850 0.937509
-2.033762 0.135312 0.934223
-2.028169 0.142786 0.931002
-2.024934 0.152175 0.931296
-2.024173 0.163657 0.935313
-2.023057 0.174927 0.938844
-2.019024 0.183780 0.938030
-2.013504 0.191356 0.934983
-2.009973 0.200655 0.934941
-2.006236 0.209793 0.934599
-2.000466 0.217107 0.931162
-1.997217 0.226693 0.931565
-1.995548 0.237767 0.934396
-1.993481 0.248524 0.936633
-1.988904 0.256938 0.935002
-1.986047 0.266992 0.936015
-1.982431 0.276323 0.935840
-1.979473 0.286304 0.936673
-1.977186 0.296966 0.938538
-1.975034 0.307788 0.940599
-1.971386 0.317091 0.940278
-1.968192 0.326844 0.940633
-1.964180 0.335715 0.939644
-1.958989 0.343282 0.936718
-1.953079 0.349988 0.932563
-1.945535 0.354798 0.925696
-1.937983 0.359437 0.918698
-1.939430 0.373998 0.926109
-1.938812 0.386280 0.930140
-1.934683 0.394533 0.928402
-1.931414 0.403685 0.927960
-1.929811 0.414708 0.930138
-1.925463 0.422423 0.927723
-1.923920 0.433376 0.929792
-1.921820 0.443590 0.930840
-1.918738 0.452514 0.930150
-1.915730 0.461408 0.929451
-1.914979 0.473011 0.932374
-1.911624 0.481240 0.930837
-1.909067 0.490344 0.930491
-1.903255 0.495103 0.924550
-1.902858 0.506715 0.927536
-1.903007 0.518958 0.931313
-1.898430 0.524824 0.926992
-1.891671 0.527548 0.918820
-1.898877 0.548963 0.934122
-1.899397 0.561300 0.937993
-1.900837 0.574817 0.943300
-1.894412 0.577291 0.935086
-1.890615 0.583193 0.931185
-2.380985 -1.246493 0.917069
-2.369307 -1.235213 0.907550
-2.367264 -1.227430 0.908619
-2.368721 -1.220799 0.913524
-2.365969 -1.212541 0.913699
-2.368156 -1.205909 0.919326
-2.373678 -1.200274 0.928642
-2.375809 -1.193312 0.934130
-2.376125 -1.185604 0.937536
-2.365997 -1.174363 0.929139
-2.361558 -1.164945 0.927057
-2.362088 -1.157027 0.930511
-2.358744 -1.147795 0.929530
-2.354326 -1.138168 0.927263
-2.351652 -1.129006 0.926902
-2.351650 -1.120552 0.929514
-2.349518 -1.111393 0.929647
-2.349737 -1.102821 0.932399
-2.346866 -1.093314 0.931572
-2.342495 -1.083359 0.928967
-2.338358 -1.073437 0.926567
-2.339589 -1.064850 0.930265
-2.337230 -1.055289 0.929797
-2.336148 -1.045996 0.930750
-2.334706 -1.036569 0.931243
-2.333493 -1.027154 0.931960
-2.326807 -1.016496 0.926313
-2.320988 -1.006062 0.921619
-2.322208 -0.997112 0.925031
-2.324197 -0.988254 0.929311
-2.323166 -0.978750 0.930067
-2.324985 -0.969752 0.934111
-2.323408 -0.960089 0.934191
-2.321876 -0.950427 0.934301
-2.314506 -0.939797 0.927584
-2.314661 -0.930434 0.929625
-2.314401 -0.920986 0.931174
-2.316276 -0.911830 0.935217
-2.315523 -0.902271 0.936181
-2.315432 -0.892794 0.937919
-2.312361 -0.882939 0.936156
-2.309262 -0.873112 0.934355
-2.306987 -0.863409 0.933521
-2.307295 -0.853991 0.935732
-2.305522 -0.844364 0.935497
-2.305874 -0.834941 0.937777
-2.303780 -0.825309 0.937175
-2.296618 -0.815328 0.930577
-2.295155 -0.805821 0.930731
-2.299262 -0.796661 0.937512
-2.300014 -0.787261 0.940331
-2.295689 -0.777615 0.937126
-2.286670 -0.767846 0.928333
-2.286741 -0.758482 0.930378
-2.288364 -0.749148 0.934298
-2.292239 -0.739823 0.940937
-2.291214 -0.730389 0.941739
-2.291133 -0.720965 0.943693
-2.286956 -0.711553 0.940750
-2.279506 -0.702230 0.933880
-2.276063 -0.692931 0.931834
-2.278176 -0.683527 0.936501
-2.278384 -0.674147 0.938899
-2.277991 -0.664778 0.940595
-2.275172 -0.655517 0.939378
-2.272863 -0.646258 0.938794
-2.268387 -0.637153 0.935596
-2.268874 -0.627758 0.938444
-2.268111 -0.618437 0.939796
-2.270542 -0.608846 0.945069
-2.268059 -0.599649 0.944373
-2.262705 -0.590752 0.940185
-2.260498 -0.581586 0.939858
-2.259467 -0.572302 0.940992
-2.259363 -0.562903 0.943289
-2.256645 -0.553818 0.942397
-2.251310 -0.545104 0.938296
-2.246570 -0.536362 0.934936
-2.244480 -0.527274 0.934862
-2.244703 -0.517833 0.937672
-2.243493 -0.508599 0.938733
-2.241695 -0.499460 0.939087
-2.239286 -0.490431 0.938703
-2.239857 -0.480859 0.942049
-2.237365 -0.471844 0.941605
-2.234737 -0.462865 0.941007
-2.232090 -0.453902 0.940404
-2.231761 -0.444449 0.942728
-2.228060 -0.435724 0.940841
-2.225396 -0.426785 0.940274
-2.221927 -0.418047 0.938708
-2.218965 -0.409204 0.937798
-2.215905 -0.400399 0.936781
-2.215003 -0.391042 0.938518
-2.212080 -0.382209 0.937713
-2.213106 -0.372292 0.941954
-2.211222 -0.363151 0.942518
-2.206601 -0.354801 0.939608
-2.204656 -0.345683 0.940135
-2.203641 -0.336270 0.941875
-2.201008 -0.327343 0.941566
-2.197651 -0.318652 0.940344
-2.194121 -0.310030 0.938914
-2.189671 -0.301734 0.936311
-2.190170 -0.291746 0.940130
-2.188729 -0.282395 0.941469
-2.185640 -0.273622 0.940691
-2.181235 -0.265342 0.938218
-2.178447 -0.256472 0.937868
-2.177718 -0.246800 0.940234
-2.177556 -0.236866 0.943377
-2.174281 -0.228145 0.942465
-2.169114 -0.220209 0.939081
-2.167011 -0.211016 0.939749
-2.164330 -0.202053 0.939681
-2.163092 -0.192448 0.941550
-2.159381 -0.183914 0.940165
-2.157839 -0.174399 0.941688
-2.156312 -0.164845 0.943264
-2.154639 -0.155328 0.944676
-2.150034 -0.147192 0.942190
-2.145922 -0.138833 0.940382
-2.145429 -0.128677 0.943466
-2.144352 -0.118763 0.945805
-2.141361 -0.109792 0.945590
-2.135668 -0.102230 0.941736
-2.130483 -0.094430 0.938582
-2.126781 -0.085849 0.937463
-2.125049 -0.076174 0.939062
-2.122198 -0.067090 0.939164
-2.119903 -0.057667 0.940059
-2.115927 -0.049189 0.938673
-2.111011 -0.041264 0.936013
-2.107534 -0.032492 0.935362
-2.107456 -0.021635 0.939458
-2.107243 -0.010783 0.943420
-2.103882 -0.001832 0.943038
-2.100825 0.007332 0.943113
-2.092348 0.013007 0.935612
-2.093871 0.025184 0.942178
-2.087401 0.032138 0.937529
-2.086108 0.042564 0.940216
-2.083774 0.052339 0.941472
-2.078274 0.059947 0.938259
-2.072205 0.067133 0.934249
-2.069162 0.076465 0.934580
-2.069828 0.088539 0.940273
-2.068529 0.099272 0.943202
-2.061974 0.106127 0.938581
-2.058354 0.115180 0.938219
-2.055500 0.124850 0.939000
-2.051550 0.133702 0.938214
-2.046870 0.141991 0.936382
-2.041549 0.149766 0.933627
-2.036996 0.158154 0.932008
-2.035428 0.169021 0.934817
-2.034238 0.180278 0.938228
-2.029144 0.188288 0.935872
-2.024611 0.196772 0.934359
-2.022229 0.207142 0.936074
-2.018390 0.216269 0.935625
-2.012597 0.223653 0.932238
-2.011413 0.235205 0.935811
-2.010105 0.246718 0.939225
-2.005778 0.255476 0.938065
-2.000641 0.263460 0.935657
-1.995652 0.271559 0.933454
-1.992167 0.281091 0.933540
-1.989076 0.291017 0.934221
-1.990414 0.305374 0.941750
-1.987065 0.315112 0.942017
-1.982342 0.323437 0.940112
-1.977250 0.331334 0.937580
-1.971793 0.338786 0.934414
-1.967069 0.346939 0.932336
-1.961035 0.353617 0.928116
-1.954937 0.360118 0.923707
-1.947540 0.365071 0.917137
-1.946357 0.376801 0.920375
-1.950447 0.394485 0.932008
-1.946253 0.402834 0.930310
-1.939896 0.408586 0.925023
-1.938901 0.420446 0.928280
-1.937053 0.431270 0.930071
-1.932730 0.439075 0.927736
-1.929969 0.448636 0.927821
-1.929770 0.461231 0.931985
-1.926434 0.469910 0.930897
-1.925100 0.480959 0.932972
-1.928366 0.497732 0.942518
-1.914356 0.492494 0.923393
-1.913811 0.504178 0.926368
-1.912394 0.514643 0.927769
-1.913888 0.528821 0.933886
-1.910813 0.536888 0.932255
-1.911094 0.549283 0.936087
-1.903717 0.551231 0.926948
-1.914505 0.577695 0.948152
-1.913489 0.588059 0.949417
-1.909514 0.594174 0.945547
-1.904834 0.599089 0.940328
-2.388422 -1.247262 0.912762
-2.382660 -1.238087 0.909773
-2.383696 -1.231308 0.914191
-2.382909 -1.223741 0.916557
-2.381740 -1.215921 0.918450
-2.387671 -1.210450 0.928146
-2.386693 -1.202432 0.930152
-2.386045 -1.194413 0.932469
-2.381260 -1.184912 0.930119
-2.371709 -1.173798 0.922380
-2.368315 -1.164640 0.921427
-2.369770 -1.156925 0.925833
-2.363253 -1.146633 0.921247
-2.358435 -1.136822 0.918491
-2.358861 -1.128513 0.921561
-2.361236 -1.120661 0.926776
-2.361204 -1.112003 0.929229
-2.361543 -1.103354 0.932048
-2.359662 -1.094012 0.932303
-2.352607 -1.083245 0.926636
-2.350895 -1.073864 0.926965
-2.351696 -1.065060 0.930102
-2.351364 -1.055898 0.931907
-2.348078 -1.045972 0.930302
-2.348109 -1.036794 0.932436
-2.344448 -1.026731 0.930314
-2.337112 -1.015864 0.923941
-2.336408 -1.006447 0.925119
-2.334066 -0.996660 0.924387
-2.334676 -0.987448 0.927016
-2.335099 -0.978155 0.929411
-2.334578 -0.968650 0.930700
-2.332139 -0.958784 0.929761
-2.326972 -0.948462 0.925651
-2.324585 -0.938640 0.924729
-2.325621 -0.929364 0.927755
-2.327288 -0.920149 0.931508
-2.327585 -0.910700 0.933674
-2.328126 -0.901265 0.936122
-2.328739 -0.891819 0.938657
-2.326408 -0.881998 0.937768
-2.323640 -0.872149 0.936369
-2.321809 -0.862432 0.936061
-2.319826 -0.852717 0.935580
-2.317305 -0.842973 0.934473
-2.317191 -0.833465 0.936189
-2.317053 -0.823952 0.937890
-2.315353 -0.814324 0.937771
-2.308957 -0.804410 0.932143
-2.310474 -0.795039 0.935823
-2.309880 -0.785535 0.937037
-2.308754 -0.776011 0.937640
-2.302479 -0.766310 0.932180
-2.299277 -0.756783 0.930353
-2.302676 -0.747445 0.936351
-2.303966 -0.738020 0.939879
-2.302022 -0.728544 0.939597
-2.301768 -0.719092 0.941338
-2.299343 -0.709648 0.940517
-2.293330 -0.700278 0.935438
-2.288117 -0.690969 0.931318
-2.288212 -0.681580 0.933545
-2.286932 -0.672228 0.934152
-2.286585 -0.662846 0.935898
-2.285177 -0.653509 0.936393
-2.284464 -0.644142 0.937744
-2.282092 -0.634876 0.937122
-2.281875 -0.625481 0.939114
-2.283473 -0.615935 0.943318
-2.281784 -0.606629 0.943586
-2.278128 -0.597511 0.941493
-2.273954 -0.588480 0.938786
-2.271541 -0.579306 0.938227
-2.271829 -0.569844 0.940968
-2.270690 -0.560531 0.942001
-2.267764 -0.551442 0.940878
-2.262539 -0.542686 0.936963
-2.258488 -0.533818 0.934493
-2.257283 -0.524562 0.935519
-2.257367 -0.515099 0.938148
-2.256903 -0.505701 0.940133
-2.255245 -0.496491 0.940673
-2.256176 -0.486817 0.944427
-2.251764 -0.478098 0.941616
-2.249081 -0.469083 0.940953
-2.245189 -0.460323 0.938810
-2.244723 -0.450879 0.940930
-2.241584 -0.441989 0.939754
-2.238765 -0.433046 0.938992
-2.236572 -0.423969 0.939028
-2.233284 -0.415156 0.937716
-2.232073 -0.405848 0.939019
-2.229746 -0.396809 0.938946
-2.226286 -0.388068 0.937469
-2.226630 -0.378322 0.940795
-2.227536 -0.368379 0.944861
-2.223918 -0.359673 0.943248
-2.218739 -0.351441 0.939673
-2.214177 -0.343066 0.936887
-2.213492 -0.333530 0.939036
-2.210893 -0.324570 0.938778
-2.209749 -0.315139 0.940396
-2.209122 -0.305513 0.942700
-2.207717 -0.296118 0.944039
-2.201754 -0.288286 0.939557
-2.197875 -0.279763 0.937757
-2.195353 -0.270766 0.937719
-2.192532 -0.261874 0.937317
-2.189317 -0.253130 0.936425
-2.191438 -0.242322 0.942468
-2.189497 -0.233038 0.943283
-2.186158 -0.224301 0.942303
-2.182566 -0.215673 0.941014
-2.179646 -0.206769 0.940620
-2.177503 -0.197528 0.941266
-2.173925 -0.188897 0.940054
-2.170411 -0.180241 0.938947
-2.168215 -0.170990 0.939596
-2.168124 -0.160745 0.943056
-2.166512 -0.151160 0.944540
-2.161417 -0.143216 0.941432
-2.156889 -0.135021 0.939093
-2.155464 -0.125299 0.940906
-2.155923 -0.114584 0.945275
-2.152069 -0.106019 0.943908
-2.146428 -0.098393 0.940164
-2.141957 -0.090177 0.938004
-2.138562 -0.081390 0.937314
-2.133911 -0.073286 0.934950
-2.131945 -0.063691 0.936246
-2.130316 -0.053867 0.938036
-2.126114 -0.045490 0.936355
-2.120466 -0.037965 0.932718
-2.119023 -0.027956 0.934859
-2.118638 -0.017252 0.938494
-2.118275 -0.006461 0.942211
-2.115338 0.002791 0.942422
-2.111384 0.011423 0.941256
-2.108402 0.020692 0.941467
-2.105386 0.029966 0.941663
-2.101928 0.038975 0.941276
-2.098466 0.048002 0.940913
-2.094292 0.056563 0.939581
-2.089256 0.064533 0.937059
-2.084345 0.072582 0.934730
-2.082462 0.082796 0.936714
-2.082625 0.094556 0.941649
-2.080131 0.104459 0.942858
-2.076774 0.113765 0.942872
-2.071704 0.121801 0.940460
-2.067434 0.130447 0.939215
-2.063076 0.139037 0.937867
-2.058652 0.147584 0.936442
-2.053085 0.155224 0.933378
-2.048387 0.163553 0.931587
-2.044561 0.172605 0.931087
-2.041370 0.182209 0.931538
-2.039283 0.192786 0.933640
-2.035836 0.202255 0.933770
-2.032788 0.212101 0.934511
-2.031382 0.223433 0.937713
-2.027756 0.232856 0.937642
-2.023783 0.241985 0.937062
-2.019863 0.251173 0.936566
-2.015303 0.259778 0.935109
-2.011468 0.269058 0.934740
-2.008322 0.279004 0.935410
-2.004589 0.288402 0.935185
-2.002339 0.299259 0.937214
-2.000243 0.310306 0.939477
-1.996799 0.320031 0.939662
-1.991874 0.328245 0.937536
-1.985325 0.334737 0.932850
-1.979060 0.341430 0.928534
-1.972833 0.348071 0.924208
-1.971169 0.359501 0.926941
-1.966495 0.367681 0.924912
-1.961167 0.375070 0.921778
-1.958240 0.385028 0.922350
-1.962268 0.402765 0.933879
-1.962736 0.416587 0.939740
-1.952572 0.418206 0.928585
-1.949970 0.428369 0.929369
-1.949113 0.440523 0.932863
-1.944683 0.448394 0.930516
-1.940486 0.456414 0.928423
-1.935746 0.463639 0.925320
-1.935863 0.476689 0.929970
-1.935615 0.489250 0.933927
-1.932876 0.498625 0.933705
-1.925196 0.501594 0.925256
-1.920778 0.508488 0.921982
-1.925163 0.526616 0.933044
-1.925099 0.538954 0.936677
-1.923645 0.549369 0.937884
-1.920399 0.557264 0.935980
-1.919153 0.567678 0.937243
-1.904586 0.559833 0.916195
-1.921337 0.594527 0.947136
-1.918916 0.602960 0.946019
-1.911226 0.603855 0.935936
-1.912258 0.616743 0.940291
-2.406713 -1.259057 0.916803
-2.406273 -1.251827 0.919662
-2.399034 -1.241983 0.915069
-2.395633 -1.233469 0.914586
-2.396657 -1.226436 0.918878
-2.401459 -1.220589 0.927265
-2.404312 -1.213891 0.933480
-2.399874 -1.204559 0.931634
-2.392830 -1.194280 0.926842
-2.385759 -1.183949 0.921937
-2.381082 -1.174351 0.919595
-2.380788 -1.166080 0.922037
-2.383016 -1.158484 0.927221
-2.377173 -1.148286 0.923383
-2.370724 -1.137870 0.918792
-2.373666 -1.130182 0.924600
-2.374386 -1.121720 0.927881
-2.372986 -1.112558 0.928740
-2.371937 -1.103419 0.929935
-2.371463 -1.094361 0.931722
-2.367611 -1.084342 0.929663
-2.363090 -1.074125 0.926792
-2.366148 -1.065779 0.932406
-2.366472 -1.056663 0.934902
-2.362643 -1.046501 0.932666
-2.360531 -1.036723 0.932326
-2.357209 -1.026651 0.930575
-2.355669 -1.016958 0.930805
-2.353445 -1.007097 0.930227
-2.351501 -0.997282 0.929936
-2.350311 -0.987602 0.930475
-2.350816 -0.978225 0.932923
-2.348885 -0.968368 0.932578
-2.343386 -0.957888 0.928135
-2.340842 -0.947955 0.927046
-2.339727 -0.938267 0.927580
-2.341124 -0.928961 0.930984
-2.338844 -0.919079 0.930166
-2.338149 -0.909437 0.931163
-2.339262 -0.900033 0.934240
-2.338709 -0.890392 0.935401
-2.336135 -0.880510 0.934236
-2.332974 -0.870589 0.932392
-2.331850 -0.860920 0.932901
-2.330863 -0.851274 0.933577
-2.328387 -0.841501 0.932534
-2.328367 -0.831964 0.934347
-2.326698 -0.822296 0.934257
-2.325330 -0.812668 0.934529
-2.322725 -0.802978 0.933372
-2.320451 -0.793339 0.932610
-2.320495 -0.783842 0.934565
-2.320088 -0.774321 0.936011
-2.316249 -0.764682 0.933461
-2.315393 -0.755176 0.934414
-2.314300 -0.745672 0.935106
-2.314615 -0.736197 0.937469
-2.312574 -0.726697 0.937086
-2.311847 -0.717218 0.938265
-2.311825 -0.707738 0.940296
-2.306919 -0.698321 0.936587
-2.302552 -0.688953 0.933523
-2.300296 -0.679578 0.932966
-2.296449 -0.670282 0.930542
-2.297037 -0.660842 0.933391
-2.297324 -0.651398 0.935910
-2.295623 -0.642051 0.936089
-2.294050 -0.632707 0.936440
-2.294394 -0.623237 0.939097
-2.294617 -0.613757 0.941638
-2.291238 -0.604566 0.939895
-2.286602 -0.595524 0.936659
-2.282504 -0.586479 0.934079
-2.281894 -0.577103 0.935703
-2.282192 -0.567615 0.938442
-2.281150 -0.558266 0.939596
-2.278064 -0.549174 0.938302
-2.275580 -0.540025 0.937753
-2.272307 -0.531004 0.936266
-2.270145 -0.521842 0.936140
-2.270616 -0.512274 0.939232
-2.270112 -0.502837 0.941167
-2.269125 -0.493465 0.942538
-2.266713 -0.484338 0.942194
-2.264717 -0.475143 0.942375
-2.259594 -0.466557 0.938746
-2.258630 -0.457182 0.940227
-2.255960 -0.448149 0.939636
-2.254030 -0.438966 0.939973
-2.251622 -0.429889 0.939741
-2.249769 -0.420689 0.940212
-2.247013 -0.411701 0.939586
-2.244395 -0.402688 0.939149
-2.241229 -0.393821 0.938048
-2.239612 -0.384562 0.938891
-2.239419 -0.374911 0.941530
-2.240318 -0.364924 0.945563
-2.234039 -0.356929 0.940649
-2.229524 -0.348477 0.937949
-2.227489 -0.339314 0.938371
-2.224309 -0.330495 0.937375
-2.222168 -0.321359 0.937705
-2.221487 -0.311743 0.939900
-2.220273 -0.302274 0.941449
-2.218687 -0.292907 0.942554
-2.214818 -0.284314 0.940781
-2.209990 -0.276078 0.937804
-2.205837 -0.267630 0.935695
-2.203535 -0.258516 0.935966
-2.203416 -0.248565 0.939053
-2.202265 -0.238968 0.940852
-2.202243 -0.228894 0.944132
-2.199749 -0.219768 0.944261
-2.196883 -0.210785 0.943934
-2.191724 -0.202761 0.940660
-2.188391 -0.193987 0.939763
-2.186054 -0.184779 0.940181
-2.182105 -0.176274 0.938523
-2.179642 -0.167105 0.938823
-2.177918 -0.157580 0.940115
-2.175022 -0.148576 0.939901
-2.169702 -0.140725 0.936523
-2.166010 -0.132110 0.935302
-2.165511 -0.121913 0.938317
-2.165201 -0.111565 0.941622
-2.160846 -0.103238 0.939602
-2.156440 -0.094949 0.937531
-2.152994 -0.086160 0.936757
-2.149492 -0.077395 0.935933
-2.145123 -0.069100 0.933973
-2.143146 -0.059477 0.935242
-2.141308 -0.049738 0.936733
-2.137513 -0.041089 0.935620
-2.134329 -0.032076 0.935358
-2.131910 -0.022590 0.936162
-2.130092 -0.012707 0.937819
-2.130054 -0.001684 0.941942
-2.127909 0.008105 0.943238
-2.124488 0.017126 0.942822
-2.120063 0.025521 0.941055
-2.116088 0.034210 0.939932
-2.115450 0.045123 0.943448
-2.111196 0.053678 0.942002
-2.105231 0.061071 0.938203
-2.101321 0.069862 0.937280
-2.097636 0.078827 0.936700
-2.094355 0.088100 0.936713
-2.092930 0.098747 0.939372
-2.089337 0.107872 0.939020
-2.085085 0.116531 0.937767
-2.080725 0.125121 0.936384
-2.078956 0.135707 0.938714
-2.074682 0.144413 0.937512
-2.068874 0.151924 0.934136
-2.064756 0.160765 0.933196
-2.061254 0.170122 0.933166
-2.054484 0.176826 0.928440
-2.050506 0.185812 0.927759
-2.049443 0.197278 0.931340
-2.047477 0.208059 0.933652
-2.044567 0.218086 0.934616
-2.041497 0.228015 0.935370
-2.039484 0.238925 0.937706
-2.035397 0.248026 0.937002
-2.029903 0.255852 0.934216
-2.023736 0.263029 0.930417
-2.021826 0.274161 0.932962
-2.023380 0.288646 0.940722
-2.019944 0.298465 0.941022
-2.014295 0.306136 0.937973
-2.010242 0.315343 0.937312
-2.003111 0.321458 0.931948
-1.998584 0.330121 0.930499
-1.993352 0.338031 0.927936
-1.989227 0.347036 0.927022
-1.984058 0.354910 0.924455
-1.981212 0.365195 0.925421
-1.979817 0.377035 0.928598
-1.974499 0.384608 0.925625
-1.972032 0.395241 0.927027
-1.970842 0.407281 0.930372
-1.972986 0.423100 0.938910
-1.965606 0.428088 0.932383
-1.961183 0.436325 0.930408
-1.961797 0.450359 0.936326
-1.956402 0.457284 0.932605
-1.950591 0.463557 0.928088
-1.944860 0.469756 0.923558
-1.942281 0.479641 0.923953
-1.942777 0.493235 0.929186
-1.936316 0.498085 0.923070
-1.933177 0.506919 0.922176
-1.932411 0.518646 0.924999
-1.935768 0.535615 0.934416
-1.936219 0.548804 0.938991
-1.933756 0.558084 0.938675
-1.933035 0.569530 0.941067
-1.924968 0.570994 0.931242
-1.925373 0.583644 0.935190
-1.926284 0.596891 0.939840
-1.922279 0.603261 0.936227
-1.916251 0.606599 0.929098
-1.905874 0.603558 0.914577
-1.913763 0.626039 0.930239
-2.417593 -1.268088 0.912632
-2.418415 -1.261358 0.916838
-2.420246 -1.254862 0.922090
-2.420385 -1.247599 0.925476
-2.401122 -1.233231 0.907812
-2.399452 -1.225164 0.909097
-2.413743 -1.222555 0.927671
-2.409331 -1.213239 0.925886
-2.401655 -1.202742 0.920468
-2.398926 -1.193850 0.920370
-2.396155 -1.184853 0.920161
-2.389858 -1.174636 0.916018
-2.396078 -1.168322 0.925547
-2.392607 -1.158822 0.924377
-2.394422 -1.150858 0.928967
-2.394297 -1.142188 0.931364
-2.390497 -1.132347 0.929642
-2.388432 -1.122948 0.929776
-2.387362 -1.113758 0.930954
-2.382862 -1.103558 0.928267
-2.383217 -1.094623 0.930919
-2.383378 -1.085552 0.933308
-2.377290 -1.074822 0.928683
-2.378753 -1.065964 0.932431
-2.371797 -1.054999 0.926728
-2.371834 -1.045699 0.928798
-2.371901 -1.036350 0.930869
-2.370986 -1.026732 0.931807
-2.367543 -1.016541 0.929870
-2.365937 -1.006733 0.929966
-2.366812 -0.997404 0.932832
-2.365444 -0.987596 0.933148
-2.361552 -0.977306 0.930593
-2.361681 -0.967762 0.932560
-2.357768 -0.957496 0.929941
-2.354337 -0.947341 0.927846
-2.354511 -0.937788 0.929828
-2.353712 -0.928068 0.930701
-2.349571 -0.917861 0.927769
-2.348880 -0.908175 0.928754
-2.349292 -0.898633 0.930996
-2.349330 -0.889030 0.932818
-2.347716 -0.879225 0.932758
-2.344624 -0.869274 0.931010
-2.343638 -0.859578 0.931676
-2.342645 -0.849890 0.932340
-2.341516 -0.840199 0.932860
-2.340065 -0.830494 0.933018
-2.336986 -0.820684 0.931315
-2.336419 -0.811085 0.932511
-2.336569 -0.801535 0.934550
-2.337501 -0.792022 0.937509
-2.336786 -0.782415 0.938586
-2.332819 -0.772684 0.935916
-2.326865 -0.762937 0.930953
-2.324697 -0.753370 0.930386
-2.324438 -0.743866 0.932050
-2.325277 -0.734375 0.935013
-2.324502 -0.724857 0.936119
-2.325114 -0.715342 0.938863
-2.320385 -0.705858 0.935398
-2.320848 -0.696352 0.938010
-2.321384 -0.686830 0.940732
-2.313177 -0.677551 0.933232
-2.311064 -0.668154 0.932883
-2.306858 -0.658869 0.930091
-2.308565 -0.649332 0.934270
-2.310884 -0.639724 0.939200
-2.302235 -0.630783 0.931218
-2.306992 -0.620986 0.939077
-2.306013 -0.611561 0.940188
-2.301919 -0.602404 0.937629
-2.297465 -0.593322 0.934656
-2.293820 -0.584207 0.932652
-2.293496 -0.574769 0.934617
-2.293685 -0.565260 0.937217
-2.292687 -0.555873 0.938426
-2.290232 -0.546669 0.937916
-2.287914 -0.537462 0.937586
-2.286856 -0.528085 0.938787
-2.282927 -0.519135 0.936560
-2.282638 -0.509644 0.938725
-2.282734 -0.500070 0.941380
-2.281730 -0.490659 0.942735
-2.277601 -0.481800 0.940333
-2.273531 -0.472964 0.938014
-2.270904 -0.463880 0.937456
-2.269666 -0.454527 0.938604
-2.268969 -0.445051 0.940431
-2.265411 -0.436175 0.938795
-2.261959 -0.427298 0.937302
-2.262162 -0.417597 0.940296
-2.260430 -0.408323 0.940945
-2.256563 -0.399568 0.938994
-2.253131 -0.390727 0.937590
-2.253601 -0.380885 0.941010
-2.252000 -0.371558 0.941902
-2.251348 -0.361957 0.943992
-2.248910 -0.352837 0.943894
-2.244296 -0.344352 0.941113
-2.240997 -0.335506 0.939978
-2.238536 -0.326414 0.939901
-2.234544 -0.317803 0.937933
-2.233301 -0.308326 0.939416
-2.230051 -0.299491 0.938409
-2.228199 -0.290191 0.939172
-2.226332 -0.280883 0.939941
-2.223812 -0.271791 0.939909
-2.219558 -0.263322 0.937707
-2.214985 -0.254994 0.935113
-2.214182 -0.245266 0.937310
-2.214890 -0.234920 0.941459
-2.215019 -0.224742 0.944908
-2.212175 -0.215709 0.944601
-2.207718 -0.207334 0.942249
-2.200422 -0.200171 0.936272
-2.197463 -0.191222 0.935862
-2.199338 -0.180163 0.941695
-2.198690 -0.170138 0.944322
-2.192507 -0.162571 0.939829
-2.188931 -0.153851 0.938717
-2.183745 -0.145888 0.935533
-2.178653 -0.137911 0.932482
-2.177672 -0.127959 0.934805
-2.176759 -0.117931 0.937252
-2.174046 -0.108761 0.937378
-2.170537 -0.099983 0.936484
-2.167418 -0.090998 0.936127
-2.164107 -0.082104 0.935539
-2.163041 -0.071989 0.937947
-2.160343 -0.062719 0.938231
-2.154886 -0.054965 0.934874
-2.152942 -0.045247 0.936213
-2.150972 -0.035506 0.937552
-2.148303 -0.026135 0.937991
-2.145905 -0.016576 0.938825
-2.145283 -0.005912 0.942085
-2.142388 0.003428 0.942326
-2.139201 0.012613 0.942202
-2.135413 0.021440 0.941293
-2.130274 0.029413 0.938573
-2.127251 0.038751 0.938757
-2.124971 0.048609 0.939992
-2.123359 0.058960 0.942182
-2.119600 0.067908 0.941463
-2.113607 0.075331 0.937689
-2.110382 0.084669 0.937759
-2.108396 0.094917 0.939580
-2.104295 0.103698 0.938503
-2.099500 0.111986 0.936482
-2.094317 0.119986 0.933940
-2.090138 0.128736 0.932824
-2.089998 0.140584 0.937423
-2.087589 0.150778 0.938877
-2.081444 0.158095 0.935077
-2.076406 0.166266 0.932856
-2.074422 0.176901 0.935008
-2.069972 0.185584 0.933675
-2.064302 0.193268 0.930610
-2.061589 0.203419 0.931808
-2.058872 0.213619 0.933035
-2.053660 0.221715 0.930677
-2.050180 0.231317 0.930843
-2.049438 0.243379 0.935024
-2.048311 0.255190 0.938685
-2.040841 0.261311 0.933071
-2.033619 0.267593 0.927795
-2.032536 0.279547 0.931570
-2.030669 0.290841 0.934212
-2.029702 0.303060 0.938216
-2.024482 0.311224 0.935886
-2.020197 0.320280 0.934937
-2.012854 0.326277 0.929367
-2.006988 0.333674 0.925973
-2.001761 0.341664 0.923501
-2.000328 0.353532 0.926752
-1.996227 0.362646 0.925923
-1.993322 0.372997 0.926878
-1.988154 0.380909 0.924320
-1.989993 0.396367 0.932491
-1.986064 0.405580 0.931740
-1.981513 0.414044 0.929954
-1.975764 0.421074 0.926217
-1.974457 0.433052 0.929318
-1.969812 0.441165 0.927122
-1.968791 0.453401 0.930519
-1.966197 0.463757 0.931358
-1.960867 0.470773 0.927771
-1.958113 0.480745 0.928137
-1.956670 0.492225 0.930478
-1.949830 0.496975 0.924101
-1.947619 0.507278 0.924967
-1.942069 0.513268 0.920353
-1.944303 0.528971 0.928101
-1.943551 0.540826 0.930938
-1.940598 0.549730 0.930089
-1.937532 0.558329 0.928911
-1.934886 0.567320 0.928263
-1.938242 0.584185 0.937237
-1.934747 0.591779 0.934925
-1.930244 0.597803 0.930803
-1.934084 0.615089 0.940184
-1.922295 0.610651 0.923800
-1.917633 0.615790 0.918926
-1.914909 0.623431 0.917081
-1.916792 0.637446 0.922684
-2.433464 -1.279024 0.913675
-2.433914 -1.272164 0.917471
-2.436567 -1.265988 0.923576
-2.432295 -1.257103 0.922241
-2.426730 -1.247659 0.919454
-2.421521 -1.238267 0.916976
-2.408432 -1.226019 0.905948
-2.408669 -1.218408 0.909177
-2.409191 -1.210764 0.912661
-2.409292 -1.202846 0.915638
-2.411037 -1.195347 0.920341
-2.412725 -1.187686 0.924934
-2.413378 -1.179557 0.928351
-2.400658 -1.167111 0.917144
-2.405967 -1.160246 0.925510
-2.406354 -1.151725 0.928459
-2.404265 -1.142362 0.928643
-2.400716 -1.132500 0.927166
-2.397857 -1.122782 0.926382
-2.399196 -1.114169 0.930154
-2.398015 -1.104770 0.931105
-2.391010 -1.093765 0.925583
-2.390450 -1.084434 0.927111
-2.393745 -1.076007 0.932858
-2.377264 -1.062631 0.916679
-2.379838 -1.053946 0.921538
-2.383104 -1.045329 0.927139
-2.382776 -1.035809 0.928723
-2.379466 -1.025595 0.926958
-2.377627 -1.015692 0.926796
-2.376983 -1.006020 0.927939
-2.377596 -0.996570 0.930464
-2.377277 -0.986901 0.931930
-2.375466 -0.976935 0.931711
-2.371873 -0.966652 0.929478
-2.370039 -0.956697 0.929199
-2.366445 -0.946460 0.926932
-2.365784 -0.936716 0.927949
-2.367611 -0.927339 0.931762
-2.365335 -0.917340 0.930956
-2.361855 -0.907198 0.928787
-2.361670 -0.897521 0.930335
-2.360492 -0.887718 0.930765
-2.359547 -0.877952 0.931463
-2.358315 -0.868163 0.931843
-2.357108 -0.858390 0.932258
-2.356431 -0.848680 0.933283
-2.353573 -0.838786 0.931840
-2.351104 -0.828961 0.930847
-2.351654 -0.819389 0.933301
-2.350203 -0.809674 0.933492
-2.348780 -0.799979 0.933728
-2.349346 -0.790406 0.936253
-2.350152 -0.780834 0.939073
-2.346601 -0.771078 0.936920
-2.339843 -0.761267 0.931096
-2.334507 -0.751581 0.926908
-2.337101 -0.742108 0.931851
-2.339996 -0.732597 0.937170
-2.339145 -0.723026 0.938197
-2.339826 -0.713457 0.941016
-2.336005 -0.703916 0.938651
-2.331082 -0.694440 0.935023
-2.328856 -0.684960 0.934531
-2.328227 -0.675454 0.935909
-2.325483 -0.666028 0.934852
-2.322136 -0.656656 0.933106
-2.322993 -0.647103 0.936277
-2.323418 -0.637552 0.938971
-2.325243 -0.627890 0.943327
-2.320686 -0.618655 0.940242
-2.318100 -0.609312 0.939479
-2.314750 -0.600058 0.937835
-2.311161 -0.590857 0.935923
-2.307358 -0.581713 0.933773
-2.306763 -0.572258 0.935417
-2.305469 -0.562874 0.936260
-2.305516 -0.553325 0.938711
-2.302658 -0.544133 0.937745
-2.301014 -0.534794 0.938236
-2.298468 -0.525588 0.937675
-2.295764 -0.516421 0.936942
-2.293570 -0.507188 0.936833
-2.294931 -0.497375 0.940988
-2.294254 -0.487870 0.942735
-2.289030 -0.479167 0.939062
-2.283456 -0.470581 0.934973
-2.280432 -0.461552 0.933954
-2.279157 -0.452187 0.935055
-2.278788 -0.442623 0.937271
-2.275985 -0.433562 0.936572
-2.272244 -0.424722 0.934754
-2.272235 -0.415043 0.937472
-2.273041 -0.405138 0.941206
-2.271369 -0.395800 0.941958
-2.265715 -0.387463 0.937879
-2.263825 -0.378194 0.938397
-2.260669 -0.369259 0.937389
-2.261797 -0.359152 0.941644
-2.260917 -0.349561 0.943467
-2.258326 -0.340446 0.943213
-2.252782 -0.332216 0.939339
-2.248821 -0.323546 0.937422
-2.245614 -0.314660 0.936450
-2.245890 -0.304661 0.939807
-2.244123 -0.295290 0.940662
-2.238649 -0.287158 0.936929
-2.239539 -0.276867 0.941130
-2.237441 -0.267576 0.941637
-2.230225 -0.260124 0.935764
-2.227484 -0.251086 0.935497
-2.226847 -0.241251 0.937892
-2.226037 -0.231446 0.940099
-2.226243 -0.221204 0.943618
-2.222088 -0.212663 0.941661
-2.216261 -0.204824 0.937600
-2.209490 -0.197423 0.932344
-2.208277 -0.187712 0.934158
-2.209535 -0.176892 0.939151
-2.209690 -0.166487 0.942778
-2.204885 -0.158261 0.940096
-2.199436 -0.150355 0.936599
-2.197208 -0.140976 0.937251
-2.194808 -0.131657 0.937708
-2.194209 -0.121445 0.940518
-2.188338 -0.113786 0.936541
-2.184654 -0.105066 0.935408
-2.181533 -0.096058 0.935028
-2.180715 -0.085843 0.937673
-2.180101 -0.075467 0.940625
-2.178421 -0.065608 0.942220
-2.174018 -0.057197 0.940276
-2.169330 -0.048953 0.937975
-2.164993 -0.040524 0.936153
-2.165301 -0.029435 0.940495
-2.163067 -0.019747 0.941517
-2.162207 -0.009210 0.944400
-2.157067 -0.001184 0.941623
-2.151936 0.006831 0.938874
-2.149054 0.016225 0.939155
-2.144360 0.024506 0.937034
-2.140990 0.033629 0.936716
-2.136652 0.042145 0.935121
-2.135453 0.052731 0.937800
-2.134449 0.063514 0.940791
-2.130865 0.072618 0.940318
-2.125248 0.080345 0.937100
-2.123495 0.090752 0.939187
-2.120599 0.100410 0.939749
-2.116193 0.109022 0.938269
-2.111525 0.117453 0.936452
-2.106147 0.125362 0.933673
-2.102648 0.134672 0.933523
-2.100948 0.145379 0.935911
-2.099325 0.156215 0.938453
-2.095384 0.165311 0.937793
-2.091545 0.174512 0.937305
-2.086340 0.182643 0.934917
-2.082578 0.191944 0.934587
-2.080225 0.202437 0.936284
-2.077158 0.212394 0.937004
-2.070600 0.219434 0.932766
-2.065269 0.227492 0.930284
-2.060819 0.236311 0.929077
-2.060781 0.249035 0.934252
-2.058566 0.259925 0.936328
-2.054115 0.268850 0.935187
-2.046661 0.275025 0.929673
-2.041449 0.283219 0.927413
-2.038927 0.293933 0.929095
-2.035933 0.304244 0.930096
-2.034711 0.316302 0.933726
-2.029937 0.324955 0.932109
-2.023228 0.331670 0.927594
-2.019007 0.340814 0.926750
-2.015215 0.350381 0.926525
-2.010682 0.359176 0.925161
-2.008665 0.370566 0.927555
-2.004432 0.379641 0.926577
-2.002100 0.390713 0.928440
-2.002993 0.405283 0.935184
-1.997674 0.413130 0.932419
-1.992116 0.420624 0.929207
-1.987578 0.429160 0.927477
-1.981802 0.436209 0.923750
-1.977451 0.444769 0.922127
-1.974651 0.455036 0.922819
-1.971372 0.464677 0.922676
-1.969835 0.476303 0.925157
-1.969123 0.488874 0.928842
-1.973383 0.507456 0.940266
-1.963588 0.508849 0.929446
-1.958181 0.515399 0.925389
-1.953513 0.522691 0.922355
-1.952361 0.534268 0.924771
-1.952047 0.546830 0.928402
-1.946221 0.552176 0.923091
-1.941744 0.559056 0.919773
-1.940734 0.570319 0.921874
-1.939833 0.581611 0.924013
-1.949095 0.606467 0.942432
-1.945680 0.614222 0.940257
-1.931961 0.607646 0.921205
-1.941505 0.632814 0.939741
-1.932509 0.632209 0.928007
-1.924930 0.633255 0.918392
-1.933488 0.656915 0.934964
-2.446972 -1.282064 0.915345
-2.449237 -1.275772 0.920999
-2.446368 -1.267417 0.921185
-2.443452 -1.258937 0.921261
-2.444579 -1.251813 0.925574
-2.440136 -1.242559 0.923908
-2.446408 -1.236978 0.933604
-2.427288 -1.222424 0.916131
-2.421282 -1.212407 0.912570
-2.423870 -1.205204 0.918151
-2.426648 -1.197910 0.923890
-2.434332 -1.192048 0.934864
-2.431122 -1.182518 0.934062
-2.422166 -1.171119 0.926986
-2.414370 -1.160068 0.921077
-2.416078 -1.151849 0.925384
-2.410855 -1.141472 0.922121
-2.407339 -1.131550 0.920644
-2.406423 -1.122308 0.921933
-2.408733 -1.113873 0.926685
-2.406353 -1.104066 0.926278
-2.401312 -1.093513 0.922909
-2.400813 -1.084110 0.924454
-2.403095 -1.075338 0.929002
-2.404748 -1.066318 0.932829
-2.404161 -1.056689 0.934165
-2.399437 -1.046065 0.930914
-2.395247 -1.035573 0.928209
-2.389408 -1.024736 0.923649
-2.388848 -1.015041 0.924876
-2.388212 -1.005302 0.925997
-2.389052 -0.995828 0.928730
-2.388596 -0.986069 0.930015
-2.386919 -0.976069 0.929932
-2.385620 -0.966136 0.930254
-2.387888 -0.956802 0.934529
-2.379817 -0.945751 0.927301
-2.379139 -0.935940 0.928285
-2.381014 -0.926503 0.932114
-2.377413 -0.916260 0.929836
-2.373035 -0.905954 0.926684
-2.372351 -0.896170 0.927658
-2.373690 -0.886634 0.930904
-2.372664 -0.876807 0.931510
-2.371592 -0.866986 0.932071
-2.369540 -0.857080 0.931541
-2.367810 -0.847229 0.931379
-2.366759 -0.837458 0.931993
-2.364629 -0.827616 0.931401
-2.364112 -0.817917 0.932643
-2.365938 -0.808376 0.936547
-2.362179 -0.798484 0.934153
-2.360414 -0.788745 0.934028
-2.361413 -0.779150 0.937052
-2.361071 -0.769488 0.938577
-2.356794 -0.759710 0.935646
-2.357744 -0.750109 0.938675
-2.357076 -0.740465 0.939884
-2.348488 -0.730750 0.932075
-2.351143 -0.721179 0.937110
-2.352554 -0.711571 0.940753
-2.347668 -0.702007 0.937208
-2.341593 -0.692526 0.932308
-2.337952 -0.683060 0.930209
-2.336871 -0.673555 0.931067
-2.335549 -0.664065 0.931669
-2.337451 -0.654435 0.936007
-2.337732 -0.644854 0.938506
-2.336506 -0.635347 0.939286
-2.338620 -0.625621 0.943956
-2.332148 -0.616487 0.938697
-2.328344 -0.607214 0.936543
-2.325807 -0.597868 0.935873
-2.325707 -0.588310 0.938059
-2.323657 -0.578936 0.937995
-2.321443 -0.569592 0.937757
-2.322474 -0.559884 0.941334
-2.317844 -0.550840 0.938307
-2.314797 -0.541635 0.937146
-2.311811 -0.532445 0.936070
-2.310615 -0.523017 0.937117
-2.307018 -0.513948 0.935354
-2.307550 -0.504251 0.938480
-2.306374 -0.494807 0.939614
-2.304024 -0.485559 0.939377
-2.301692 -0.476315 0.939180
-2.299855 -0.466987 0.939588
-2.293646 -0.458510 0.934810
-2.290902 -0.449395 0.934166
-2.289707 -0.439967 0.935388
-2.287139 -0.430825 0.934989
-2.283187 -0.422001 0.932947
-2.282340 -0.412486 0.934644
-2.284934 -0.402128 0.940502
-2.283744 -0.392633 0.941840
-2.279530 -0.383889 0.939551
-2.275147 -0.375219 0.937068
-2.273385 -0.365874 0.937768
-2.273488 -0.356005 0.940751
-2.273173 -0.346217 0.943255
-2.270339 -0.337131 0.942719
-2.262922 -0.329421 0.936607
-2.259961 -0.320417 0.935939
-2.257415 -0.311290 0.935793
-2.258560 -0.300972 0.940195
-2.258206 -0.291089 0.942790
-2.254125 -0.282429 0.940822
-2.248797 -0.274219 0.937328
-2.245234 -0.265426 0.936022
-2.242766 -0.256248 0.936086
-2.241047 -0.246788 0.937100
-2.240265 -0.236955 0.939303
-2.236340 -0.228297 0.937618
-2.235299 -0.218520 0.939548
-2.232033 -0.209603 0.938722
-2.226471 -0.201627 0.935035
-2.221904 -0.193277 0.932601
-2.223283 -0.182418 0.937670
-2.224958 -0.171354 0.943154
-2.218330 -0.163879 0.938183
-2.214946 -0.154998 0.937324
-2.212282 -0.145786 0.937398
-2.210788 -0.136015 0.938987
-2.208003 -0.126824 0.938957
-2.205194 -0.117632 0.938921
-2.203505 -0.107875 0.940344
-2.199232 -0.099379 0.938480
-2.194891 -0.090929 0.936543
-2.192531 -0.081462 0.937180
-2.191226 -0.071413 0.939212
-2.191112 -0.060681 0.942823
-2.185049 -0.053125 0.938744
-2.179986 -0.045052 0.935978
-2.178712 -0.034866 0.938173
-2.178598 -0.023966 0.941926
-2.177278 -0.013694 0.944144
-2.173677 -0.004716 0.943400
-2.168101 0.003090 0.940076
-2.162357 0.010770 0.936544
-2.158485 0.019580 0.935506
-2.155308 0.028835 0.935416
-2.152240 0.038184 0.935503
-2.148840 0.047346 0.935179
-2.147680 0.057998 0.937885
-2.144709 0.067512 0.938205
-2.141455 0.076867 0.938178
-2.136426 0.085033 0.935785
-2.131886 0.093534 0.934075
-2.129977 0.103897 0.935963
-2.127234 0.113722 0.936759
-2.122833 0.122387 0.935328
-2.119207 0.131632 0.934982
-2.114841 0.140352 0.933651
-2.112633 0.150720 0.935322
-2.108932 0.160002 0.934971
-2.105582 0.169585 0.935138
-2.103483 0.180191 0.937078
-2.099611 0.189446 0.936589
-2.094395 0.197636 0.934243
-2.094193 0.209947 0.938958
-2.088984 0.218196 0.936677
-2.083304 0.226044 0.933743
-2.077368 0.233660 0.930454
-2.073845 0.243349 0.930603
-2.070735 0.253437 0.931366
-2.070555 0.266177 0.936352
-2.066383 0.275427 0.935654
-2.058297 0.281116 0.929324
-2.055307 0.291446 0.930338
-2.050934 0.300522 0.929365
-2.047759 0.310740 0.930135
-2.044632 0.321038 0.930987
-2.040226 0.330120 0.929968
-2.034539 0.337931 0.927053
-2.032202 0.349053 0.929056
-2.027741 0.358063 0.927913
-2.023729 0.367515 0.927411
-2.020653 0.377925 0.928278
-2.016130 0.386818 0.926953
-2.013069 0.397229 0.927781
-2.012013 0.409794 0.931596
-2.010168 0.421537 0.934196
-2.004105 0.428633 0.930352
-1.996928 0.434376 0.924724
-1.991997 0.442511 0.922423
-1.986291 0.449662 0.918841
-1.985131 0.461948 0.922148
-1.982247 0.472203 0.922729
-1.979452 0.482492 0.923353
-1.987061 0.505163 0.940038
-1.977305 0.507003 0.929665
-1.975114 0.517820 0.930934
-1.968345 0.522887 0.924918
-1.965909 0.533152 0.925550
-1.963775 0.543687 0.926533
-1.961339 0.553721 0.926909
-1.958647 0.563297 0.926744
-1.949963 0.564919 0.916921
-1.949408 0.576933 0.919847
-1.958665 0.601884 0.938299
-1.959977 0.616313 0.943979
-1.952126 0.618262 0.934847
-1.946983 0.623605 0.929874
-1.945161 0.633286 0.930075
-1.945667 0.646042 0.933879
-1.942112 0.652985 0.930988
-1.938166 0.659158 0.927302
-1.940924 0.674678 0.934323
-2.454793 -1.289957 0.907621
-2.459405 -1.284614 0.915683
-2.459168 -1.277273 0.918642
-2.450773 -1.266778 0.912988
-2.457256 -1.261660 0.922902
-2.455512 -1.253380 0.924121
-2.461605 -1.247761 0.933558
-2.457621 -1.238423 0.932305
-2.457500 -1.230322 0.935076
-2.449018 -1.219262 0.928912
-2.444487 -1.209481 0.926864
-2.450912 -1.203210 0.936416
-2.446477 -1.193251 0.934343
-2.444819 -1.184100 0.935167
-2.444022 -1.175119 0.936849
-2.432894 -1.162898 0.927394
-2.427431 -1.152390 0.923932
-2.423934 -1.142418 0.922514
-2.419599 -1.132154 0.920130
-2.420007 -1.123174 0.922797
-2.419959 -1.113977 0.924927
-2.415182 -1.103439 0.921892
-2.416666 -1.094513 0.925583
-2.415920 -1.084930 0.926818
-2.415379 -1.075342 0.928234
-2.417374 -1.066308 0.932369
-2.417095 -1.056661 0.934000
-2.413017 -1.046103 0.931459
-2.409780 -1.035738 0.929797
-2.406084 -1.025276 0.927601
-2.399858 -1.014302 0.922607
-2.399315 -1.004518 0.923800
-2.401243 -0.995189 0.927685
-2.401238 -0.985448 0.929441
-2.400112 -0.975483 0.929953
-2.399216 -0.965553 0.930708
-2.400663 -0.956008 0.934033
-2.399713 -0.946047 0.934718
-2.396254 -0.935705 0.932631
-2.392796 -0.925401 0.930536
-2.388453 -0.915013 0.927457
-2.384143 -0.904682 0.924409
-2.386071 -0.895186 0.928272
-2.386955 -0.885537 0.930990
-2.385281 -0.875588 0.930877
-2.381525 -0.865441 0.928456
-2.379817 -0.855545 0.928318
-2.380677 -0.845904 0.931053
-2.380130 -0.836132 0.932233
-2.375950 -0.826087 0.929369
-2.375100 -0.816333 0.930236
-2.377417 -0.806790 0.934665
-2.377240 -0.797073 0.936322
-2.372839 -0.787148 0.933257
-2.371808 -0.777427 0.933987
-2.371120 -0.767729 0.935119
-2.371730 -0.758077 0.937734
-2.372853 -0.748424 0.940949
-2.370724 -0.738703 0.940518
-2.363223 -0.728963 0.934027
-2.364369 -0.719333 0.937328
-2.363605 -0.709692 0.938490
-2.359366 -0.700099 0.935728
-2.355978 -0.690541 0.933943
-2.353247 -0.681005 0.932921
-2.348852 -0.671554 0.930017
-2.350376 -0.661917 0.933877
-2.353636 -0.652167 0.939749
-2.350897 -0.642684 0.938791
-2.346982 -0.633300 0.936502
-2.342517 -0.623995 0.933594
-2.341724 -0.614463 0.934915
-2.337773 -0.605187 0.932624
-2.337765 -0.595602 0.934888
-2.337456 -0.586029 0.936830
-2.336176 -0.576544 0.937672
-2.337067 -0.566820 0.941048
-2.334572 -0.557462 0.940527
-2.330809 -0.548277 0.938550
-2.325997 -0.539262 0.935366
-2.325659 -0.529677 0.937399
-2.322742 -0.520450 0.936448
-2.318953 -0.511374 0.934494
-2.318524 -0.501794 0.936482
-2.315904 -0.492561 0.935927
-2.313425 -0.483316 0.935552
-2.312268 -0.473842 0.936747
-2.313340 -0.463939 0.940589
-2.307617 -0.455321 0.936446
-2.301931 -0.446751 0.932351
-2.301126 -0.437210 0.934035
-2.301299 -0.427439 0.936901
-2.297848 -0.418449 0.935491
-2.295909 -0.409128 0.935892
-2.293807 -0.399843 0.936117
-2.292651 -0.390323 0.937490
-2.290995 -0.380914 0.938287
-2.290520 -0.371186 0.940518
-2.288046 -0.361969 0.940377
-2.286690 -0.352444 0.941595
-2.284963 -0.343007 0.942390
-2.277808 -0.335142 0.936657
-2.274132 -0.326307 0.935125
-2.272718 -0.316795 0.936345
-2.271912 -0.307074 0.938323
-2.270126 -0.297641 0.939137
-2.266396 -0.288834 0.937605
-2.260939 -0.280626 0.933978
-2.256748 -0.272022 0.931904
-2.255085 -0.262548 0.932936
-2.253123 -0.253163 0.933624
-2.251666 -0.243578 0.934955
-2.249911 -0.234082 0.935942
-2.246451 -0.225222 0.934850
-2.244126 -0.215923 0.935176
-2.243597 -0.205893 0.937749
-2.240750 -0.196769 0.937474
-2.239289 -0.187062 0.938944
-2.238275 -0.177137 0.940999
-2.235385 -0.167988 0.940738
-2.231222 -0.159392 0.938904
-2.226897 -0.150884 0.936880
-2.225334 -0.141127 0.938343
-2.223553 -0.131439 0.939561
-2.218941 -0.123066 0.937232
-2.217127 -0.113361 0.938457
-2.216864 -0.102863 0.941680
-2.212970 -0.094123 0.940322
-2.206634 -0.086628 0.935870
-2.202759 -0.077904 0.934569
-2.199732 -0.068736 0.934371
-2.197048 -0.059372 0.934639
-2.195446 -0.049397 0.936326
-2.192316 -0.040225 0.936078
-2.189771 -0.030710 0.936611
-2.190915 -0.019064 0.941957
-2.187212 -0.010130 0.941058
-2.183345 -0.001284 0.939971
-2.179940 0.007845 0.939510
-2.176630 0.017047 0.939201
-2.171512 0.025155 0.936546
-2.166729 0.033459 0.934350
-2.163579 0.042793 0.934327
-2.159687 0.051674 0.933353
-2.158110 0.062082 0.935477
-2.155888 0.072121 0.936786
-2.151121 0.080493 0.934741
-2.143476 0.086898 0.928868
-2.138921 0.095387 0.927139
-2.136659 0.105493 0.928518
-2.134528 0.115744 0.930113
-2.131555 0.125442 0.930613
-2.128170 0.134878 0.930590
-2.127410 0.146299 0.934173
-2.122217 0.154465 0.931760
-2.117743 0.163179 0.930352
-2.115730 0.173813 0.932347
-2.112657 0.183681 0.932926
-2.110408 0.194248 0.934679
-2.110857 0.207060 0.940215
-2.104631 0.214531 0.936540
-2.099955 0.223264 0.935032
-2.094334 0.231214 0.932223
-2.090067 0.240309 0.931324
-2.085546 0.249206 0.930090
-2.085244 0.261806 0.934829
-2.084908 0.274487 0.939576
-2.080042 0.283211 0.937938
-2.077692 0.294228 0.939895
-2.068815 0.299289 0.932542
-2.063694 0.307763 0.930547
-2.060868 0.318398 0.931855
-2.054388 0.325577 0.927898
-2.049528 0.334280 0.926266
-2.047084 0.345348 0.928141
-2.044271 0.356092 0.929485
-2.039855 0.365252 0.928479
-2.035862 0.374831 0.928074
-2.032496 0.385050 0.928572
-2.027270 0.393326 0.926293
-2.023222 0.402798 0.925717
-2.024237 0.417674 0.932653
-2.022542 0.429705 0.935535
-2.015955 0.436382 0.931042
-2.009321 0.442889 0.926389
-2.002338 0.448877 0.921113
-2.005840 0.466658 0.931636
-2.001629 0.475680 0.930413
-1.996541 0.483591 0.927757
-1.993595 0.493904 0.928274
-1.986366 0.499036 0.922114
-1.986135 0.512404 0.926598
-1.982584 0.521704 0.925864
-1.979044 0.530900 0.925028
-1.980971 0.546774 0.932566
-1.976985 0.555214 0.930798
-1.974739 0.565706 0.931609
-1.973182 0.576963 0.933367
-1.968306 0.583798 0.929777
-1.957689 0.582899 0.916978
-1.958503 0.596774 0.922029
-1.968952 0.623456 0.942210
-1.955016 0.617391 0.923638
-1.956972 0.632514 0.930106
-1.955668 0.643089 0.931254
-1.952726 0.651241 0.929640
-1.954273 0.665476 0.935048
-1.951482 0.673496 0.933373
-1.944909 0.675933 0.925472
-1.944454 0.686856 0.927233
-2.467057 -1.299543 0.904467
-2.467153 -1.292516 0.907795
-2.472993 -1.287524 0.917037
-2.472677 -1.280037 0.919862
-2.466020 -1.270078 0.916034
-2.464031 -1.261744 0.917001
-2.472952 -1.257201 0.929313
-2.466947 -1.247159 0.925977
-2.466426 -1.238951 0.928317
-2.468930 -1.231650 0.933779
-2.466032 -1.222370 0.933507
-2.469001 -1.214936 0.939356
-2.463451 -1.204570 0.936159
-2.458505 -1.194336 0.933524
-2.453919 -1.184154 0.931197
-2.454382 -1.175465 0.934158
-2.450566 -1.165368 0.932516
-2.442875 -1.154066 0.926683
-2.439787 -1.144089 0.925680
-2.441894 -1.135526 0.930163
-2.441396 -1.126125 0.931819
-2.435185 -1.115098 0.927309
-2.429724 -1.104268 0.923540
-2.426718 -1.094067 0.922347
-2.435595 -1.086823 0.933882
-2.430612 -1.076007 0.930487
-2.425151 -1.065084 0.926527
-2.426134 -1.055672 0.929475
-2.424342 -1.045575 0.929400
-2.419271 -1.034742 0.925748
-2.416101 -1.024341 0.924119
-2.413952 -1.014157 0.923569
-2.409879 -1.003591 0.920911
-2.411380 -0.994120 0.924282
-2.414060 -0.984823 0.928928
-2.415531 -0.975255 0.932255
-2.414913 -0.965292 0.933303
-2.412752 -0.955071 0.932662
-2.412101 -0.945105 0.933664
-2.411403 -0.935131 0.934613
-2.406247 -0.924518 0.930684
-2.399238 -0.913715 0.924716
-2.396944 -0.903617 0.923909
-2.400189 -0.894229 0.929188
-2.400004 -0.884396 0.930713
-2.396468 -0.874196 0.928561
-2.394494 -0.864204 0.928132
-2.392097 -0.854198 0.927246
-2.392980 -0.844516 0.929992
-2.393819 -0.834819 0.932705
-2.390051 -0.824763 0.930338
-2.385633 -0.814714 0.927259
-2.388737 -0.805190 0.932530
-2.389502 -0.795494 0.935230
-2.386601 -0.785611 0.933878
