ply
format ascii 1.0
comment ---
element vertex 1737
property float x
property float y
property float z
element face 0
property list uchar uint vertex_indices
end_header
0.347728 2.297594 0.393751
0.364953 2.300155 0.395643
0.380005 2.297514 0.395683
0.395366 2.295508 0.395946
0.410217 2.292272 0.395768
0.424354 2.287406 0.395004
0.439408 2.284529 0.394946
0.455494 2.283815 0.395658
0.472129 2.284148 0.396742
0.487872 2.282463 0.397101
0.502515 2.278397 0.396603
0.517180 2.274337 0.396101
0.530831 2.268180 0.394841
0.546981 2.267036 0.395377
0.565005 2.269489 0.397206
0.585405 2.276385 0.400634
0.600106 2.271970 0.399983
0.614113 2.266191 0.398833
0.633671 2.270878 0.401459
0.648895 2.267229 0.401069
0.663496 2.262370 0.400234
0.680295 2.261481 0.400831
0.695020 2.256726 0.400020
0.707898 2.248636 0.397991
0.722514 2.243641 0.397077
0.737370 2.239024 0.396292
0.756115 2.241061 0.397922
0.774537 2.242349 0.399275
0.791697 2.241325 0.399780
0.806186 2.235711 0.398603
0.821862 2.232019 0.398119
0.843498 2.237974 0.401155
0.858901 2.233575 0.400398
0.868249 2.219428 0.396061
0.882760 2.213578 0.394750
0.901345 2.214056 0.395751
0.922886 2.218934 0.398360
0.936109 2.210793 0.396181
0.953481 2.208939 0.396300
0.975699 2.214218 0.399037
0.993140 2.212118 0.399050
1.005866 2.202947 0.396447
1.020499 2.196554 0.394854
1.036451 2.192008 0.393931
1.058815 2.196508 0.396339
1.077828 2.195998 0.396888
1.093074 2.190042 0.395411
1.107769 2.183248 0.393612
1.133439 2.191421 0.397345
1.150393 2.187417 0.396557
1.164793 2.179859 0.394438
1.179605 2.172794 0.392488
1.196232 2.168049 0.391386
1.208422 2.157409 0.388079
1.243941 2.176857 0.395951
1.263039 2.174736 0.395791
1.281823 2.172042 0.395407
1.300136 2.168592 0.394728
1.323671 2.171461 0.396395
1.344879 2.171194 0.396882
1.359583 2.162799 0.394324
1.378131 2.158969 0.393457
1.430675 2.195508 0.407670
-1.574454 2.880736 0.397907
-1.552505 2.844247 0.387985
-1.534595 2.826858 0.383781
-1.519952 2.825907 0.384523
-1.504621 2.822536 0.384628
-1.493748 2.843023 0.391896
-1.478928 2.844725 0.393671
-1.459722 2.823843 0.388797
-1.442296 2.812727 0.386889
-1.427341 2.816013 0.389339
-1.411241 2.813667 0.390170
-1.395265 2.812781 0.391495
-1.378205 2.805922 0.391080
-1.362212 2.806186 0.392849
-1.346151 2.806685 0.394733
-1.329918 2.806673 0.396503
-1.313539 2.806187 0.398165
-1.296700 2.802808 0.398980
-1.279941 2.800216 0.400057
-1.263548 2.800677 0.402080
-1.247368 2.803222 0.404756
-1.230469 2.800109 0.405722
-1.213708 2.798153 0.407049
-1.196395 2.791003 0.406790
-1.179400 2.786346 0.407291
-1.162982 2.787175 0.409474
-1.146566 2.788088 0.411682
-1.129619 2.782943 0.412018
-1.112644 2.776726 0.412010
-1.096412 2.779135 0.414659
-1.079905 2.777859 0.416158
-1.063595 2.779040 0.418407
-1.047031 2.776043 0.419344
-1.030369 2.770443 0.419454
-1.012975 2.749415 0.414720
-0.996148 2.735483 0.412170
-0.978443 2.697138 0.401932
-0.953041 2.443716 0.324068
-0.938645 2.449602 0.327518
-0.924107 2.451725 0.329773
-0.909429 2.447811 0.330108
-0.894727 2.439353 0.328986
-0.880282 2.442793 0.331608
-0.865737 2.436186 0.331030
-0.851260 2.425375 0.329093
-0.836884 2.426889 0.331054
-0.822452 2.436573 0.335604
-0.808201 2.423335 0.332830
-0.793749 2.430989 0.336709
-0.779489 2.426546 0.336706
-0.765319 2.420639 0.336214
-0.751273 2.412821 0.335087
-0.736930 2.415571 0.337340
-0.722833 2.411762 0.337467
-0.708556 2.412770 0.339132
-0.694251 2.414180 0.340914
-0.680447 2.406287 0.339674
-0.666029 2.409870 0.342132
-0.651696 2.411570 0.343971
-0.637993 2.403958 0.342773
-0.623831 2.403426 0.343860
-0.609342 2.406993 0.346271
-0.595969 2.396841 0.344198
-0.582222 2.391881 0.343803
-0.569224 2.379379 0.340926
-0.554318 2.387255 0.344701
-0.539354 2.394828 0.348373
-0.525609 2.390400 0.348102
-0.512002 2.385009 0.347503
-0.497950 2.383677 0.348226
-0.484166 2.380148 0.348216
-0.467004 2.403033 0.356906
-0.454358 2.390237 0.353824
-0.440567 2.386476 0.353712
-0.425799 2.389649 0.355884
-0.411790 2.387339 0.356235
-0.397674 2.385727 0.356809
-0.384102 2.380616 0.356213
-0.368498 2.388120 0.359802
-0.353822 2.389502 0.361352
-0.339315 2.389674 0.362494
-0.326143 2.382180 0.361074
-0.313284 2.373227 0.359155
-0.298295 2.375911 0.361116
-0.283774 2.375880 0.362166
-0.270263 2.370596 0.361450
-0.257429 2.362079 0.359642
-0.241353 2.369390 0.363139
-0.227184 2.367253 0.363461
-0.212022 2.369602 0.365288
-0.199044 2.361921 0.363734
-0.185985 2.354779 0.362353
-0.174246 2.342142 0.359109
-0.159204 2.343722 0.360658
-0.144897 2.342072 0.361112
-0.130219 2.341823 0.362037
-0.107687 2.372305 0.373378
-0.092731 2.372229 0.374367
-0.081700 2.357179 0.370268
-0.069951 2.345218 0.367206
-0.055430 2.343629 0.367665
-0.040852 2.342154 0.368159
-0.023710 2.349558 0.371680
-0.006541 2.356639 0.375095
0.008732 2.356916 0.376187
0.019884 2.343376 0.372550
0.035543 2.344840 0.374041
0.049185 2.339650 0.373251
0.062616 2.333824 0.372238
0.076014 2.327946 0.371202
0.090384 2.325076 0.371195
0.105848 2.325436 0.372297
0.121332 2.325698 0.373364
0.135043 2.320668 0.372605
0.156366 2.337394 0.379354
0.169842 2.331398 0.378260
0.185278 2.330873 0.379054
0.199655 2.327336 0.378803
0.213112 2.321290 0.377680
0.228553 2.320538 0.378387
0.245037 2.322389 0.379998
0.259124 2.317885 0.379400
0.273105 2.313102 0.378700
0.287114 2.308390 0.378020
0.302064 2.305989 0.378142
0.317798 2.305422 0.378901
0.333290 2.304155 0.379414
0.347756 2.300361 0.379041
0.363641 2.299841 0.379810
0.378162 2.296061 0.379434
0.392592 2.292033 0.378968
0.411227 2.297408 0.381798
0.427274 2.296780 0.382520
0.440389 2.289620 0.380942
0.456030 2.287955 0.381292
0.469111 2.280738 0.379683
0.482087 2.273345 0.378003
0.500397 2.277083 0.380246
0.517024 2.277138 0.381188
0.531364 2.272413 0.380436
0.545037 2.266325 0.379195
0.559745 2.262293 0.378675
0.583144 2.275224 0.384167
0.597525 2.270269 0.383313
0.614340 2.269940 0.384096
0.628925 2.265264 0.383329
0.648367 2.269620 0.385771
0.662730 2.264354 0.384782
0.678260 2.261194 0.384536
0.693968 2.258276 0.384371
0.707921 2.252145 0.383050
0.721632 2.245573 0.381563
0.737103 2.242065 0.381164
0.756206 2.244754 0.382975
0.775858 2.248165 0.385042
0.791430 2.244459 0.384552
0.804181 2.235964 0.382333
0.819549 2.231818 0.381665
0.836572 2.230304 0.381935
0.852657 2.227144 0.381605
0.868113 2.222882 0.380869
0.883249 2.218035 0.379912
0.901692 2.218305 0.380791
0.918872 2.216442 0.380892
0.936291 2.214813 0.381068
0.952204 2.210757 0.380357
0.968987 2.207918 0.380075
0.987826 2.208016 0.380847
1.003330 2.203022 0.379764
1.019457 2.198854 0.378969
1.035000 2.193744 0.377820
1.054761 2.194573 0.378816
1.073727 2.194071 0.379319
1.089539 2.188975 0.378140
1.108389 2.187993 0.378446
1.133033 2.194780 0.381570
1.151074 2.192267 0.381297
1.164614 2.183551 0.378749
1.179689 2.176844 0.376919
1.192807 2.167485 0.374107
1.210800 2.164462 0.373594
1.238579 2.173926 0.377634
1.259023 2.173610 0.378089
1.276304 2.169077 0.376988
1.296888 2.168555 0.377344
1.319307 2.170102 0.378445
1.341853 2.171552 0.379501
1.357890 2.164823 0.377546
1.371040 2.154520 0.374266
1.418931 2.185665 0.386192
-1.555174 2.805997 0.359964
-1.531146 2.824672 0.367088
-1.517442 2.827902 0.369005
-1.505409 2.840810 0.373832
-1.491267 2.844481 0.376050
-1.474499 2.835484 0.374646
-1.457974 2.828386 0.373867
-1.440812 2.818373 0.372301
-1.424736 2.814982 0.372740
-1.409663 2.818192 0.375182
-1.393642 2.816725 0.376310
-1.377260 2.813739 0.377045
-1.360152 2.806676 0.376622
-1.342654 2.797281 0.375548
-1.326748 2.798774 0.377736
-1.311223 2.803635 0.380963
-1.295271 2.806245 0.383558
-1.278460 2.802984 0.384432
-1.262475 2.806386 0.387316
-1.245368 2.801181 0.387647
-1.228651 2.799155 0.388941
-1.212883 2.805659 0.392808
-1.196157 2.803961 0.394220
-1.177840 2.786573 0.390901
-1.160999 2.782697 0.391648
-1.144822 2.785608 0.394446
-1.128402 2.786013 0.396484
-1.111566 2.781285 0.396955
-1.095221 2.782174 0.399126
-1.078579 2.778849 0.400001
-1.062086 2.777014 0.401318
-1.045302 2.769879 0.400997
-1.028549 2.761696 0.400333
-1.011787 2.751380 0.398990
-0.994745 2.732502 0.394982
-0.976720 2.685391 0.382226
-0.952193 2.450782 0.311437
-0.937661 2.453045 0.313735
-0.923028 2.451691 0.314898
-0.907854 2.424881 0.308133
-0.893593 2.433918 0.312483
-0.879238 2.441163 0.316267
-0.864682 2.429476 0.314130
-0.850286 2.428405 0.315286
-0.835902 2.434700 0.318733
-0.821528 2.432524 0.319512
-0.807183 2.430703 0.320384
-0.792926 2.425328 0.320121
-0.778738 2.419691 0.319754
-0.764568 2.415732 0.319896
-0.750005 2.425862 0.324475
-0.736199 2.412453 0.321595
-0.722170 2.407777 0.321457
-0.707622 2.415524 0.325247
-0.693778 2.407908 0.324144
-0.679466 2.410068 0.326134
-0.665391 2.407954 0.326749
-0.651107 2.409311 0.328459
-0.636446 2.415832 0.331808
-0.622643 2.409983 0.331190
-0.608931 2.403633 0.330395
-0.595508 2.394519 0.328695
-0.581950 2.387808 0.327749
-0.567527 2.390844 0.329924
-0.552673 2.397817 0.333360
-0.537976 2.402512 0.336056
-0.523690 2.402892 0.337352
-0.510373 2.394613 0.335838
-0.496641 2.390367 0.335614
-0.482748 2.387630 0.335867
-0.468312 2.389182 0.337502
-0.453450 2.393666 0.340083
-0.439702 2.389641 0.339890
-0.425920 2.385979 0.339805
-0.412586 2.379400 0.338758
-0.399600 2.370817 0.337045
-0.383143 2.384554 0.342616
-0.369115 2.382425 0.342998
-0.355180 2.379710 0.343179
-0.340181 2.383140 0.345368
-0.327964 2.370610 0.342313
-0.313182 2.372609 0.344019
-0.297272 2.380338 0.347609
-0.283725 2.375283 0.346986
-0.270143 2.370496 0.346443
-0.256836 2.364441 0.345473
-0.244343 2.354614 0.343247
-0.227833 2.363923 0.347344
-0.213071 2.364645 0.348598
-0.199893 2.358090 0.347436
-0.188112 2.345560 0.344282
-0.173739 2.344512 0.344931
-0.151580 2.375949 0.356385
-0.124701 2.425253 0.373809
-0.104984 2.383559 0.361924
-0.093144 2.371363 0.358847
-0.088182 2.333509 0.347177
-0.071387 2.340806 0.350595
-0.058213 2.334512 0.349461
-0.041257 2.341795 0.352875
-0.026819 2.339845 0.353192
-0.006488 2.358078 0.360290
0.004708 2.344668 0.356751
0.020824 2.347904 0.358809
0.033164 2.338571 0.356629
0.047728 2.336538 0.356905
0.061587 2.332209 0.356403
0.075255 2.327289 0.355696
0.094303 2.338778 0.360539
0.102697 2.317817 0.354394
0.116690 2.313898 0.354013
0.138256 2.331949 0.361088
0.151933 2.326754 0.360272
0.164892 2.319554 0.358771
0.182622 2.325657 0.361793
0.199167 2.328201 0.363605
0.212710 2.322459 0.362591
0.225186 2.313920 0.360616
0.235901 2.300892 0.357099
0.257587 2.316341 0.363317
0.272919 2.315091 0.363824
0.286564 2.309519 0.362847
0.301420 2.306952 0.362896
0.316975 2.306019 0.363503
0.332372 2.304598 0.363940
0.346780 2.300738 0.363535
0.362613 2.300173 0.364261
0.377362 2.296987 0.364080
0.392514 2.294669 0.364195
0.413070 2.304406 0.368471
0.425908 2.296650 0.366702
0.443350 2.299030 0.368434
0.455946 2.290742 0.366470
0.465459 2.275948 0.362241
0.480106 2.272200 0.361834
0.498945 2.277131 0.364436
0.518994 2.284293 0.367814
0.533523 2.279932 0.367184
0.544559 2.268528 0.364094
0.561920 2.269795 0.365411
0.579183 2.270701 0.366598
0.596620 2.271780 0.367843
0.612282 2.269295 0.367839
0.627688 2.266243 0.367630
0.645648 2.267889 0.369060
0.661880 2.266160 0.369303
0.678251 2.264577 0.369592
0.692260 2.258615 0.368337
0.706783 2.253556 0.367390
0.720841 2.247636 0.366132
0.737366 2.246009 0.366376
0.758114 2.251563 0.369142
0.775409 2.250940 0.369728
0.790711 2.246804 0.369066
0.804465 2.240012 0.367458
0.820186 2.236462 0.366985
0.834459 2.230456 0.365634
0.852786 2.230981 0.366583
0.868230 2.226711 0.365827
0.885364 2.225047 0.365984
0.900252 2.219724 0.364834
0.918562 2.219658 0.365538
0.935806 2.217782 0.365591
0.950432 2.211790 0.364170
0.964430 2.204801 0.362382
0.984260 2.206465 0.363662
1.003117 2.206478 0.364345
1.018769 2.201632 0.363285
1.034757 2.197186 0.362355
1.052553 2.195227 0.362301
1.069265 2.191584 0.361633
1.086053 2.187928 0.360947
1.102880 2.184204 0.360225
1.122629 2.184371 0.360882
1.143537 2.185911 0.362020
1.163014 2.185293 0.362373
1.179887 2.181011 0.361400
1.194889 2.174139 0.359483
1.216871 2.176311 0.360799
1.235947 2.174470 0.360662
1.255190 2.172666 0.360525
1.273579 2.169596 0.359920
1.292512 2.167053 0.359492
1.317594 2.171985 0.361741
1.334755 2.166845 0.360352
1.347130 2.155747 0.356803
1.361143 2.146617 0.353949
1.386962 2.151557 0.356154
-1.545683 2.776363 0.335705
-1.543464 2.830702 0.351997
-1.531752 2.842202 0.356133
-1.519109 2.850672 0.359493
-1.505101 2.853683 0.361378
-1.488703 2.845511 0.360135
-1.470020 2.825883 0.355673
-1.454708 2.824674 0.356579
-1.439739 2.826331 0.358386
-1.424250 2.826050 0.359706
-1.406597 2.813937 0.357669
-1.392646 2.824442 0.362238
-1.377189 2.827001 0.364568
-1.359135 2.813799 0.362372
-1.340511 2.796686 0.359073
-1.324264 2.795406 0.360419
-1.308501 2.798067 0.362955
-1.293166 2.804610 0.366664
-1.276876 2.804842 0.368558
-1.260056 2.801322 0.369375
-1.243324 2.798589 0.370441
-1.226950 2.799014 0.372452
-1.210837 2.802057 0.375251
-1.194091 2.799617 0.376438
-1.176265 2.786415 0.374434
-1.159297 2.780831 0.374684
-1.143130 2.783403 0.377357
-1.126734 2.783601 0.379322
-1.110012 2.779737 0.380067
-1.093590 2.779144 0.381782
-1.077155 2.778114 0.383356
-1.060517 2.773647 0.383884
-1.043669 2.764763 0.383065
-1.027217 2.760975 0.383761
-1.010485 2.750656 0.382464
-0.993392 2.730004 0.378008
-0.974708 2.665917 0.360328
-0.951168 2.452571 0.297164
-0.936274 2.443227 0.295912
-0.921397 2.430404 0.293572
-0.906874 2.427045 0.294095
-0.892309 2.418253 0.292936
-0.877989 2.420937 0.295272
-0.863696 2.428546 0.299109
-0.849345 2.436273 0.302973
-0.834953 2.435351 0.304162
-0.820603 2.431742 0.304504
-0.806321 2.426463 0.304310
-0.792073 2.422849 0.304611
-0.777773 2.423718 0.306283
-0.763505 2.423418 0.307578
-0.749323 2.420707 0.308107
-0.734818 2.427770 0.311664
-0.721068 2.414979 0.309017
-0.706852 2.415055 0.310365
-0.692339 2.421015 0.313541
-0.678435 2.415035 0.312965
-0.664445 2.411403 0.313108
-0.650419 2.408845 0.313573
-0.636213 2.409156 0.314925
-0.621753 2.412748 0.317299
-0.607869 2.408629 0.317230
-0.593946 2.405367 0.317417
-0.580129 2.401170 0.317293
-0.565922 2.401439 0.318570
-0.551596 2.402770 0.320174
-0.537246 2.404088 0.321763
-0.523783 2.397050 0.320686
-0.508840 2.403454 0.323874
-0.495316 2.397280 0.323047
-0.482659 2.384469 0.320088
-0.468065 2.387527 0.322181
-0.453818 2.387624 0.323321
-0.439588 2.387452 0.324366
-0.426071 2.382179 0.323767
-0.412980 2.374244 0.322301
-0.398742 2.374139 0.323340
-0.383161 2.382381 0.327057
-0.370711 2.370792 0.324384
-0.356964 2.367449 0.324356
-0.340968 2.377120 0.328522
-0.326676 2.376539 0.329375
-0.311728 2.379416 0.331340
-0.296533 2.383296 0.333627
-0.284394 2.371003 0.330665
-0.270559 2.367732 0.330619
-0.255286 2.371542 0.332868
-0.243068 2.360349 0.330232
-0.229265 2.356957 0.330125
-0.213799 2.361180 0.332496
-0.200743 2.354275 0.331232
-0.187736 2.347309 0.329940
-0.173653 2.345098 0.330195
-0.153679 2.367493 0.338503
-0.147554 2.332031 0.327856
-0.127484 2.353856 0.335982
-0.098562 2.351221 0.337048
-0.088825 2.331901 0.331649
-0.078569 2.315102 0.327066
-0.051539 2.359778 0.342746
-0.042035 2.340107 0.337208
-0.026437 2.342353 0.338898
-0.011372 2.342542 0.339907
0.002512 2.338586 0.339541
0.014633 2.328771 0.337229
0.029450 2.327943 0.337891
0.045956 2.332415 0.340310
0.060990 2.331953 0.341090
0.079664 2.342646 0.345581
0.084533 2.310756 0.335891
0.103562 2.322229 0.340639
0.116095 2.314024 0.338824
0.128667 2.306046 0.337079
0.148652 2.319382 0.342454
0.164761 2.321253 0.343999
0.180770 2.322650 0.345385
0.200529 2.334114 0.350146
0.211385 2.321137 0.346708
0.222989 2.310386 0.344008
0.236809 2.305599 0.343306
0.254176 2.309951 0.345675
0.271452 2.313812 0.347881
0.286007 2.310615 0.347706
0.300832 2.308040 0.347738
0.316552 2.307576 0.348479
0.330835 2.303537 0.348009
0.345913 2.301357 0.348163
0.362269 2.302085 0.349300
0.377612 2.300322 0.349589
0.391904 2.296076 0.349033
0.405312 2.289817 0.347786
0.427084 2.302141 0.352855
0.442517 2.300128 0.353048
0.453964 2.289409 0.350268
0.465999 2.280076 0.347952
0.480064 2.275118 0.347121
0.499975 2.282327 0.350442
0.520629 2.290752 0.354179
0.535069 2.286197 0.353475
0.546957 2.276488 0.350997
0.558037 2.265264 0.347990
0.579880 2.275278 0.352262
0.597985 2.277669 0.353917
0.611495 2.271059 0.352474
0.624562 2.263618 0.350736
0.642250 2.264856 0.351978
0.661036 2.267951 0.353856
0.677334 2.266279 0.354086
0.690714 2.259217 0.352448
0.704863 2.253540 0.351278
0.720862 2.251112 0.351223
0.737900 2.250405 0.351755
0.756873 2.252907 0.353393
0.772192 2.248950 0.352785
0.783204 2.237630 0.349614
0.803061 2.241209 0.351603
0.820964 2.241316 0.352379
0.835700 2.236070 0.351286
0.848754 2.228043 0.349215
0.866430 2.227441 0.349716
0.881969 2.223292 0.348973
0.897128 2.218465 0.347982
0.914506 2.217019 0.348159
0.932422 2.216259 0.348566
0.948192 2.212073 0.347766
0.963133 2.206549 0.346485
0.984339 2.210305 0.348440
1.001712 2.208144 0.348313
1.017155 2.203025 0.347138
1.033890 2.199694 0.346577
1.050916 2.196659 0.346106
1.067409 2.192740 0.345313
1.084213 2.189143 0.344619
1.101222 2.185709 0.343969
1.116716 2.180064 0.342528
1.136247 2.179830 0.342976
1.157509 2.181731 0.344164
1.177457 2.181636 0.344637
1.195374 2.178653 0.344078
1.214698 2.177360 0.344102
1.232153 2.173461 0.343193
1.248558 2.168078 0.341745
1.266829 2.164955 0.341081
1.290894 2.168964 0.342923
1.310529 2.167157 0.342698
1.328340 2.162916 0.341598
1.338312 2.148963 0.337048
1.359241 2.148308 0.337189
1.386639 2.155189 0.339987
1.403457 2.149166 0.338204
2.761820 3.718384 0.894603
-1.554335 2.831651 0.335680
-1.546888 2.861901 0.344895
-1.531939 2.857863 0.344557
-1.517509 2.857359 0.345301
-1.502148 2.853191 0.345099
-1.486240 2.847088 0.344432
-1.467644 2.827420 0.340008
-1.452361 2.825950 0.340804
-1.436714 2.823384 0.341364
-1.418872 2.809028 0.338647
-1.402864 2.805668 0.339114
-1.389004 2.816077 0.343565
-1.374146 2.821690 0.346717
-1.357204 2.815001 0.346415
-1.340014 2.806978 0.345774
-1.322208 2.794862 0.343997
-1.306134 2.794872 0.345733
-1.290231 2.796716 0.348033
-1.274252 2.798617 0.350382
-1.258384 2.801998 0.353189
-1.241808 2.800177 0.354515
-1.225326 2.799346 0.356146
-1.209088 2.800901 0.358483
-1.192221 2.796874 0.359207
-1.174877 2.787880 0.358484
-1.157743 2.780231 0.358148
-1.141696 2.783744 0.361075
-1.125255 2.783063 0.362773
-1.108546 2.778923 0.363448
-1.092143 2.778161 0.365109
-1.075854 2.778730 0.367154
-1.059118 2.772398 0.367148
-1.042748 2.770765 0.368516
-1.026132 2.764158 0.368393
-1.009404 2.753719 0.367108
-0.992479 2.736360 0.363735
-0.949864 2.446089 0.280432
-0.935147 2.440687 0.280400
-0.920402 2.431512 0.279214
-0.905937 2.430222 0.280374
-0.891373 2.421244 0.279200
-0.877061 2.424463 0.281682
-0.862727 2.426807 0.283886
-0.848384 2.428236 0.285799
-0.834041 2.430110 0.287831
-0.819744 2.425067 0.287748
-0.805490 2.421586 0.288119
-0.791277 2.418326 0.288538
-0.776950 2.422151 0.291100
-0.762639 2.424336 0.293149
-0.748404 2.423686 0.294316
-0.734474 2.415050 0.293018
-0.719791 2.426735 0.297938
-0.705939 2.418104 0.296606
-0.691790 2.416950 0.297554
-0.677521 2.418167 0.299219
-0.663514 2.414879 0.299479
-0.649763 2.408143 0.298656
-0.636290 2.398359 0.296870
-0.621808 2.403159 0.299587
-0.607157 2.409423 0.302749
-0.592835 2.411026 0.304455
-0.578791 2.409273 0.305105
-0.565143 2.403429 0.304467
-0.551106 2.401947 0.305175
-0.537335 2.397957 0.305086
-0.523527 2.394528 0.305159
-0.509562 2.392654 0.305707
-0.494060 2.403701 0.310298
-0.481119 2.393104 0.308088
-0.467900 2.385328 0.306748
-0.454058 2.382639 0.306995
-0.440016 2.381443 0.307702
-0.425829 2.381194 0.308699
-0.411684 2.380534 0.309558
-0.396832 2.384381 0.311833
-0.383156 2.380410 0.311629
-0.370814 2.368372 0.308856
-0.356486 2.368688 0.309990
-0.339712 2.382940 0.315546
-0.326625 2.375569 0.314226
-0.311604 2.378999 0.316335
-0.297614 2.376618 0.316588
-0.285355 2.365253 0.313965
-0.269827 2.370791 0.316731
-0.255124 2.371845 0.318061
-0.242231 2.364004 0.316539
-0.228994 2.357995 0.315593
-0.214860 2.356214 0.315996
-0.199976 2.357718 0.317448
-0.185535 2.357065 0.318204
-0.168603 2.366943 0.322345
-0.156187 2.357341 0.320212
-0.144614 2.344531 0.317033
-0.130272 2.343215 0.317555
-0.114968 2.345586 0.319264
-0.107425 2.317791 0.311211
-0.092444 2.319054 0.312548
-0.069635 2.349138 0.323228
-0.056607 2.342362 0.321962
-0.040468 2.346796 0.324331
-0.024167 2.351488 0.326784
-0.009763 2.349334 0.327009
0.001439 2.336291 0.323682
0.013190 2.325386 0.321041
0.026133 2.318598 0.319736
0.045608 2.332850 0.325301
0.059875 2.330058 0.325297
0.071929 2.320355 0.323026
0.094676 2.343445 0.331496
0.100425 2.314634 0.322950
0.115337 2.313661 0.323526
0.132574 2.319337 0.326286
0.142695 2.304335 0.322243
0.164814 2.323466 0.329432
0.180000 2.322635 0.330049
0.193999 2.318449 0.329557
0.210469 2.320902 0.331253
0.220202 2.305267 0.326969
0.239775 2.315684 0.331294
0.254814 2.313978 0.331609
0.270057 2.312703 0.332063
0.287605 2.317102 0.334397
0.302765 2.315344 0.334687
0.316577 2.310210 0.333851
0.331636 2.308081 0.334009
0.346598 2.305640 0.334060
0.363311 2.307226 0.335450
0.376762 2.301103 0.334265
0.390663 2.296029 0.333424
0.404052 2.289799 0.332191
0.415851 2.280059 0.329777
0.439668 2.296788 0.336218
0.454567 2.293647 0.336006
0.469684 2.290915 0.335925
0.485654 2.289913 0.336421
0.503034 2.291742 0.337863
0.518743 2.289944 0.338082
0.533247 2.285597 0.337439
0.547391 2.280489 0.336532
0.558561 2.269455 0.333619
0.573063 2.265084 0.332944
0.596151 2.277335 0.337878
0.608635 2.268819 0.335792
0.617991 2.254428 0.331707
0.635678 2.255836 0.332960
0.659360 2.268176 0.337914
0.675767 2.266763 0.338203
0.689381 2.260175 0.336728
0.704471 2.256229 0.336141
0.719725 2.252512 0.335622
0.736886 2.252066 0.336209
0.753925 2.251266 0.336667
0.765865 2.241591 0.334093
0.782040 2.239147 0.333972
0.801376 2.241902 0.335617
0.818722 2.241137 0.336053
0.831412 2.232587 0.333819
0.844851 2.225273 0.331994
0.862913 2.225375 0.332696
0.879405 2.222815 0.332476
0.893727 2.216726 0.331036
0.910914 2.215056 0.331100
0.930601 2.217099 0.332427
0.947686 2.214960 0.332308
0.967570 2.216914 0.333584
0.984692 2.214522 0.333356
0.997897 2.206209 0.331077
1.012370 2.199738 0.329418
1.029416 2.196939 0.329009
1.049156 2.197873 0.329875
1.067181 2.196165 0.329817
1.085237 2.194342 0.329706
1.101378 2.189697 0.328608
1.116344 2.183330 0.326899
1.132312 2.178257 0.325623
1.153247 2.179788 0.326616
1.170757 2.176507 0.325931
1.189757 2.175057 0.325865
1.211000 2.176368 0.326741
1.229442 2.173806 0.326262
1.243671 2.165672 0.323836
1.258786 2.158607 0.321765
1.283063 2.163005 0.323656
1.305555 2.164874 0.324656
1.320039 2.156596 0.322121
1.340304 2.155329 0.322005
1.361560 2.155065 0.322225
1.379601 2.150728 0.321017
1.396175 2.144510 0.319142
-1.568793 2.914846 0.342924
-1.545489 2.870221 0.331243
-1.527105 2.849058 0.326131
-1.510613 2.837595 0.323786
-1.496497 2.838908 0.325069
-1.481688 2.837746 0.325751
-1.464147 2.822967 0.322731
-1.447851 2.815362 0.321779
-1.430702 2.803585 0.319737
-1.415229 2.801868 0.320568
-1.400171 2.803472 0.322397
-1.385312 2.807294 0.324916
-1.370704 2.813786 0.328248
-1.355599 2.818273 0.331081
-1.338352 2.809478 0.330234
-1.321673 2.804741 0.330569
-1.304266 2.795118 0.329563
-1.288034 2.794107 0.331023
-1.271803 2.793558 0.332645
-1.256841 2.803576 0.337298
-1.240407 2.802574 0.338849
-1.223798 2.800334 0.340066
-1.207502 2.801016 0.342132
-1.190722 2.797407 0.342982
-1.173437 2.788607 0.342348
-1.156585 2.783533 0.342780
-1.140328 2.784534 0.344957
-1.123683 2.781143 0.345869
-1.107071 2.777699 0.346757
-1.090501 2.774260 0.347638
-1.074517 2.778475 0.350730
-1.058161 2.777483 0.352303
-1.041896 2.777566 0.354177
-1.025347 2.772281 0.354471
-1.008343 2.756680 0.351728
-0.991417 2.739019 0.348350
-0.948664 2.441710 0.264415
-0.933885 2.433023 0.263436
-0.919426 2.432461 0.264831
-0.904983 2.431630 0.266130
-0.890558 2.430274 0.267256
-0.876105 2.423953 0.266890
-0.861803 2.428229 0.269652
-0.847460 2.425344 0.270270
-0.833151 2.425653 0.271820
-0.818876 2.422840 0.272421
-0.804593 2.423802 0.274133
-0.790436 2.417750 0.273727
-0.776255 2.415827 0.274538
-0.762041 2.416093 0.275990
-0.747840 2.416162 0.277367
-0.733793 2.412181 0.277507
-0.719746 2.409271 0.277951
-0.705325 2.415063 0.281010
-0.690925 2.419419 0.283624
-0.676662 2.420595 0.285263
-0.662721 2.416332 0.285236
-0.649279 2.405094 0.283070
-0.636067 2.392109 0.280347
-0.622105 2.390656 0.281120
-0.606971 2.403874 0.286360
-0.592153 2.411813 0.289984
-0.578330 2.407771 0.289931
-0.565085 2.397969 0.288097
-0.550592 2.401518 0.290344
-0.536822 2.397714 0.290321
-0.523050 2.394162 0.290362
-0.508907 2.394025 0.291443
-0.494952 2.392202 0.291992
-0.480719 2.392639 0.293229
-0.467292 2.386662 0.292471
-0.454256 2.378064 0.290888
-0.439954 2.379054 0.292264
-0.424561 2.387419 0.295922
-0.409117 2.395433 0.299468
-0.395556 2.390538 0.298994
-0.382970 2.379648 0.296641
-0.369006 2.377692 0.297059
-0.356702 2.365851 0.294381
-0.341782 2.369624 0.296570
-0.327148 2.371433 0.298141
-0.312776 2.371562 0.299179
-0.299025 2.368237 0.299129
-0.284785 2.367463 0.299870
-0.269658 2.371041 0.301975
-0.255055 2.371717 0.303162
-0.241801 2.365740 0.302249
-0.229715 2.354410 0.299638
-0.215570 2.352883 0.300110
-0.201799 2.349598 0.300020
-0.182876 2.368844 0.307053
-0.168467 2.367786 0.307664
-0.155620 2.360076 0.306160
-0.149251 2.325985 0.296274
-0.130153 2.344255 0.302999
-0.118142 2.333758 0.300582
-0.107832 2.316968 0.296153
-0.090189 2.328415 0.300707
-0.076478 2.324696 0.300428
-0.059339 2.333437 0.304122
-0.038035 2.356584 0.312424
-0.021016 2.363716 0.315613
-0.010416 2.348351 0.311599
0.002242 2.340344 0.309932
0.013510 2.327853 0.306818
0.030565 2.334541 0.309854
0.046622 2.337657 0.311744
0.060827 2.334684 0.311674
0.072647 2.324266 0.309201
0.087620 2.323671 0.309886
0.105408 2.331409 0.313259
0.116563 2.319155 0.310176
0.131926 2.319390 0.311122
0.149788 2.326635 0.314335
0.161743 2.316860 0.312036
0.176035 2.313736 0.311885
0.192036 2.315243 0.313234
0.203447 2.304196 0.310502
0.220627 2.308659 0.312806
0.237034 2.310833 0.314365
0.257675 2.323735 0.319418
0.271578 2.318993 0.318724
0.286301 2.316305 0.318694
0.303864 2.320582 0.320935
0.318869 2.318366 0.321053
0.332639 2.313099 0.320169
0.349353 2.314827 0.321570
0.363069 2.309352 0.320608
0.375547 2.301022 0.318703
0.390236 2.297819 0.318473
0.402301 2.288654 0.316279
0.415670 2.282485 0.315062
0.437371 2.294628 0.319869
0.456434 2.300612 0.322648
0.472068 2.298970 0.322912
0.487801 2.297440 0.323208
0.501450 2.291458 0.322027
0.514704 2.284668 0.320572
0.530526 2.283136 0.320849
0.545642 2.280080 0.320615
0.558450 2.272365 0.318830
0.570972 2.264128 0.316863
0.588309 2.265298 0.318010
0.603511 2.262200 0.317734
0.617307 2.256362 0.316539
0.635142 2.258092 0.317854
0.654328 2.262146 0.319939
0.671697 2.262627 0.320828
0.687956 2.260939 0.320987
0.704205 2.259121 0.321095
0.720032 2.256445 0.320907
0.738461 2.258239 0.322207
0.753895 2.254647 0.321696
0.767664 2.248121 0.320193
0.780760 2.240439 0.318292
0.797290 2.238531 0.318314
0.809503 2.229334 0.315881
0.822778 2.221919 0.314032
0.842803 2.225472 0.315859
0.860973 2.225803 0.316593
0.875727 2.220526 0.315430
0.890897 2.215845 0.314455
0.909243 2.216043 0.315112
0.928477 2.217436 0.316162
0.949009 2.220607 0.317801
0.966007 2.218198 0.317546
0.982905 2.215511 0.317184
0.996366 2.207609 0.315046
1.007660 2.196511 0.311812
1.022780 2.191000 0.310452
1.045118 2.195777 0.312561
1.064896 2.196632 0.313331
1.083748 2.195975 0.313574
1.101097 2.193043 0.313033
1.117418 2.188554 0.311948
1.133288 2.183339 0.310602
1.147802 2.176195 0.308585
1.164321 2.171672 0.307442
1.183117 2.170050 0.307270
1.206699 2.174532 0.309159
1.225399 2.172373 0.308775
1.238392 2.162704 0.305820
1.254217 2.156617 0.304068
1.277979 2.160446 0.305677
1.300650 2.162620 0.306710
1.319176 2.159407 0.305892
1.337905 2.156286 0.305092
1.360777 2.158030 0.305936
1.380745 2.156031 0.305492
1.407333 2.161722 0.307658
-1.534570 2.768278 0.287015
-1.538456 2.851448 0.310219
-1.522506 2.841364 0.308165
-1.505429 2.826304 0.304840
-1.491349 2.827105 0.305922
-1.475405 2.819242 0.304727
-1.460828 2.819454 0.305820
-1.445123 2.814511 0.305585
-1.429430 2.810423 0.305661
-1.415107 2.815078 0.308209
-1.400586 2.819778 0.310846
-1.385168 2.820171 0.312370
-1.369067 2.817173 0.313025
-1.353477 2.818146 0.314833
-1.337210 2.815434 0.315678
-1.320789 2.812199 0.316427
-1.303876 2.805892 0.316364
-1.286344 2.795141 0.315100
-1.270123 2.794267 0.316612
-1.254635 2.799706 0.319915
-1.238552 2.801058 0.322109
-1.221988 2.798710 0.323288
-1.204899 2.791702 0.323174
-1.188298 2.788941 0.324261
-1.171336 2.782510 0.324320
-1.154831 2.780352 0.325586
-1.138968 2.785172 0.328828
-1.122246 2.780504 0.329384
-1.105838 2.779164 0.330879
-1.088966 2.771405 0.330540
-1.073110 2.776859 0.333956
-1.056788 2.775862 0.335525
-1.040735 2.778907 0.338241
-1.024184 2.773248 0.338449
-1.007157 2.756737 0.335518
-0.990459 2.743452 0.333483
-0.947369 2.433960 0.247498
-0.932954 2.435125 0.249409
-0.918553 2.436540 0.251378
-0.904094 2.435076 0.252495
-0.889609 2.430036 0.252553
-0.875173 2.423481 0.252146
-0.860866 2.424493 0.253929
-0.846566 2.426451 0.255972
-0.832274 2.424643 0.256896
-0.818001 2.424216 0.258207
-0.803705 2.426895 0.260416
-0.789534 2.421751 0.260303
-0.775481 2.414003 0.259401
-0.761450 2.408522 0.259145
-0.747199 2.411731 0.261442
-0.733053 2.411452 0.262692
-0.718878 2.412063 0.264189
-0.704662 2.413516 0.265923
-0.689786 2.427501 0.271377
-0.675841 2.422666 0.271212
-0.662419 2.410054 0.268704
-0.648611 2.405096 0.268462
-0.635051 2.397300 0.267351
-0.621441 2.391099 0.266699
-0.606550 2.401462 0.271006
-0.592880 2.396301 0.270637
-0.577466 2.410905 0.276207
-0.563593 2.407750 0.276419
-0.550975 2.392262 0.272889
-0.537117 2.389909 0.273310
-0.522591 2.393750 0.275593
-0.508805 2.390688 0.275775
-0.495178 2.386426 0.275580
-0.481016 2.386664 0.276739
-0.467479 2.381929 0.276375
-0.454395 2.374026 0.275032
-0.441067 2.368300 0.274339
-0.422469 2.399433 0.284892
-0.408294 2.398666 0.285702
-0.396776 2.380519 0.281181
-0.383579 2.373938 0.280185
-0.369733 2.371570 0.280470
-0.355453 2.371774 0.281536
-0.341012 2.372741 0.282829
-0.327566 2.367935 0.282338
-0.313117 2.368704 0.283555
-0.298615 2.369567 0.284796
-0.284805 2.366653 0.284864
-0.270348 2.367002 0.285933
-0.254736 2.372859 0.288703
-0.241020 2.369186 0.288516
-0.228438 2.360221 0.286680
-0.215418 2.353523 0.285537
-0.200298 2.356370 0.287352
-0.185775 2.356334 0.288267
-0.170870 2.357780 0.289640
-0.159142 2.345711 0.286793
-0.142995 2.352117 0.289703
-0.129209 2.348627 0.289520
-0.115190 2.346047 0.289616
-0.099959 2.348096 0.291156
-0.086885 2.341762 0.290066
-0.074088 2.334496 0.288676
-0.057246 2.342079 0.291942
-0.039152 2.353709 0.296482
-0.023935 2.354677 0.297670
-0.013886 2.337670 0.293194
0.000946 2.337299 0.293950
0.018039 2.344311 0.297034
0.032185 2.341316 0.296957
0.049216 2.347542 0.299792
0.061483 2.338377 0.297756
0.074253 2.330933 0.296257
0.088003 2.326588 0.295734
0.102397 2.324173 0.295819
0.118481 2.326698 0.297469
0.131929 2.321329 0.296608
0.148543 2.325061 0.298639
0.163903 2.325002 0.299461
0.177905 2.321034 0.299034
0.191571 2.316126 0.298302
0.203485 2.306499 0.296057
0.221855 2.314179 0.299339
0.238915 2.318069 0.301409
0.258823 2.329069 0.305758
0.270968 2.319856 0.303627
0.286891 2.320249 0.304572
0.304169 2.323849 0.306545
0.317201 2.316846 0.305108
0.331933 2.313994 0.305000
0.348199 2.314727 0.306041
0.356633 2.296939 0.301109
0.375111 2.302727 0.303771
0.390014 2.300062 0.303702
0.403024 2.293065 0.302228
0.415515 2.284953 0.300387
0.434661 2.291537 0.303295
0.456161 2.302926 0.307760
0.470140 2.297780 0.306864
0.484982 2.294449 0.306550
0.493794 2.278456 0.302116
0.510102 2.278195 0.302784
0.526381 2.277741 0.303385
0.541999 2.275824 0.303503
0.551560 2.261753 0.299654
0.565335 2.256166 0.298559
0.583420 2.258952 0.300190
0.601636 2.261783 0.301831
0.616996 2.258979 0.301624
0.636997 2.264815 0.304237
0.653125 2.263180 0.304400
0.667143 2.257562 0.303250
0.686542 2.261691 0.305287
0.702078 2.258644 0.304963
0.719290 2.258491 0.305580
0.738336 2.261409 0.307200
0.756320 2.262266 0.308134
0.771014 2.257299 0.307143
0.782486 2.246807 0.304321
0.793005 2.234782 0.300979
0.804214 2.224002 0.298034
0.822505 2.224942 0.298943
0.842424 2.228353 0.300659
0.860613 2.228740 0.301367
0.875257 2.223304 0.300138
0.891430 2.220227 0.299678
0.909772 2.220427 0.300290
0.928197 2.220581 0.300875
0.945187 2.218363 0.300663
0.961946 2.215667 0.300278
0.979098 2.213435 0.300035
0.992159 2.205004 0.297720
1.007178 2.199435 0.296340
1.022178 2.193766 0.294912
1.041409 2.194106 0.295467
1.059187 2.192184 0.295255
1.077789 2.191268 0.295364
1.093796 2.186560 0.294196
1.113302 2.186579 0.294587
1.131078 2.184035 0.294109
1.149123 2.181704 0.293686
1.161716 2.171909 0.290759
1.180969 2.170941 0.290759
1.203720 2.174379 0.292215
1.220772 2.170129 0.291089
1.237047 2.164748 0.289569
1.258032 2.165267 0.290004
1.284276 2.172205 0.292570
1.303481 2.169987 0.292061
1.317541 2.161222 0.289348
1.334144 2.155527 0.287646
1.359073 2.159835 0.289276
1.381203 2.160474 0.289665
1.417686 2.177976 0.295684
-1.539843 2.808330 0.282406
-1.533508 2.842669 0.292120
-1.519537 2.841718 0.292498
-1.506567 2.846903 0.294611
-1.486038 2.814397 0.286717
-1.470886 2.809925 0.286414
-1.457448 2.815597 0.288918
-1.444656 2.826195 0.292835
-1.428872 2.821382 0.292693
-1.414498 2.825563 0.295050
-1.399433 2.826821 0.296697
-1.383799 2.825600 0.297745
-1.366760 2.816306 0.296674
-1.351413 2.818362 0.298735
-1.334926 2.813681 0.299024
-1.319198 2.814734 0.300923
-1.302527 2.809764 0.301228
-1.285895 2.805373 0.301728
-1.268550 2.795715 0.300821
-1.253233 2.802157 0.304351
-1.237056 2.802392 0.306211
-1.220387 2.798745 0.307026
-1.203586 2.793921 0.307532
-1.186291 2.784194 0.306692
-1.170142 2.785254 0.308841
-1.153584 2.782274 0.309878
-1.137122 2.780140 0.311152
-1.121029 2.782189 0.313591
-1.104613 2.780435 0.314969
-1.088061 2.776600 0.315759
-1.071680 2.774557 0.317041
-1.055390 2.773462 0.318580
-1.039243 2.774342 0.320663
-1.022949 2.772457 0.321957
-1.006342 2.763657 0.321281
-0.989567 2.748840 0.318877
-0.962825 2.483376 0.245328
-0.947119 2.454843 0.238828
-0.932598 2.455302 0.240539
-0.917888 2.447915 0.239997
-0.903194 2.437002 0.238422
-0.888614 2.425484 0.236647
-0.874275 2.424082 0.237745
-0.860003 2.428748 0.240569
-0.845694 2.427930 0.241802
-0.831423 2.422528 0.241695
-0.817161 2.423943 0.243535
-0.802852 2.428785 0.246351
-0.788717 2.422014 0.245788
-0.774681 2.414245 0.244913
-0.760597 2.411242 0.245400
-0.746424 2.412110 0.246995
-0.732099 2.416976 0.249741
-0.717893 2.418061 0.251370
-0.703878 2.414928 0.251751
-0.689827 2.413140 0.252507
-0.675889 2.409692 0.252760
-0.661920 2.407298 0.253304
-0.647986 2.404707 0.253774
-0.634144 2.401157 0.253945
-0.620343 2.397456 0.254054
-0.606577 2.393721 0.254137
-0.591405 2.406726 0.259157
-0.576729 2.412792 0.262118
-0.563173 2.406413 0.261379
-0.550538 2.391357 0.258045
-0.537013 2.386069 0.257593
-0.523073 2.384901 0.258353
-0.508226 2.391630 0.261455
-0.494103 2.391639 0.262545
-0.480563 2.386834 0.262185
-0.467322 2.379962 0.261193
-0.454238 2.372289 0.259945
-0.439537 2.376636 0.262289
-0.424599 2.382202 0.264993
-0.410077 2.384466 0.266699
-0.397491 2.373870 0.264525
-0.383696 2.371396 0.264783
-0.368823 2.375510 0.267021
-0.354268 2.377360 0.268569
-0.341237 2.370173 0.267377
-0.327081 2.369542 0.268158
-0.313756 2.364266 0.267524
-0.299669 2.363170 0.268147
-0.284148 2.369388 0.270986
-0.269950 2.368483 0.271656
-0.255329 2.369545 0.272918
-0.239893 2.374321 0.275307
-0.225980 2.371590 0.275403
-0.213376 2.362840 0.273652
-0.200117 2.357265 0.272862
-0.185950 2.355759 0.273308
-0.173753 2.345741 0.271141
-0.157498 2.352995 0.274261
-0.142699 2.353828 0.275409
-0.128243 2.353102 0.276074
-0.113849 2.352015 0.276623
-0.099209 2.351772 0.277427
-0.084474 2.351751 0.278297
-0.071299 2.345794 0.277330
-0.056589 2.345505 0.278107
-0.040536 2.349880 0.280322
-0.027679 2.342741 0.278974
-0.011991 2.345466 0.280672
0.002303 2.343232 0.280832
0.017211 2.342977 0.281602
0.033566 2.347318 0.283796
0.042704 2.328183 0.278690
0.061240 2.339233 0.282965
0.073859 2.331397 0.281359
0.087799 2.327709 0.281040
0.102656 2.326762 0.281571
0.116720 2.323355 0.281330
0.132000 2.323462 0.282184
0.147357 2.323647 0.283059
0.163400 2.325625 0.284493
0.179921 2.328739 0.286282
0.195239 2.328325 0.286962
0.206773 2.317569 0.284391
0.224047 2.322262 0.286668
0.243362 2.332035 0.290544
0.249155 2.306442 0.283282
0.267852 2.314320 0.286555
0.286440 2.321566 0.289631
0.300756 2.317894 0.289259
0.314301 2.312299 0.288274
0.328094 2.307319 0.287477
0.341020 2.300276 0.286020
0.363411 2.315498 0.291613
0.364292 2.280364 0.281237
0.389710 2.302102 0.288894
0.405046 2.300394 0.289108
0.418276 2.293901 0.287796
0.429463 2.282943 0.285056
0.447618 2.287261 0.287171
0.467709 2.295484 0.290528
0.479393 2.285560 0.288096
0.496368 2.286810 0.289221
0.510011 2.281007 0.288088
0.524893 2.277733 0.287756
0.539392 2.273626 0.287150
0.550402 2.262520 0.284294
0.565503 2.259596 0.284050
0.580790 2.256961 0.283891
0.596977 2.255980 0.284255
0.620208 2.268280 0.288879
0.638812 2.271451 0.290568
0.652688 2.265613 0.289352
0.669059 2.264348 0.289598
0.682262 2.257204 0.287941
0.701750 2.261369 0.289921
0.715388 2.254892 0.288459
0.734307 2.257691 0.289983
0.753776 2.261232 0.291738
0.769313 2.257778 0.291224
0.780141 2.246229 0.288080
0.788582 2.230755 0.283650
0.803550 2.226320 0.282780
0.822311 2.228069 0.283904
0.841647 2.230554 0.285257
0.858829 2.229351 0.285402
0.875337 2.226932 0.285142
0.889933 2.221375 0.283848
0.909491 2.223518 0.285046
0.926622 2.221691 0.284940
0.943433 2.219239 0.284618
0.958275 2.213677 0.283269
0.975101 2.211026 0.282854
0.989452 2.204575 0.281186
1.006012 2.201318 0.280545
1.021711 2.196691 0.279441
1.039990 2.195683 0.279503
1.055746 2.190910 0.278322
1.073483 2.188838 0.278006
1.087361 2.181223 0.275864
1.108179 2.183161 0.276828
1.132246 2.189310 0.279155
1.147996 2.183864 0.277674
1.163547 2.178055 0.276057
1.178545 2.171420 0.274152
1.197272 2.169616 0.273813
1.216142 2.167826 0.273462
1.232628 2.162783 0.272030
1.262045 2.174147 0.275957
1.288776 2.181677 0.278615
1.301758 2.171621 0.275491
1.312392 2.158633 0.271389
1.330290 2.154600 0.270208
1.350047 2.152690 0.269709
1.373338 2.154857 0.270533
1.395885 2.155874 0.270967
-1.551910 2.881278 0.286136
-1.530939 2.845454 0.277217
-1.515461 2.836615 0.275470
-1.498050 2.818720 0.271431
-1.482484 2.810733 0.270084
-1.470527 2.822633 0.274062
-1.458168 2.834005 0.277995
-1.444124 2.837641 0.279979
-1.428086 2.831157 0.279373
-1.412084 2.825581 0.279084
-1.395627 2.817975 0.278330
-1.379143 2.810733 0.277740
-1.363603 2.810003 0.278944
-1.348521 2.813118 0.281236
-1.332381 2.810101 0.281954
-1.316645 2.810497 0.283637
-1.300576 2.809238 0.284927
-1.283831 2.803487 0.285055
-1.267702 2.802712 0.286555
-1.252367 2.808859 0.289953
-1.235341 2.801764 0.289815
-1.218505 2.796172 0.290101
-1.202016 2.793634 0.291230
-1.185735 2.793170 0.292937
-1.169171 2.790068 0.293938
-1.152864 2.789577 0.295658
-1.135956 2.782436 0.295566
-1.119469 2.779554 0.296635
-1.103744 2.785927 0.300240
-1.087168 2.781687 0.300932
-1.070514 2.775677 0.301127
-1.053916 2.769469 0.301253
-1.037983 2.773190 0.304109
-1.021819 2.773112 0.305906
-1.005193 2.763471 0.305035
-0.988471 2.749243 0.302864
-0.961537 2.476274 0.228530
-0.946339 2.460388 0.225696
-0.931410 2.447719 0.223731
-0.916822 2.442908 0.223939
-0.902222 2.434380 0.223082
-0.887782 2.429716 0.223288
-0.873429 2.427454 0.224149
-0.859194 2.438728 0.228814
-0.844844 2.430412 0.227930
-0.830616 2.414777 0.224947
-0.816382 2.418967 0.227560
-0.802122 2.422955 0.230102
-0.788050 2.415248 0.229299
-0.773925 2.413447 0.230157
-0.759818 2.411980 0.231092
-0.745484 2.418077 0.234174
-0.731081 2.424634 0.237378
-0.717586 2.408451 0.234041
-0.703324 2.411864 0.236309
-0.689401 2.408230 0.236534
-0.675382 2.406909 0.237409
-0.661592 2.402088 0.237255
-0.647659 2.400118 0.237908
-0.633774 2.397697 0.238414
-0.619461 2.401164 0.240611
-0.605269 2.402665 0.242227
-0.591181 2.402722 0.243409
-0.576830 2.405596 0.245400
-0.563104 2.401551 0.245361
-0.550071 2.390911 0.243380
-0.537071 2.380823 0.241540
-0.522342 2.387228 0.244510
-0.507354 2.395228 0.247941
-0.493304 2.394639 0.248846
-0.479825 2.389391 0.248369
-0.466403 2.383977 0.247828
-0.452813 2.380071 0.247718
-0.438583 2.380905 0.248994
-0.424637 2.379583 0.249624
-0.411032 2.375919 0.249550
-0.396927 2.375597 0.250455
-0.383036 2.373806 0.250915
-0.368870 2.373663 0.251855
-0.355286 2.369939 0.251722
-0.340611 2.372560 0.253466
-0.327075 2.368515 0.253219
-0.313137 2.366736 0.253637
-0.297244 2.375269 0.257125
-0.282907 2.375177 0.258034
-0.269117 2.372189 0.258070
-0.254963 2.370984 0.258632
-0.240321 2.372030 0.259862
-0.225724 2.372671 0.260965
-0.214039 2.359801 0.258004
-0.200577 2.355313 0.257550
-0.186434 2.353856 0.258000
-0.170383 2.360482 0.260879
-0.161674 2.335917 0.254350
-0.142459 2.355330 0.261078
-0.128773 2.351586 0.260816
-0.114652 2.349557 0.261065
-0.099431 2.351704 0.262573
-0.084050 2.354234 0.264195
-0.070588 2.349395 0.263578
-0.056231 2.347850 0.263954
-0.042480 2.344057 0.263643
-0.025833 2.350417 0.266415
-0.010774 2.350938 0.267408
0.002598 2.345581 0.266607
0.017580 2.345626 0.267447
0.025076 2.321051 0.260764
0.038380 2.315834 0.259982
0.053104 2.315141 0.260579
0.072425 2.328622 0.265512
0.089204 2.333750 0.267890
0.102632 2.328494 0.267081
0.117545 2.327663 0.267625
0.131675 2.324435 0.267429
0.146449 2.323020 0.267785
0.162448 2.324974 0.269175
0.178386 2.326560 0.270450
0.190469 2.317391 0.268404
0.207743 2.322383 0.270724
0.220798 2.315858 0.269483
0.241682 2.329931 0.274607
0.253518 2.320063 0.272323
0.264632 2.308495 0.269504
0.278485 2.304001 0.268869
0.296843 2.310670 0.271693
0.312144 2.309545 0.272096
0.326588 2.306246 0.271818
0.338924 2.297883 0.269959
0.348710 2.283612 0.266252
0.370614 2.297680 0.271367
0.388682 2.302470 0.273591
0.405335 2.303802 0.274734
0.420110 2.300780 0.274511
0.433232 2.294056 0.273125
0.445065 2.284563 0.270864
0.461372 2.284774 0.271633
0.481116 2.292134 0.274639
0.497142 2.291386 0.275099
0.511353 2.286766 0.274337
0.525398 2.281775 0.273451
0.539486 2.276853 0.272578
0.558114 2.280968 0.274540
0.571674 2.274849 0.273276
0.583033 2.264440 0.270649
0.603715 2.272095 0.273709
0.623584 2.277882 0.276175
0.634303 2.266163 0.273107
0.640790 2.246686 0.267574
0.674399 2.277421 0.277908
0.690922 2.276226 0.278140
0.699065 2.259826 0.273546
0.714580 2.256760 0.273163
0.730853 2.254942 0.273167
0.744780 2.248927 0.271827
0.759676 2.244556 0.270999
0.776074 2.242682 0.270952
0.786758 2.231064 0.267795
0.803223 2.229171 0.267718
0.823127 2.232831 0.269398
0.841260 2.233361 0.270071
0.858342 2.232020 0.270136
0.875739 2.231042 0.270305
0.889959 2.224896 0.268812
0.904968 2.219939 0.267685
0.925121 2.222880 0.269066
0.940174 2.217769 0.267862
0.955094 2.212385 0.266556
0.971295 2.208857 0.265828
0.988362 2.206508 0.265462
1.004946 2.203312 0.264811
1.021113 2.199389 0.263911
1.039477 2.198527 0.263976
1.055209 2.193735 0.262766
1.072237 2.190679 0.262097
1.085456 2.182163 0.259660
1.105270 2.182753 0.260126
1.127309 2.186184 0.261489
1.143308 2.181149 0.260119
1.158981 2.175573 0.258557
1.178710 2.175300 0.258682
1.196188 2.171860 0.257772
1.213442 2.167987 0.256706
1.232650 2.166504 0.256392
1.249474 2.161788 0.255021
1.279567 2.173761 0.259000
1.294744 2.166576 0.256803
1.309067 2.158255 0.254224
1.328830 2.156569 0.253764
1.346076 2.151635 0.252244
1.360577 2.143268 0.249605
1.382218 2.143377 0.249679
-1.542864 2.853580 0.263317
-1.528736 2.850117 0.262850
-1.511041 2.829810 0.258127
-1.495779 2.822188 0.256768
-1.482186 2.824048 0.257948
-1.469453 2.831690 0.260717
-1.455023 2.831540 0.261562
-1.440104 2.829743 0.262066
-1.423592 2.819808 0.260543
-1.408117 2.816495 0.260816
-1.392319 2.812068 0.260876
-1.377295 2.813183 0.262453
-1.362053 2.813922 0.264003
-1.346277 2.812086 0.264947
-1.330814 2.813119 0.266703
-1.315217 2.814090 0.268501
-1.298360 2.806718 0.268158
-1.281941 2.802824 0.268771
-1.266571 2.807474 0.271679
-1.250761 2.809503 0.273934
-1.233427 2.799332 0.272992
-1.216184 2.789565 0.272174
-1.200172 2.790669 0.274261
-1.184026 2.790925 0.276142
-1.168464 2.797420 0.279705
-1.152243 2.797805 0.281651
-1.135233 2.789510 0.281277
-1.118483 2.783472 0.281503
-1.102290 2.783776 0.283433
-1.086161 2.784997 0.285610
-1.069458 2.778056 0.285576
-1.052859 2.771548 0.285645
-1.036563 2.768920 0.286752
-1.020684 2.773240 0.289738
-1.004046 2.762833 0.288700
-0.986960 2.739774 0.284180
-0.959863 2.458778 0.208986
-0.944870 2.445645 0.206972
-0.930137 2.436361 0.205987
-0.915789 2.438156 0.208029
-0.901397 2.437844 0.209476
-0.886931 2.431520 0.209244
-0.872648 2.435134 0.211741
-0.858304 2.431537 0.212224
-0.844016 2.435847 0.214884
-0.829826 2.409214 0.208914
-0.815618 2.414998 0.211944
-0.801350 2.421988 0.215299
-0.787236 2.417698 0.215486
-0.773258 2.409739 0.214623
-0.758955 2.416376 0.217834
-0.744898 2.413861 0.218461
-0.731021 2.407404 0.217958
-0.717013 2.405636 0.218755
-0.703074 2.402841 0.219244
-0.688632 2.410233 0.222599
-0.675042 2.401520 0.221378
-0.661089 2.400025 0.222184
-0.647202 2.397750 0.222751
-0.632946 2.400899 0.224846
-0.618702 2.403463 0.226762
-0.604640 2.403425 0.227923
-0.591098 2.397298 0.227329
-0.577802 2.389035 0.226105
-0.563829 2.388584 0.227101
-0.549099 2.395625 0.230234
-0.535960 2.386824 0.228806
-0.522014 2.386012 0.229659
-0.507187 2.392816 0.232694
-0.492939 2.394131 0.234139
-0.479526 2.388530 0.233575
-0.466090 2.383400 0.233132
-0.450642 2.393475 0.237079
-0.437971 2.382800 0.235005
-0.424746 2.376550 0.234198
-0.410811 2.375339 0.234842
-0.396785 2.374653 0.235628
-0.383363 2.370077 0.235272
-0.370424 2.362688 0.234083
-0.355886 2.365058 0.235730
-0.341326 2.367282 0.237328
-0.326106 2.372931 0.239922
-0.310767 2.378781 0.242571
-0.298074 2.370148 0.240968
-0.282115 2.378689 0.244395
-0.268756 2.373553 0.243800
-0.255484 2.368097 0.243100
-0.241450 2.366410 0.243501
-0.227217 2.365588 0.244150
-0.214230 2.358950 0.243075
-0.202224 2.348081 0.240740
-0.187265 2.350461 0.242311
-0.169800 2.363320 0.246982
-0.155849 2.360765 0.247087
-0.144265 2.348457 0.244290
-0.128768 2.352232 0.246259
-0.113242 2.355828 0.248171
-0.097788 2.358856 0.249912
-0.087014 2.343903 0.246293
-0.069825 2.353199 0.249893
-0.055772 2.350579 0.249936
-0.044495 2.337980 0.246993
-0.028985 2.340559 0.248577
-0.013551 2.342645 0.250012
0.003346 2.349468 0.252863
0.016968 2.345013 0.252332
0.030638 2.340727 0.251845
0.038671 2.318315 0.245906
0.054305 2.320547 0.247363
0.071594 2.327717 0.250304
0.086730 2.327926 0.251148
0.105776 2.339763 0.255495
0.118639 2.332768 0.254161
0.130331 2.322433 0.251811
0.146865 2.326190 0.253713
0.162863 2.328177 0.255078
0.175778 2.321380 0.253780
0.190019 2.318288 0.253598
0.204178 2.314929 0.253330
0.223427 2.325097 0.257165
0.236223 2.317886 0.255719
0.252040 2.318570 0.256667
0.266384 2.315338 0.256420
0.280345 2.311096 0.255860
0.293855 2.305715 0.254946
0.311669 2.310887 0.257247
0.326855 2.309435 0.257523
0.339637 2.302160 0.256013
0.351623 2.293071 0.253940
0.364375 2.285862 0.252434
0.382218 2.290367 0.254511
0.401055 2.296869 0.257198
0.419090 2.301278 0.259241
0.434466 2.299581 0.259404
0.445436 2.288201 0.256585
0.459192 2.282954 0.255641
0.481994 2.296904 0.260603
0.495859 2.291635 0.259641
0.509924 2.286771 0.258796
0.525557 2.285091 0.258925
0.540851 2.282629 0.258806
0.557743 2.283277 0.259640
0.573361 2.281251 0.259641
0.587647 2.276534 0.258801
0.598750 2.265642 0.256038
0.614174 2.263096 0.255850
0.634389 2.269495 0.258429
0.649866 2.266774 0.258171
0.670019 2.272585 0.260554
0.689900 2.277621 0.262691
0.701280 2.267077 0.259973
0.714754 2.260347 0.258430
0.730063 2.256847 0.257880
