ply
format ascii 1.0
comment ---
element vertex 1649
property float x
property float y
property float z
element face 0
property list uchar uint vertex_indices
end_header
-3.696626 -5.856230 0.476586
-3.714714 -5.858462 0.479325
-3.727188 -5.852489 0.480685
-3.745384 -5.854535 0.483466
-3.767791 -5.862253 0.487283
-3.791257 -5.871113 0.491355
-3.804736 -5.865951 0.493000
-3.811727 -5.851913 0.493090
-3.824728 -5.846044 0.494655
-3.843921 -5.848347 0.497723
-3.857717 -5.843319 0.499504
-3.880389 -5.849787 0.503415
-3.891211 -5.840640 0.504510
-3.901608 -5.830941 0.505523
-3.929010 -5.842800 0.510569
-3.963292 -5.862886 0.517226
-3.974466 -5.853673 0.518443
-3.980274 -5.837839 0.518422
-3.991552 -5.828794 0.519699
-4.012856 -5.831848 0.523320
-4.037484 -5.838637 0.527712
-4.057428 -5.839563 0.531014
-4.076172 -5.838876 0.534039
-4.101679 -5.845885 0.538619
-4.121888 -5.846474 0.541974
-4.131736 -5.835047 0.542954
-4.149400 -5.832492 0.545724
-4.175435 -5.839183 0.550392
-4.191375 -5.834376 0.552753
-4.194306 -5.815192 0.552161
-4.203608 -5.803135 0.553013
-4.233135 -5.812959 0.558415
-4.260094 -5.819703 0.563208
-4.276226 -5.814707 0.565545
-4.286038 -5.803034 0.566449
-4.299287 -5.795009 0.568101
-4.310812 -5.785226 0.569345
-4.348860 -5.802562 0.576444
-4.373030 -5.805438 0.580413
-4.398324 -5.809285 0.584582
-4.414391 -5.803807 0.586668
-4.427206 -5.795143 0.587994
-4.443932 -5.790371 0.590131
-4.459709 -5.784702 0.592006
-4.477848 -5.781341 0.594338
-4.497411 -5.779349 0.596915
-4.516528 -5.776938 0.599327
-4.535889 -5.774776 0.601721
-4.552913 -5.770479 0.603538
-4.565627 -5.762303 0.604361
-4.577909 -5.753882 0.605021
-4.587530 -5.743225 0.605046
-4.604330 -5.739194 0.606519
-4.612462 -5.727581 0.606087
-4.604114 -5.701707 0.602130
-4.590778 -5.671955 0.597092
-4.586576 -5.650643 0.593924
-4.599591 -5.644524 0.594274
-4.619041 -5.644059 0.595874
-4.610509 -5.620018 0.591646
-4.611447 -5.604375 0.589319
-4.616514 -5.592496 0.587779
-4.610751 -5.571930 0.583994
-4.605064 -5.551823 0.580191
-4.607185 -5.538468 0.577919
-1.847099 -6.100798 0.343782
-1.855610 -6.108806 0.346369
-1.864386 -6.115794 0.348807
-1.874733 -6.099853 0.348736
-1.884522 -6.094420 0.349727
-1.894193 -6.093243 0.351116
-1.904049 -6.091125 0.352344
-1.913785 -6.094490 0.354112
-1.923820 -6.094756 0.355483
-1.934036 -6.094041 0.356685
-1.944340 -6.094762 0.357986
-1.954976 -6.089204 0.358526
-1.965572 -6.088759 0.359573
-1.976426 -6.082380 0.359892
-1.987249 -6.082185 0.360844
-1.998183 -6.082882 0.361838
-2.009151 -6.093444 0.363893
-2.020353 -6.098813 0.365309
-2.031721 -6.096779 0.365829
-2.043159 -6.088937 0.365631
-2.054657 -6.084428 0.365761
-2.066255 -6.083370 0.366236
-2.077969 -6.084391 0.366903
-2.089818 -6.087246 0.367740
-2.101612 -6.083818 0.367812
-2.113731 -6.089722 0.368924
-2.125766 -6.089614 0.369308
-2.137326 -6.075772 0.368071
-2.149191 -6.070449 0.367790
-2.161336 -6.070798 0.368139
-2.179363 -6.181113 0.381229
-2.195107 -6.233272 0.387566
-2.209905 -6.261763 0.391144
-2.223598 -6.269188 0.392262
-2.254133 -6.321183 0.398797
-2.270960 -6.361317 0.403707
-2.283842 -6.350766 0.402706
-2.296769 -6.341551 0.401856
-2.310480 -6.341255 0.402048
-2.324116 -6.340055 0.402136
-2.338885 -6.349605 0.403486
-2.352979 -6.352031 0.404009
-2.365285 -6.338487 0.402670
-2.378546 -6.333936 0.402391
-2.391633 -6.328238 0.401988
-2.401562 -6.298319 0.398751
-2.434973 -6.342572 0.404543
-2.449752 -6.348891 0.405607
-2.463288 -6.346326 0.405640
-2.474916 -6.331344 0.404225
-2.488813 -6.331634 0.404627
-2.495532 -6.287566 0.399802
-2.510675 -6.296441 0.401250
-2.528546 -6.320647 0.404536
-2.545062 -6.335787 0.406773
-2.568676 -6.312933 0.404996
-2.595952 -6.310751 0.405751
-2.611879 -6.321034 0.407518
-2.623169 -6.308191 0.406540
-2.645536 -6.283007 0.404690
-2.659733 -6.284822 0.405521
-2.668282 -6.261349 0.403325
-2.690773 -6.299478 0.408581
-2.699193 -6.275952 0.406412
-2.724473 -6.265973 0.406606
-2.738050 -6.264894 0.407206
-2.748066 -6.249748 0.406109
-2.758214 -6.235585 0.405144
-2.773349 -6.240737 0.406559
-2.791373 -6.256332 0.409281
-2.800344 -6.238211 0.407877
-2.807218 -6.213109 0.405621
-2.824418 -6.225149 0.407967
-2.843810 -6.244256 0.411218
-2.865410 -6.222714 0.410358
-2.880882 -6.227682 0.411916
-2.897820 -6.237117 0.414057
-2.911471 -6.235660 0.414854
-2.928541 -6.244849 0.417012
-2.940578 -6.238100 0.417179
-2.956593 -6.243521 0.418905
-2.973530 -6.251416 0.420969
-2.994273 -6.270162 0.424443
-2.991193 -6.219073 0.419008
-3.002849 -6.211507 0.419143
-3.015411 -6.206592 0.419632
-3.036560 -6.109585 0.411639
-3.115841 -6.167438 0.424099
-3.100173 -6.092372 0.415402
-3.059741 -5.958362 0.398796
-3.062765 -5.932979 0.396612
-3.076319 -5.933311 0.397874
-3.092877 -5.940603 0.400092
-3.105437 -5.938271 0.401034
-3.118783 -5.937683 0.402228
-3.132909 -5.938760 0.403667
-3.147877 -5.941579 0.405364
-3.158645 -5.934887 0.405777
-3.170136 -5.929817 0.406424
-3.183446 -5.928681 0.407630
-3.198912 -5.932056 0.409481
-3.214349 -5.935162 0.411317
-3.226699 -5.931623 0.412246
-3.237361 -5.924554 0.412694
-3.253414 -5.928515 0.414713
-3.265881 -5.925026 0.415699
-3.278341 -5.921475 0.416694
-3.290712 -5.917695 0.417672
-3.304251 -5.916145 0.418988
-3.315786 -5.910636 0.419752
-3.327508 -5.905475 0.420582
-3.345427 -5.911971 0.423125
-3.358774 -5.909670 0.424412
-3.370962 -5.905147 0.425393
-3.387537 -5.908584 0.427567
-3.401524 -5.907143 0.429046
-3.414052 -5.902993 0.430143
-3.428080 -5.901438 0.431649
-3.440910 -5.897684 0.432846
-3.454279 -5.894801 0.434196
-3.464303 -5.886117 0.434686
-3.480401 -5.887747 0.436765
-3.496646 -5.889446 0.438883
-3.517685 -5.898906 0.442229
-3.531035 -5.895418 0.443612
-3.544537 -5.892098 0.445044
-3.564055 -5.898361 0.448000
-3.578605 -5.896446 0.449710
-3.588530 -5.887140 0.450277
-3.599005 -5.878724 0.451002
-3.613160 -5.875999 0.452654
-3.632342 -5.880846 0.455552
-3.648731 -5.881216 0.457767
-3.660282 -5.874181 0.458812
-3.665562 -5.857836 0.458356
-3.677200 -5.850977 0.459464
-3.696526 -5.855257 0.462437
-3.716989 -5.860922 0.465683
-3.736085 -5.864365 0.468605
-3.753233 -5.864825 0.471069
-3.771943 -5.867289 0.473910
-3.784815 -5.861461 0.475382
-3.802981 -5.862820 0.478112
-3.814433 -5.854876 0.479280
-3.831975 -5.855087 0.481885
-3.850432 -5.856333 0.484711
-3.869088 -5.857637 0.487590
-3.882946 -5.852480 0.489371
-3.897436 -5.848054 0.491311
-3.912503 -5.844270 0.493396
-3.940988 -5.857377 0.498557
-3.963006 -5.861932 0.502238
-3.977332 -5.856653 0.504177
-3.992589 -5.852433 0.506338
-3.994370 -5.831670 0.505469
-4.008430 -5.825948 0.507389
-4.031142 -5.830499 0.511260
-4.059078 -5.840969 0.516299
-4.078056 -5.840540 0.519330
-4.094261 -5.836708 0.521745
-4.123333 -5.847583 0.527020
-4.137049 -5.840549 0.528881
-4.147208 -5.829444 0.529961
-4.170594 -5.833179 0.533959
-4.183526 -5.825070 0.535648
-4.206449 -5.827919 0.539526
-4.222611 -5.823185 0.541910
-4.243712 -5.823699 0.545361
-4.260971 -5.819939 0.547958
-4.278731 -5.816623 0.550647
-4.293572 -5.810160 0.552682
-4.303770 -5.798848 0.553694
-4.321302 -5.795158 0.556268
-4.348971 -5.801748 0.560991
-4.379688 -5.811175 0.566324
-4.396617 -5.806515 0.568654
-4.412762 -5.801060 0.570778
-4.430293 -5.796974 0.573152
-4.444454 -5.789595 0.574762
-4.464147 -5.787619 0.577495
-4.483346 -5.785144 0.580064
-4.500122 -5.780365 0.582061
-4.516707 -5.775452 0.583957
-4.538066 -5.775045 0.586784
-4.556530 -5.771957 0.588933
-4.559047 -5.754304 0.587696
-4.572126 -5.746552 0.588591
-4.593241 -5.746183 0.591071
-4.610370 -5.742288 0.592647
-4.608670 -5.721812 0.590287
-4.603684 -5.698829 0.587204
-4.590878 -5.669455 0.582486
-4.591112 -5.651885 0.580371
-4.600358 -5.642391 0.580016
-4.611828 -5.635013 0.580037
-4.613157 -5.619265 0.577961
-4.596638 -5.588882 0.572283
-4.598037 -5.573952 0.570130
-4.604933 -5.563876 0.569006
-4.603050 -5.546849 0.566104
-4.600736 -5.529816 0.563076
-4.595310 -5.510613 0.559407
-1.845763 -6.101754 0.333259
-1.854877 -6.101768 0.334939
-1.863536 -6.111212 0.337536
-1.873510 -6.102453 0.338209
-1.883105 -6.101872 0.339665
-1.893469 -6.089535 0.339836
-1.902914 -6.096932 0.342006
-1.913124 -6.092025 0.342827
-1.923281 -6.090925 0.343987
-1.933815 -6.083474 0.344409
-1.944044 -6.087421 0.345982
-1.954510 -6.089147 0.347259
-1.965291 -6.084518 0.347793
-1.976097 -6.083022 0.348602
-1.987062 -6.079185 0.349097
-1.997999 -6.084126 0.350485
-2.009066 -6.092468 0.352190
-2.020319 -6.100913 0.353857
-2.031763 -6.100348 0.354487
-2.043306 -6.099335 0.355016
-2.054889 -6.091531 0.354748
-2.066519 -6.085540 0.354630
-2.078283 -6.085366 0.355108
-2.090137 -6.085611 0.355591
-2.102148 -6.088878 0.356370
-2.113895 -6.080040 0.355774
-2.125693 -6.073036 0.355345
-2.137698 -6.071383 0.355481
-2.149762 -6.070157 0.355637
-2.162130 -6.074343 0.356373
-2.180978 -6.198628 0.370471
-2.196910 -6.251822 0.376646
-2.211445 -6.274110 0.379365
-2.225101 -6.279693 0.380211
-2.240223 -6.304461 0.383190
-2.256122 -6.335933 0.386916
-2.273030 -6.375822 0.391582
-2.286004 -6.365379 0.390617
-2.298997 -6.355995 0.389768
-2.312135 -6.348870 0.389174
-2.326580 -6.355262 0.390098
-2.339537 -6.346774 0.389358
-2.352190 -6.336144 0.388384
-2.366505 -6.340773 0.389132
-2.380931 -6.345875 0.389944
-2.392702 -6.329111 0.388307
-2.404406 -6.312993 0.386752
-2.418619 -6.316728 0.387447
-2.436899 -6.349500 0.391433
-2.452510 -6.361401 0.393085
-2.464372 -6.347142 0.391797
-2.490580 -6.336808 0.391324
-2.501372 -6.317778 0.389541
-2.514566 -6.314144 0.389518
-2.532372 -6.337459 0.392578
-2.547883 -6.346462 0.394035
-2.559276 -6.332253 0.392867
-2.571700 -6.324241 0.392423
-2.585095 -6.321639 0.392614
-2.597119 -6.312095 0.392030
-2.609295 -6.303699 0.391593
-2.630506 -6.339524 0.396255
-2.638161 -6.309255 0.393344
-2.644529 -6.274294 0.389901
-2.655727 -6.262711 0.389163
-2.671813 -6.273248 0.391001
-2.681998 -6.257598 0.389826
-2.697281 -6.264213 0.391252
-2.707751 -6.250388 0.390321
-2.718697 -6.238967 0.389684
-2.732031 -6.237466 0.390221
-2.754538 -6.271968 0.394996
-2.764876 -6.258152 0.394133
-2.773802 -6.239400 0.392702
-2.786762 -6.236217 0.393117
-2.798941 -6.230190 0.393213
-2.806436 -6.207490 0.391348
-2.820642 -6.209096 0.392378
-2.841883 -6.234867 0.396309
-2.870914 -6.238522 0.398538
-2.902597 -6.250062 0.401798
-2.927200 -6.283263 0.406778
-2.933782 -6.258847 0.404816
-2.944196 -6.246888 0.404370
-2.957667 -6.244453 0.405095
-2.969593 -6.237351 0.405267
-2.973329 -6.206225 0.402504
-2.990059 -6.213592 0.404474
-2.996177 -6.190287 0.402680
-3.011733 -6.194115 0.404248
-3.034840 -6.218666 0.408413
-3.041174 -6.119934 0.399500
-3.043856 -6.090076 0.396894
-3.069477 -6.120268 0.401871
-3.101605 -6.129720 0.405475
-3.056238 -5.948092 0.384669
-3.068335 -5.944823 0.385432
-3.078729 -5.937449 0.385678
-3.094454 -5.942719 0.387575
-3.105068 -5.935827 0.387911
-3.120864 -5.940905 0.389822
-3.135816 -5.943817 0.391471
-3.149314 -5.943269 0.392686
-3.158802 -5.933723 0.392729
-3.170142 -5.928339 0.393333
-3.181828 -5.923706 0.394050
-3.196920 -5.926337 0.395753
-3.214467 -5.933967 0.398149
-3.229030 -5.935060 0.399690
-3.239754 -5.928081 0.400159
-3.252464 -5.925183 0.401195
-3.266269 -5.924432 0.402541
-3.280781 -5.924973 0.404083
-3.293674 -5.922185 0.405188
-3.308046 -5.922208 0.406700
-3.321733 -5.920780 0.408031
-3.331555 -5.911890 0.408339
-3.341426 -5.903156 0.408681
-3.357454 -5.905947 0.410657
-3.373225 -5.908069 0.412565
-3.385304 -5.903282 0.413516
-3.401110 -5.905180 0.415439
-3.415727 -5.904778 0.417059
-3.429714 -5.903135 0.418523
-3.443719 -5.901420 0.419999
-3.452308 -5.890245 0.420120
-3.465578 -5.887164 0.421435
-3.481336 -5.888212 0.423380
-3.501241 -5.896033 0.426354
-3.517117 -5.896876 0.428330
-3.529262 -5.891440 0.429397
-3.544276 -5.890621 0.431176
-3.566785 -5.901703 0.434781
-3.581615 -5.900208 0.436523
-3.589940 -5.888356 0.436713
-3.599539 -5.878574 0.437231
-3.614586 -5.877232 0.439066
-3.631916 -5.879246 0.441451
-3.650472 -5.882914 0.444130
-3.659919 -5.872726 0.444674
-3.672104 -5.866636 0.445880
-3.685447 -5.862200 0.447372
-3.703189 -5.864077 0.449897
-3.722793 -5.868428 0.452859
-3.739391 -5.868250 0.455132
-3.757277 -5.869722 0.457710
-3.770054 -5.863865 0.459131
-3.784265 -5.859931 0.460893
-3.798189 -5.855510 0.462605
-3.819277 -5.860710 0.465948
-3.835750 -5.859438 0.468256
-3.855376 -5.862205 0.471282
-3.869418 -5.857388 0.473068
-3.884705 -5.854105 0.475145
-3.899007 -5.849431 0.477017
-3.929251 -5.865055 0.482429
-3.948591 -5.866381 0.485429
-3.964323 -5.862968 0.487642
-3.989839 -5.871593 0.492013
-3.997147 -5.857452 0.492402
-4.001890 -5.840261 0.492252
-4.016912 -5.835621 0.494360
-4.032649 -5.831737 0.496634
-4.044298 -5.822894 0.498032
-4.085209 -5.848373 0.505755
-4.112900 -5.857816 0.510612
-4.133419 -5.858634 0.513922
-4.139987 -5.843332 0.514243
-4.150736 -5.832857 0.515470
-4.169848 -5.831758 0.518485
-4.193664 -5.835715 0.522496
-4.213168 -5.834684 0.525581
-4.227111 -5.827447 0.527480
-4.240684 -5.819775 0.529295
-4.260202 -5.818430 0.532355
-4.280624 -5.817906 0.535588
-4.297289 -5.813299 0.538013
-4.313874 -5.808547 0.540401
-4.330410 -5.803688 0.542755
-4.353298 -5.805261 0.546407
-4.373264 -5.803729 0.549416
-4.395698 -5.804576 0.552899
-4.413488 -5.800694 0.555379
-4.434858 -5.800302 0.558555
-4.452177 -5.795882 0.560847
-4.467234 -5.789282 0.562625
-4.481590 -5.782060 0.564209
-4.498618 -5.777443 0.566285
-4.515899 -5.773100 0.568351
-4.543375 -5.778297 0.572423
-4.556229 -5.769879 0.573455
-4.558374 -5.751793 0.572264
-4.573680 -5.745960 0.573664
-4.592750 -5.743626 0.575744
-4.606220 -5.736354 0.576626
-4.604572 -5.715857 0.574426
-4.600487 -5.693598 0.571690
-4.598882 -5.673912 0.569393
-4.592629 -5.650585 0.566127
-4.586420 -5.627734 0.562825
-4.600667 -5.622704 0.563465
-4.605026 -5.609489 0.562106
-4.594302 -5.583939 0.557773
-4.609355 -5.564350 0.555994
-4.614336 -5.552835 0.554524
-4.604822 -5.529809 0.550251
-4.599471 -5.510576 0.546736
-4.595066 -5.492478 0.543365
-1.834585 -6.114065 0.322099
-1.844074 -6.108243 0.323211
-1.854080 -6.096402 0.323674
-1.862759 -6.106257 0.326210
-1.872336 -6.104942 0.327594
-1.881769 -6.108607 0.329416
-1.891957 -6.101472 0.330101
-1.901622 -6.106789 0.331974
-1.911728 -6.106599 0.333235
-1.922700 -6.089283 0.332693
-1.933119 -6.086701 0.333580
-1.943504 -6.088671 0.334871
-1.954010 -6.091712 0.336213
-1.964680 -6.094631 0.337484
-1.975673 -6.089971 0.337912
-1.986628 -6.092463 0.339022
-1.997766 -6.092116 0.339781
-2.008952 -6.098833 0.341221
-2.020359 -6.096386 0.341650
-2.031852 -6.094151 0.342048
-2.043431 -6.092158 0.342420
-2.055127 -6.094841 0.343237
-2.066808 -6.086909 0.342888
-2.078568 -6.082775 0.342896
-2.090532 -6.086223 0.343668
-2.102251 -6.076067 0.342960
-2.114154 -6.072766 0.342945
-2.126420 -6.078856 0.343898
-2.138548 -6.078632 0.344153
-2.150747 -6.078828 0.344429
-2.163033 -6.079791 0.344765
-2.197588 -6.250659 0.363439
-2.212163 -6.273139 0.366042
-2.226247 -6.284731 0.367472
-2.241969 -6.317060 0.371116
-2.258770 -6.359091 0.375798
-2.273192 -6.366851 0.376809
-2.286979 -6.366174 0.376915
-2.300165 -6.358757 0.376298
-2.314016 -6.358825 0.376488
-2.328298 -6.363028 0.377127
-2.340807 -6.349907 0.375911
-2.354179 -6.345632 0.375653
-2.368098 -6.346380 0.375945
-2.382434 -6.350469 0.376609
-2.395776 -6.346185 0.376382
-2.407889 -6.332642 0.375170
-2.422651 -6.339762 0.376200
-2.438379 -6.353295 0.377941
-2.450693 -6.342092 0.377024
-2.462993 -6.331463 0.376184
-2.479561 -6.349305 0.378445
-2.496078 -6.365692 0.380570
-2.504070 -6.328673 0.376916
-2.517310 -6.325034 0.376902
-2.534254 -6.343027 0.379261
-2.548452 -6.344485 0.379842
-2.559591 -6.328989 0.378592
-2.571736 -6.319612 0.378025
-2.584155 -6.312066 0.377677
-2.595243 -6.298038 0.376634
-2.609786 -6.301778 0.377559
-2.639483 -6.311419 0.379712
-2.646110 -6.277680 0.376562
-2.656456 -6.262201 0.375439
-2.670339 -6.262990 0.376134
-2.681673 -6.252589 0.375605
-2.689758 -6.228716 0.373591
-2.700977 -6.218774 0.373140
-2.714694 -6.219331 0.373878
-2.739290 -6.263305 0.379501
-2.753518 -6.264794 0.380394
-2.764298 -6.252846 0.379794
-2.773440 -6.235048 0.378547
-2.787328 -6.235403 0.379363
-2.797326 -6.221463 0.378577
-2.813184 -6.228883 0.380231
-2.829138 -6.236268 0.381904
-2.843268 -6.236986 0.382838
-2.856179 -6.233424 0.383300
-2.869703 -6.231916 0.384015
-2.882917 -6.229320 0.384623
-2.904226 -6.252852 0.388267
-2.921528 -6.262770 0.390367
-2.928385 -6.239565 0.388642
-2.943487 -6.242363 0.389951
-2.958625 -6.245061 0.391269
-2.955181 -6.192051 0.386069
-2.978995 -6.220703 0.390462
-2.997089 -6.190781 0.389032
-3.010696 -6.189116 0.389907
-3.031368 -6.206968 0.393127
-3.052280 -6.224843 0.396381
-3.047399 -6.134568 0.387803
-3.056552 -6.121496 0.387361
-3.071721 -6.124207 0.388841
-3.084961 -6.121799 0.389717
-3.070013 -5.980197 0.375893
-3.067835 -5.941978 0.372343
-3.080859 -5.940924 0.373386
-3.092345 -5.936148 0.373981
-3.105838 -5.936042 0.375172
-3.121359 -5.940479 0.376951
-3.135617 -5.941816 0.378361
-3.149225 -5.941537 0.379585
-3.159982 -5.934829 0.380010
-3.170794 -5.928275 0.380466
-3.182350 -5.923363 0.381143
-3.197392 -5.925888 0.382789
-3.212748 -5.928890 0.384519
-3.229664 -5.934950 0.386666
-3.237817 -5.922674 0.386452
-3.248713 -5.916143 0.386994
-3.267686 -5.925901 0.389688
-3.280776 -5.923595 0.390821
-3.294267 -5.922000 0.392066
-3.316741 -5.937795 0.395644
-3.326588 -5.928802 0.395947
-3.336398 -5.919803 0.396259
-3.342563 -5.904009 0.395665
-3.350735 -5.892164 0.395607
-3.369555 -5.900051 0.398245
-3.384419 -5.900425 0.399887
-3.399605 -5.901237 0.401612
-3.419991 -5.911162 0.404622
-3.437458 -5.915591 0.406904
-3.445576 -5.903475 0.406908
-3.454129 -5.892224 0.407041
-3.468090 -5.890306 0.408500
-3.485337 -5.893840 0.410753
-3.500308 -5.893350 0.412464
-3.515995 -5.893911 0.414351
-3.527140 -5.886876 0.415173
-3.540157 -5.882869 0.416450
-3.561285 -5.891816 0.419634
-3.573900 -5.886906 0.420833
-3.584734 -5.879147 0.421635
-3.597334 -5.874139 0.422861
-3.614403 -5.875964 0.425125
-3.635056 -5.883065 0.428212
-3.650851 -5.882531 0.430194
-3.668809 -5.885085 0.432675
-3.678273 -5.874852 0.433249
-3.690359 -5.868502 0.434432
-3.708467 -5.870857 0.436976
-3.723952 -5.869229 0.438944
-3.742095 -5.871250 0.441511
-3.756767 -5.868172 0.443320
-3.772380 -5.866299 0.445349
-3.784101 -5.858913 0.446538
-3.801203 -5.858859 0.448919
-3.821630 -5.863138 0.452033
-3.845882 -5.872292 0.455983
-3.858593 -5.865754 0.457439
-3.868206 -5.855083 0.458245
-3.877867 -5.844498 0.459083
-3.897248 -5.846483 0.462022
-3.921012 -5.853853 0.465904
-3.948760 -5.865941 0.470636
-3.971564 -5.871413 0.474318
-3.989458 -5.870491 0.476964
-4.003463 -5.864609 0.478800
-4.016150 -5.857043 0.480371
-4.031435 -5.852566 0.482503
-4.043663 -5.844326 0.484006
-4.057720 -5.838219 0.485904
-4.070058 -5.830018 0.487454
-4.107894 -5.851421 0.494316
-4.128434 -5.852314 0.497576
-4.136882 -5.839212 0.498335
-4.146960 -5.828011 0.499442
-4.165792 -5.826630 0.502359
-4.194915 -5.836501 0.507390
-4.209165 -5.829672 0.509357
-4.214557 -5.813156 0.509509
-4.234491 -5.812449 0.512635
-4.256922 -5.814249 0.516258
-4.276423 -5.812755 0.519269
-4.289103 -5.803979 0.520879
-4.313142 -5.807007 0.524776
-4.332363 -5.804875 0.527672
-4.348111 -5.799105 0.529842
-4.366516 -5.795990 0.532521
-4.387968 -5.795858 0.535779
-4.410604 -5.796787 0.539235
-4.430137 -5.794546 0.542027
-4.448160 -5.790781 0.544473
-4.465041 -5.785897 0.546645
-4.478011 -5.777287 0.547991
-4.495316 -5.772876 0.550145
-4.516492 -5.772127 0.553004
-4.539502 -5.773057 0.556158
-4.560967 -5.772518 0.558937
-4.568312 -5.759057 0.558880
-4.578609 -5.748497 0.559340
-4.595111 -5.743703 0.560939
-4.602618 -5.730988 0.560720
-4.593917 -5.704185 0.557307
-4.596752 -5.687976 0.556067
-4.597486 -5.670253 0.554363
-4.590409 -5.646134 0.551110
-4.587144 -5.625727 0.548534
-4.595236 -5.615355 0.548057
-4.602293 -5.604352 0.547315
-4.601305 -5.586877 0.544996
-4.610301 -5.578040 0.544490
-4.619119 -5.569282 0.543882
-4.618169 -5.552772 0.541399
-4.607743 -5.528916 0.537123
-4.611457 -5.516896 0.535410
-1.823908 -6.119574 0.310207
-1.833444 -6.112529 0.311230
-1.843206 -6.103776 0.312034
-1.853429 -6.089585 0.312262
-1.862870 -6.088290 0.313640
-1.869943 -6.128073 0.318868
-1.880432 -6.116064 0.319127
-1.890331 -6.116224 0.320485
-1.900503 -6.113959 0.321548
-1.910925 -6.109170 0.322304
-1.921156 -6.111495 0.323688
-1.932189 -6.097170 0.323382
-1.943084 -6.087721 0.323484
-1.953727 -6.088606 0.324537
-1.964363 -6.095177 0.326095
-1.975173 -6.102254 0.327648
-1.986372 -6.098112 0.328029
-1.997593 -6.098642 0.328818
-2.008918 -6.101147 0.329750
-2.020413 -6.096677 0.329929
-2.031978 -6.088799 0.329713
-2.043600 -6.087812 0.330140
-2.055309 -6.086935 0.330531
-2.067134 -6.088820 0.331159
-2.079026 -6.088798 0.331554
-2.090690 -6.074513 0.330465
-2.102880 -6.082728 0.331623
-2.115196 -6.090463 0.332704
-2.127516 -6.094579 0.333389
-2.139636 -6.091310 0.333297
-2.151758 -6.087654 0.333144
-2.164414 -6.094648 0.334057
-2.182935 -6.208744 0.345894
-2.198264 -6.249335 0.350220
-2.213136 -6.276118 0.353128
-2.227214 -6.287025 0.354405
-2.258200 -6.340431 0.360183
-2.273466 -6.359340 0.362275
-2.286252 -6.347382 0.361204
-2.301252 -6.360665 0.362723
-2.314445 -6.353713 0.362172
-2.328066 -6.351511 0.362115
-2.341122 -6.344060 0.361525
-2.355144 -6.345900 0.361900
-2.368425 -6.341079 0.361600
-2.382693 -6.344782 0.362189
-2.396881 -6.347501 0.362691
-2.411512 -6.353381 0.363533
-2.424961 -6.349990 0.363434
-2.436842 -6.335508 0.362205
-2.446881 -6.309133 0.359760
-2.460855 -6.310863 0.360235
-2.481933 -6.358725 0.365508
-2.495522 -6.356317 0.365596
-2.505973 -6.334754 0.363712
-2.518843 -6.328773 0.363463
-2.534251 -6.337768 0.364790
-2.548152 -6.337729 0.365197
-2.560208 -6.327498 0.364560
-2.573458 -6.324108 0.364654
-2.585789 -6.316035 0.364277
-2.598818 -6.311830 0.364323
-2.612120 -6.309108 0.364544
-2.641433 -6.316634 0.366409
-2.648753 -6.286060 0.363746
-2.658094 -6.265892 0.362193
-2.671557 -6.264763 0.362670
-2.684328 -6.260593 0.362843
-2.690426 -6.228166 0.360024
-2.699388 -6.208871 0.358612
-2.741549 -6.269163 0.366417
-2.753335 -6.260980 0.366252
-2.762118 -6.241449 0.364879
-2.773044 -6.230630 0.364456
-2.783359 -6.217836 0.363832
-2.796196 -6.214572 0.364254
-2.815228 -6.233466 0.367103
-2.835177 -6.254808 0.370250
-2.847378 -6.248554 0.370408
-2.855856 -6.229765 0.369205
-2.866743 -6.219527 0.368950
-2.885611 -6.235702 0.371621
-2.903324 -6.247503 0.373836
-2.911933 -6.229887 0.372812
-2.925222 -6.227337 0.373472
-2.940602 -6.231181 0.374861
-2.956882 -6.237514 0.376550
-2.974296 -6.246912 0.378606
-2.979881 -6.221132 0.376720
-2.992447 -6.216209 0.377192
-2.994959 -6.182616 0.374424
-3.012762 -6.192871 0.376641
-3.032100 -6.206957 0.379321
-3.052030 -6.183070 0.378777
-3.052450 -6.146079 0.375625
-3.059016 -6.126077 0.374427
-3.074728 -6.130127 0.376029
-3.090860 -6.135011 0.377748
-3.086315 -6.052649 0.370413
-3.054085 -5.939511 0.358221
-3.064033 -5.931157 0.358363
-3.076240 -5.928289 0.359166
-3.091537 -5.932655 0.360847
-3.106243 -5.935414 0.362356
-3.121611 -5.939500 0.364045
-3.132517 -5.933239 0.364503
-3.146152 -5.933124 0.365718
-3.160732 -5.934980 0.367190
-3.172554 -5.930635 0.367922
-3.183271 -5.923882 0.368371
-3.196332 -5.922167 0.369454
-3.212479 -5.926878 0.371348
-3.225585 -5.925009 0.372447
-3.237447 -5.920496 0.373232
-3.247170 -5.911603 0.373479
-3.262627 -5.914327 0.375202
-3.282233 -5.925120 0.377968
-3.293974 -5.920064 0.378750
-3.285118 -5.874917 0.374419
-3.312623 -5.900599 0.379153
-3.333891 -5.913715 0.382316
-3.346171 -5.909501 0.383269
-3.368369 -5.896600 0.384637
-3.384282 -5.898923 0.386496
-3.399221 -5.899305 0.388122
-3.418174 -5.906693 0.390703
-3.435825 -5.911492 0.392971
-3.446637 -5.904124 0.393636
-3.457288 -5.896493 0.394280
-3.472458 -5.896597 0.395986
-3.487941 -5.897086 0.397769
-3.500333 -5.892253 0.398850
-3.510646 -5.883938 0.399471
-3.523504 -5.879815 0.400686
-3.539664 -5.880981 0.402657
-3.552768 -5.877076 0.403948
-3.564869 -5.871507 0.405028
-3.581519 -5.873053 0.407133
-3.597047 -5.872669 0.408995
-3.616094 -5.877560 0.411641
-3.634502 -5.881226 0.414148
-3.658784 -5.893529 0.417942
-3.669446 -5.885072 0.418768
-3.679924 -5.876353 0.419574
-3.690853 -5.868303 0.420495
-3.707744 -5.868900 0.422717
-3.723196 -5.867254 0.424639
-3.739848 -5.867181 0.426829
-3.759534 -5.871215 0.429674
-3.773205 -5.866611 0.431250
-3.785197 -5.859608 0.432489
-3.804812 -5.862994 0.435347
-3.827871 -5.870806 0.438934
-3.853784 -5.882120 0.443120
-3.861695 -5.869121 0.443558
-3.865990 -5.851432 0.443271
-3.879293 -5.845641 0.444874
-3.895024 -5.842911 0.446994
-3.924172 -5.857203 0.451887
-3.943626 -5.858764 0.454789
-3.964904 -5.862394 0.458074
-3.983263 -5.862143 0.460770
-4.002057 -5.862240 0.463564
-4.020271 -5.861437 0.466251
-4.033867 -5.854885 0.468012
-4.041274 -5.840864 0.468537
-4.050683 -5.829287 0.469484
-4.077855 -5.838574 0.474017
-4.105882 -5.848488 0.478721
-4.118894 -5.840743 0.480417
-4.130963 -5.831875 0.481933
-4.147316 -5.827823 0.484313
-4.168779 -5.829376 0.487712
-4.185675 -5.825653 0.490202
-4.197799 -5.816575 0.491748
-4.215886 -5.813972 0.494474
-4.233972 -5.811241 0.497194
-4.253363 -5.809779 0.500163
-4.278573 -5.814329 0.504265
-4.293942 -5.808323 0.506419
-4.309699 -5.802670 0.508634
-4.331820 -5.803514 0.512077
-4.350368 -5.800558 0.514797
-4.364016 -5.792571 0.516538
-4.384409 -5.791348 0.519563
-4.402605 -5.787848 0.522128
-4.422942 -5.786404 0.525070
-4.444685 -5.786252 0.528241
-4.468446 -5.787958 0.531753
-4.482838 -5.780599 0.533412
-4.494956 -5.771151 0.534587
-4.513630 -5.767964 0.536963
-4.542772 -5.774526 0.541274
-4.560917 -5.770798 0.543420
-4.576166 -5.764464 0.544949
-4.585162 -5.752564 0.545228
-4.598825 -5.745063 0.546324
-4.601984 -5.728343 0.545376
-4.596161 -5.703994 0.542687
-4.586313 -5.676560 0.539197
-4.590652 -5.661944 0.538298
-4.594015 -5.646779 0.537154
-4.596131 -5.630853 0.535716
-4.597582 -5.614686 0.534095
-4.600449 -5.600040 0.532672
-4.604711 -5.586868 0.531443
-4.607334 -5.572630 0.529853
-4.612960 -5.561170 0.528745
-4.618186 -5.549653 0.527503
-4.615144 -5.531708 0.524721
-4.606936 -5.509976 0.520976
-4.629633 -5.513338 0.522669
-4.646180 -5.511888 0.523191
-1.823479 -6.108775 0.298511
-1.832808 -6.104885 0.299778
-1.842059 -6.103816 0.301242
-1.852032 -6.094342 0.301894
-1.861337 -6.096471 0.303530
-1.870361 -6.105906 0.305777
-1.878920 -6.127227 0.309063
-1.889258 -6.121408 0.309814
-1.900222 -6.105276 0.309545
-1.910447 -6.105659 0.310736
-1.920708 -6.108741 0.312117
-1.931507 -6.102279 0.312546
-1.942545 -6.091483 0.312501
-1.953360 -6.089713 0.313240
-1.964125 -6.094358 0.314527
-1.974925 -6.105018 0.316329
-1.986217 -6.100344 0.316619
-1.997534 -6.099767 0.317242
-2.008993 -6.095884 0.317495
-2.020509 -6.095705 0.318049
-2.032130 -6.093610 0.318370
-2.043803 -6.084077 0.317926
-2.055518 -6.078674 0.317834
-2.067460 -6.088384 0.319160
-2.079376 -6.086812 0.319358
-2.091244 -6.080223 0.319034
-2.103618 -6.092637 0.320521
-2.115952 -6.098029 0.321299
-2.128155 -6.096685 0.321397
-2.140326 -6.093561 0.321298
-2.151972 -6.078297 0.319997
-2.165341 -6.099952 0.322273
-2.180567 -6.151547 0.327457
-2.199456 -6.256695 0.337858
-2.213371 -6.267351 0.339038
-2.228557 -6.294783 0.341851
-2.243799 -6.319077 0.344356
-2.258468 -6.332750 0.345822
-2.273097 -6.344107 0.347063
-2.287925 -6.356339 0.348393
-2.301960 -6.358499 0.348742
-2.316047 -6.360854 0.349117
-2.328775 -6.349457 0.348152
-2.342096 -6.344572 0.347833
-2.357016 -6.354454 0.348973
-2.370423 -6.350372 0.348755
-2.382710 -6.337235 0.347660
-2.399619 -6.361980 0.350300
-2.413920 -6.364782 0.350801
-2.424644 -6.340774 0.348677
-2.436735 -6.328164 0.347690
-2.448089 -6.311233 0.346291
-2.462097 -6.313148 0.346766
-2.477937 -6.326808 0.348420
-2.492484 -6.331443 0.349203
-2.503517 -6.314242 0.347842
-2.518351 -6.320573 0.348830
-2.532604 -6.323133 0.349464
-2.546085 -6.321155 0.349666
-2.558736 -6.314669 0.349439
-2.571927 -6.311328 0.349543
-2.586996 -6.317866 0.350653
-2.601398 -6.320624 0.351407
-2.614563 -6.317043 0.351546
-2.629908 -6.324103 0.352772
-2.643239 -6.321233 0.353021
-2.649816 -6.287191 0.350147
-2.656910 -6.256889 0.347656
-2.672365 -6.264791 0.349040
-2.696280 -6.249680 0.348733
-2.709125 -6.246130 0.349011
-2.739344 -6.257243 0.351484
-2.752357 -6.254118 0.351861
-2.765170 -6.250237 0.352179
-2.773163 -6.228218 0.350642
-2.783989 -6.217388 0.350269
-2.798091 -6.218745 0.351172
-2.817820 -6.240043 0.354166
-2.828561 -6.228948 0.353814
-2.845654 -6.240026 0.355791
-2.853769 -6.220172 0.354550
-2.865831 -6.214028 0.354757
-2.883390 -6.225994 0.356886
-2.901390 -6.238873 0.359138
-2.913692 -6.233135 0.359440
-2.923575 -6.219898 0.358958
-2.944339 -6.240416 0.362089
-2.958108 -6.238999 0.362901
-2.990220 -6.249356 0.365997
-2.991797 -6.212220 0.362999
-3.001338 -6.198751 0.362560
-3.017147 -6.203157 0.364075
-3.044010 -6.159536 0.362485
-3.053378 -6.146647 0.362148
-3.063789 -6.136713 0.362145
-3.080965 -6.144392 0.364111
-3.096400 -6.147303 0.365568
-3.092715 -6.066797 0.358821
-3.056676 -5.944218 0.346116
-3.064631 -5.930992 0.345726
-3.075775 -5.925586 0.346231
-3.091097 -5.930039 0.347874
-3.109003 -5.940265 0.350200
-3.118711 -5.931287 0.350338
-3.127519 -5.920372 0.350259
-3.143930 -5.926628 0.352183
-3.165276 -5.943527 0.355372
-3.175507 -5.935599 0.355684
-3.185526 -5.927279 0.355958
-3.197210 -5.922580 0.356670
-3.211411 -5.923178 0.358023
-3.224624 -5.921575 0.359132
-3.234682 -5.913384 0.359468
-3.248177 -5.912253 0.360662
-3.263444 -5.914583 0.362292
-3.280931 -5.921150 0.364458
-3.297609 -5.925845 0.366422
-3.294830 -5.892472 0.363743
-3.305514 -5.885599 0.364310
-3.331830 -5.908471 0.368569
-3.350398 -5.916138 0.370984
-3.363523 -5.913383 0.372127
-3.375259 -5.907997 0.372957
-3.386737 -5.902123 0.373740
-3.399572 -5.898682 0.374846
-3.412724 -5.895745 0.376034
-3.426903 -5.894543 0.377463
-3.443207 -5.896930 0.379374
-3.462065 -5.903533 0.381858
-3.474440 -5.898793 0.382899
-3.489562 -5.898651 0.384560
-3.501811 -5.893568 0.385595
-3.510134 -5.881953 0.385785
-3.523360 -5.878458 0.387063
-3.540985 -5.882014 0.389304
-3.554153 -5.878206 0.390588
-3.569168 -5.877256 0.392280
-3.584920 -5.877335 0.394138
-3.600365 -5.876784 0.395939
-3.615122 -5.875032 0.397602
-3.633088 -5.878054 0.399952
-3.651231 -5.881124 0.402344
-3.667277 -5.880846 0.404303
-3.680590 -5.876370 0.405704
-3.693049 -5.870573 0.406942
-3.707707 -5.867915 0.408650
-3.721841 -5.864394 0.410263
-3.740507 -5.867219 0.412818
-3.757965 -5.868123 0.415134
-3.769991 -5.861268 0.416355
-3.789278 -5.864398 0.419066
-3.805287 -5.862813 0.421122
-3.825883 -5.867299 0.424115
-3.847086 -5.872335 0.427236
-3.856672 -5.861668 0.428040
-3.870663 -5.856819 0.429743
-3.881886 -5.848275 0.430912
-3.897041 -5.844787 0.432879
-3.909808 -5.838130 0.434389
-3.944966 -5.859759 0.440334
-3.961807 -5.857822 0.442668
-3.976189 -5.852682 0.444531
-3.993224 -5.850712 0.446929
-4.012241 -5.851004 0.449727
-4.011659 -5.827447 0.448713
-4.028425 -5.824879 0.451100
-4.047508 -5.824912 0.453948
-4.066877 -5.825087 0.456859
-4.095513 -5.835834 0.461568
-4.104640 -5.823735 0.462513
-4.129305 -5.829382 0.466463
-4.150518 -5.830835 0.469749
-4.172344 -5.832756 0.473155
-4.187381 -5.826930 0.475262
-4.197074 -5.815159 0.476350
-4.218312 -5.815978 0.479645
-4.234113 -5.810744 0.481900
-4.254994 -5.810851 0.485116
-4.277210 -5.812195 0.488575
-4.303147 -5.817242 0.492726
-4.320406 -5.813028 0.495219
-4.343568 -5.814801 0.498810
-4.357738 -5.807233 0.500684
-4.374189 -5.801962 0.502968
-4.388480 -5.794493 0.504821
-4.402083 -5.786352 0.506519
-4.420730 -5.783192 0.509128
-4.450677 -5.790970 0.513807
-4.472939 -5.791103 0.517005
-4.483033 -5.779528 0.517894
-4.493054 -5.768015 0.518727
-4.508111 -5.761365 0.520445
-4.530490 -5.761588 0.523457
-4.558674 -5.767114 0.527472
-4.574691 -5.761403 0.529181
-4.594524 -5.759229 0.531521
-4.605083 -5.748764 0.532095
-4.605199 -5.729191 0.530705
-4.589458 -5.695974 0.526383
-4.579872 -5.668729 0.523133
-4.582033 -5.652169 0.521952
-4.605466 -5.654239 0.524525
-4.614822 -5.644316 0.524490
-4.598085 -5.612520 0.519738
-4.596973 -5.594430 0.517720
-4.602053 -5.581867 0.516738
-4.603057 -5.566213 0.514975
-4.603092 -5.550095 0.512983
-4.614633 -5.543691 0.512941
-4.602471 -5.518315 0.508716
-4.610329 -5.509488 0.507914
-4.639949 -5.503541 0.508499
-4.644765 -5.492945 0.506984
-1.813644 -6.104578 0.285799
-1.822375 -6.107106 0.287617
-1.831747 -6.103446 0.288862
-1.841133 -6.101368 0.290185
-1.849588 -6.114820 0.292784
-1.859720 -6.106487 0.293460
-1.869890 -6.099060 0.294148
-1.880079 -6.093032 0.294893
-1.890285 -6.088680 0.295720
-1.899854 -6.099277 0.297803
-1.910010 -6.102265 0.299159
-1.920675 -6.097313 0.299750
-1.931349 -6.094878 0.300501
-1.941990 -6.096915 0.301591
-1.952873 -6.096073 0.302364
-1.963864 -6.095955 0.303142
-1.975011 -6.094559 0.303747
-1.986114 -6.101896 0.305089
-1.997519 -6.100372 0.305572
-2.009087 -6.092375 0.305411
-2.020672 -6.088518 0.305576
-2.032320 -6.089997 0.306180
-2.044057 -6.085905 0.306228
-2.055790 -6.074978 0.305604
-2.067677 -6.077448 0.306172
-2.079698 -6.081861 0.306884
-2.091766 -6.083366 0.307296
-2.103918 -6.085071 0.307695
-2.116278 -6.091068 0.308466
-2.128333 -6.085450 0.308137
-2.140144 -6.073831 0.307230
-2.153390 -6.095601 0.309401
-2.165179 -6.083106 0.308379
-2.185692 -6.232800 0.322401
-2.199200 -6.239386 0.323134
-2.214185 -6.267747 0.325883
-2.228807 -6.286506 0.327737
-2.244324 -6.314763 0.330472
-2.259695 -6.337479 0.332694
-2.275658 -6.364536 0.335322
-2.289971 -6.369596 0.335908
-2.304245 -6.373577 0.336400
-2.317122 -6.362623 0.335507
-2.329649 -6.349143 0.334386
-2.343252 -6.346911 0.334323
-2.359123 -6.365209 0.336188
-2.371297 -6.350039 0.334941
-2.385102 -6.349527 0.335076
-2.399850 -6.356529 0.335928
-2.416120 -6.374660 0.337838
-2.428614 -6.363488 0.337022
-2.437781 -6.329231 0.334056
-2.451277 -6.327145 0.334120
-2.466070 -6.333834 0.335027
-2.479830 -6.333359 0.335279
-2.493136 -6.330010 0.335279
-2.505216 -6.319311 0.334603
-2.517212 -6.308671 0.333950
-2.533497 -6.323315 0.335703
-2.546486 -6.318601 0.335647
-2.559090 -6.311969 0.335428
-2.571949 -6.306967 0.335380
-2.583843 -6.297136 0.334892
-2.599340 -6.305971 0.336198
-2.614132 -6.310825 0.337147
-2.632379 -6.332071 0.339684
-2.642729 -6.314976 0.338576
-2.648540 -6.277605 0.335534
-2.660063 -6.267573 0.335127
-2.672488 -6.261871 0.335152
-2.685762 -6.259986 0.335563
-2.698850 -6.257301 0.335915
-2.712792 -6.258174 0.336630
-2.722745 -6.242682 0.335771
-2.731927 -6.224622 0.334673
-2.753800 -6.256803 0.338497
-2.768038 -6.258361 0.339354
-2.780456 -6.252897 0.339539
-2.786197 -6.222827 0.337316
-2.803819 -6.236884 0.339454
-2.815310 -6.228455 0.339390
-2.828604 -6.226528 0.339985
-2.840258 -6.218905 0.340029
-2.852961 -6.214975 0.340454
-2.866632 -6.214287 0.341220
-2.883117 -6.222722 0.342920
-2.900784 -6.234573 0.344987
-2.915780 -6.237455 0.346171
-2.934338 -6.251244 0.348480
-2.944771 -6.239511 0.348218
-2.953254 -6.222116 0.347385
-2.970461 -6.231121 0.349265
-2.977649 -6.210320 0.348101
-2.989947 -6.204788 0.348515
-3.002167 -6.199069 0.348922
-3.020481 -6.210501 0.351125
-3.031965 -6.202576 0.351333
-3.036438 -6.175620 0.349560
-3.044656 -6.159364 0.348906
-3.055123 -6.149396 0.348920
-3.069394 -6.149526 0.350011
-3.082815 -6.147333 0.350872
-3.101939 -6.123349 0.350537
-3.064801 -5.962468 0.335448
-3.067078 -5.935296 0.333597
-3.077668 -5.928516 0.333958
-3.093600 -5.934358 0.335707
-3.108937 -5.938546 0.337296
-3.113574 -5.917957 0.336174
-3.129355 -5.923009 0.337886
-3.146245 -5.930296 0.339868
-3.164935 -5.941263 0.342283
-3.179314 -5.942421 0.343626
-3.185376 -5.925478 0.342948
-3.198122 -5.923067 0.343913
-3.211829 -5.922611 0.345115
-3.223944 -5.918724 0.345942
-3.236203 -5.915098 0.346813
-3.249854 -5.914259 0.348018
-3.266065 -5.918460 0.349823
-3.279923 -5.917759 0.351081
-3.295745 -5.920805 0.352794
-3.304037 -5.909020 0.352788
-3.313504 -5.899623 0.353070
-3.334936 -5.913043 0.356064
-3.377519 -5.910856 0.360154
-3.392676 -5.911644 0.361740
-3.403108 -5.903777 0.362297
-3.411769 -5.892792 0.362485
-3.427351 -5.894090 0.364187
-3.447233 -5.902714 0.366818
-3.459475 -5.897849 0.367810
-3.474538 -5.897758 0.369413
-3.490926 -5.899763 0.371303
-3.501232 -5.891426 0.371917
-3.511733 -5.883440 0.372588
-3.524816 -5.879699 0.373814
-3.544271 -5.886206 0.376373
-3.559336 -5.885399 0.378025
-3.574243 -5.884210 0.379653
-3.590935 -5.885699 0.381656
-3.602532 -5.879086 0.382627
-3.613542 -5.871549 0.383495
-3.628438 -5.869930 0.385165
-3.644517 -5.869974 0.387083
-3.663185 -5.873727 0.389529
-3.683872 -5.880232 0.392383
-3.698217 -5.877165 0.393980
-3.708797 -5.868540 0.394845
-3.721504 -5.862973 0.396148
-3.737335 -5.861788 0.398081
-3.753900 -5.861494 0.400170
-3.771737 -5.862811 0.402518
-3.788452 -5.862384 0.404658
-3.808093 -5.865794 0.407378
-3.822307 -5.861617 0.409057
-3.843337 -5.866483 0.412066
-3.859629 -5.864787 0.414171
-3.871400 -5.857000 0.415424
-3.886386 -5.853367 0.417309
-3.895821 -5.842461 0.418151
-3.919699 -5.850031 0.421761
-3.948760 -5.863831 0.426359
-3.962597 -5.858100 0.428079
-3.974427 -5.849797 0.429437
-3.988365 -5.844054 0.431209
-3.995871 -5.830392 0.431789
-4.005234 -5.819039 0.432736
-4.018037 -5.811821 0.434346
-4.046597 -5.823198 0.438911
-4.062471 -5.819293 0.441115
-4.078210 -5.815111 0.443305
-4.096964 -5.814284 0.446065
-4.123559 -5.822217 0.450285
-4.146434 -5.825606 0.453817
-4.173908 -5.833884 0.458202
-4.189492 -5.828642 0.460393
-4.202463 -5.820443 0.462108
-4.210564 -5.806915 0.462933
-4.238963 -5.815315 0.467484
-4.256926 -5.812242 0.470116
-4.279056 -5.813454 0.473504
-4.292273 -5.805139 0.475255
-4.336005 -5.828460 0.482558
-4.353312 -5.824032 0.485026
-4.369761 -5.818655 0.487322
-4.381465 -5.808443 0.488739
-4.395346 -5.800449 0.490530
-4.410681 -5.793910 0.492560
-4.431292 -5.792541 0.495512
-4.457354 -5.796381 0.499409
-4.475248 -5.792179 0.501794
-4.485602 -5.780762 0.502785
-4.496888 -5.770349 0.503901
-4.513559 -5.765099 0.505934
-4.535729 -5.764991 0.508892
-4.550727 -5.758235 0.510514
-4.575187 -5.760198 0.513753
-4.594108 -5.757092 0.515941
-4.605397 -5.747187 0.516712
-4.600700 -5.723238 0.514606
-4.592131 -5.696295 0.511768
-4.589198 -5.674759 0.509866
-4.587930 -5.655060 0.508198
-4.610852 -5.656531 0.510673
-4.625494 -5.650972 0.511625
-4.608787 -5.619049 0.507094
-4.602598 -5.596533 0.504329
-4.607115 -5.583365 0.503344
-4.608228 -5.567677 0.501713
-4.612780 -5.555141 0.500605
-4.612389 -5.538870 0.498598
-4.611929 -5.522889 0.496525
-4.605977 -5.502845 0.493479
-4.610479 -5.491520 0.492132
-4.635043 -5.496323 0.494051
-4.595581 -5.450932 0.485329
-1.811778 -6.111865 0.275647
-1.820959 -6.109849 0.277038
-1.829707 -6.115357 0.278983
-1.839141 -6.114133 0.280333
-1.848675 -6.113605 0.281683
-1.859068 -6.102348 0.282093
-1.870025 -6.083211 0.281783
-1.880192 -6.077847 0.282541
-1.890263 -6.076279 0.283553
-1.899770 -6.088569 0.285668
-1.909659 -6.097946 0.287487
-1.920364 -6.093473 0.288078
-1.930873 -6.096814 0.289270
-1.941461 -6.102733 0.290625
-1.952356 -6.104692 0.291584
-1.963821 -6.090784 0.291122
-1.974767 -6.100644 0.292646
-1.986041 -6.103741 0.293534
-1.997481 -6.105276 0.294235
-2.009179 -6.092638 0.293654
-2.020845 -6.085241 0.293476
-2.032540 -6.085903 0.293953
-2.044358 -6.092786 0.294930
-2.056152 -6.079201 0.294077
-2.068013 -6.074091 0.293927
-2.080148 -6.083144 0.294984
-2.092283 -6.085404 0.295414
-2.104374 -6.082869 0.295396
-2.116636 -6.084795 0.295745
-2.128681 -6.078752 0.295370
-2.140829 -6.075475 0.295220
-2.153052 -6.073679 0.295184
-2.165556 -6.077113 0.295595
-2.185537 -6.216428 0.307979
-2.200501 -6.248477 0.310901
-2.214407 -6.258873 0.311908
-2.229209 -6.280535 0.313907
-2.244831 -6.310308 0.316623
-2.261904 -6.354809 0.320642
-2.277101 -6.371414 0.322202
-2.291135 -6.372798 0.322422
-2.304523 -6.366931 0.322007
-2.317409 -6.356369 0.321184
-2.330023 -6.344055 0.320215
-2.344172 -6.347151 0.320621
-2.358429 -6.350891 0.321096
-2.372293 -6.350890 0.321253
-2.385618 -6.346385 0.321025
-2.400864 -6.357460 0.322194
-2.417366 -6.377309 0.324161
-2.430979 -6.374368 0.324119
-2.441000 -6.345932 0.321825
-2.452833 -6.331852 0.320823
-2.467310 -6.336294 0.321488
-2.480984 -6.335217 0.321680
-2.494970 -6.336123 0.322067
-2.506527 -6.322106 0.321137
-2.518020 -6.308455 0.320256
-2.531469 -6.306772 0.320465
-2.548810 -6.326949 0.322658
-2.560942 -6.317558 0.322214
-2.572627 -6.306204 0.321609
-2.582866 -6.287851 0.320388
-2.594823 -6.279010 0.320041
-2.613619 -6.304311 0.322806
-2.630533 -6.319272 0.324660
-2.638989 -6.293583 0.322838
-2.649195 -6.277025 0.321860
-2.663654 -6.280284 0.322705
-2.675088 -6.269960 0.322326
-2.685446 -6.255330 0.321566
-2.699602 -6.257281 0.322345
-2.715494 -6.266255 0.323791
-2.725444 -6.250622 0.322984
-2.734828 -6.233245 0.322026
-2.754776 -6.257721 0.324968
-2.773163 -6.275180 0.327285
-2.775226 -6.230444 0.323819
-2.790969 -6.237785 0.325227
-2.806062 -6.242391 0.326398
-2.816816 -6.231251 0.326107
-2.827420 -6.219864 0.325803
-2.841560 -6.220924 0.326689
-2.857900 -6.229277 0.328287
-2.866858 -6.212668 0.327526
-2.882178 -6.217312 0.328805
-2.899185 -6.227120 0.330599
-2.916361 -6.237029 0.332425
-2.933136 -6.245254 0.334112
-2.942379 -6.229969 0.333542
-2.951611 -6.214996 0.333009
-2.960500 -6.199333 0.332415
-2.975507 -6.201959 0.333617
-2.987619 -6.196014 0.333996
-3.005533 -6.206635 0.336020
-3.022286 -6.213567 0.337703
-3.037075 -6.214738 0.338834
-3.050709 -6.173741 0.336809
-3.058392 -6.156199 0.336094
-3.067560 -6.142888 0.335809
-3.078582 -6.134594 0.336037
-3.088648 -6.123962 0.336036
-3.093845 -6.101261 0.334811
-3.065662 -5.962942 0.322787
-3.071301 -5.943887 0.321889
-3.082662 -5.938833 0.322443
-3.098288 -5.943812 0.324053
-3.111300 -5.942475 0.325022
-3.122006 -5.935762 0.325440
-3.131685 -5.926764 0.325626
-3.148650 -5.934164 0.327557
-3.166476 -5.943158 0.329681
-3.177756 -5.937525 0.330265
-3.186405 -5.926225 0.330251
-3.196974 -5.919160 0.330699
-3.212849 -5.923310 0.332372
-3.224973 -5.919430 0.333192
-3.238692 -5.918794 0.334379
-3.255064 -5.923440 0.336164
-3.267295 -5.919531 0.337025
-3.283834 -5.924140 0.338846
-3.294666 -5.917304 0.339412
-3.304422 -5.908404 0.339759
-3.314916 -5.900988 0.340280
-3.336672 -5.914996 0.343238
-3.359923 -5.931373 0.346499
-3.367786 -5.918670 0.346474
-3.375131 -5.905159 0.346361
-3.393959 -5.912675 0.348681
-3.404111 -5.904300 0.349186
-3.415171 -5.897580 0.349894
-3.433067 -5.902897 0.352028
-3.446830 -5.900768 0.353312
-3.457291 -5.892856 0.353929
-3.470200 -5.889143 0.355060
-3.488451 -5.894381 0.357281
-3.500167 -5.888458 0.358188
-3.511830 -5.882427 0.359097
-3.527241 -5.882505 0.360768
-3.545200 -5.886562 0.362951
-3.558625 -5.883126 0.364242
-3.575372 -5.884879 0.366197
-3.590461 -5.883847 0.367834
-3.604180 -5.880555 0.369213
-3.613225 -5.869988 0.369697
-3.625591 -5.864538 0.370843
-3.641918 -5.865014 0.372766
-3.658841 -5.866213 0.374813
-3.685312 -5.881345 0.378692
-3.701014 -5.880258 0.380517
-3.712435 -5.872830 0.381541
-3.723298 -5.864582 0.382478
-3.737654 -5.861295 0.384090
-3.753839 -5.860478 0.386060
-3.772991 -5.863645 0.388598
-3.792903 -5.867628 0.391286
-3.812496 -5.870926 0.393923
-3.831416 -5.873077 0.396445
-3.830529 -5.848468 0.395317
-3.838733 -5.836218 0.395895
-3.881596 -5.869586 0.402867
-3.892935 -5.861094 0.404048
-3.903670 -5.851803 0.405137
-3.918049 -5.847157 0.406909
-3.942713 -5.855426 0.410570
-3.966465 -5.862206 0.414073
-3.979208 -5.855006 0.415589
-3.987114 -5.841807 0.416249
-3.996300 -5.830224 0.417159
-4.009450 -5.823448 0.418803
-4.027364 -5.822298 0.421318
-4.056406 -5.834146 0.425840
-4.071394 -5.829103 0.427851
-4.080236 -5.816822 0.428777
-4.096159 -5.812723 0.430981
-4.116662 -5.813723 0.434011
-4.140376 -5.818135 0.437619
-4.164226 -5.822422 0.441254
-4.186049 -5.824191 0.444533
-4.190927 -5.807145 0.444816
-4.219609 -5.816098 0.449315
-4.238098 -5.813721 0.452011
-4.264459 -5.819600 0.456092
-4.272567 -5.805905 0.456955
-4.285186 -5.797008 0.458610
-4.309716 -5.800455 0.462349
-4.352541 -5.822463 0.469277
-4.372266 -5.820395 0.472140
-4.386494 -5.812665 0.474024
-4.402666 -5.806871 0.476228
-4.418840 -5.801048 0.478410
-4.442574 -5.802612 0.481879
-4.459957 -5.797856 0.484211
-4.474798 -5.790627 0.486067
-4.482442 -5.776564 0.486641
-4.498594 -5.770707 0.488646
-4.519506 -5.769337 0.491424
-4.537169 -5.764908 0.493590
-4.559247 -5.764568 0.496457
-4.575484 -5.758864 0.498262
-4.593634 -5.754961 0.500331
-4.597978 -5.738738 0.499980
-4.595861 -5.717049 0.498473
-4.591306 -5.693593 0.496497
-4.597052 -5.679550 0.496208
-4.607247 -5.669629 0.496603
-4.598557 -5.643692 0.493755
-4.594832 -5.622464 0.491686
-4.606984 -5.615057 0.492206
-4.601169 -5.592779 0.489665
-4.604389 -5.578445 0.488565
-4.610344 -5.566676 0.487851
-4.611636 -5.551363 0.486303
-4.616756 -5.539491 0.485320
-4.611342 -5.519403 0.482558
-4.607745 -5.501174 0.480042
-4.612182 -5.489704 0.478773
-4.589099 -5.456800 0.473031
-4.611208 -5.459877 0.474488
-4.601318 -5.438135 0.470782
-1.802060 -6.106885 0.262913
-1.810450 -6.113107 0.264928
-1.819323 -6.115790 0.266631
-1.828119 -6.121771 0.268536
-1.837806 -6.118331 0.269666
-1.847611 -6.115134 0.270755
-1.858706 -6.094499 0.270422
-1.868617 -6.092907 0.271508
-1.878494 -6.094370 0.272774
-1.889122 -6.085133 0.273132
-1.899191 -6.088474 0.274426
-1.909217 -6.096492 0.276036
-1.919746 -6.097700 0.277045
-1.930222 -6.104240 0.278424
-1.940871 -6.111361 0.279795
-1.952213 -6.102343 0.279798
-1.963426 -6.100303 0.280308
-1.974639 -6.103105 0.281158
-1.986028 -6.104220 0.281817
-1.997563 -6.103829 0.282300
-2.009339 -6.088896 0.281535
-2.021049 -6.081751 0.281361
-2.032785 -6.084209 0.281935
-2.044654 -6.091894 0.282902
-2.056690 -6.101314 0.283976
-2.068478 -6.079163 0.282393
-2.080626 -6.085015 0.283103
-2.092841 -6.088516 0.283590
-2.104910 -6.083192 0.283315
-2.117066 -6.080523 0.283238
-2.129338 -6.080416 0.283355
-2.141502 -6.076666 0.283150
-2.153769 -6.075115 0.283115
-2.166041 -6.073302 0.283046
-2.186810 -6.226235 0.295896
-2.200976 -6.243638 0.297421
-2.214724 -6.251597 0.298154
-2.228993 -6.265730 0.299401
-2.245063 -6.302235 0.302520
-2.261317 -6.336477 0.305454
-2.276945 -6.359134 0.307424
-2.290950 -6.360765 0.307642
-2.304543 -6.357678 0.307472
-2.317237 -6.345598 0.306557
-2.330870 -6.343750 0.306509
-2.343916 -6.336522 0.306022
-2.358454 -6.343217 0.306715
-2.372280 -6.343207 0.306860
-2.386283 -6.344622 0.307139
-2.401565 -6.356041 0.308274
-2.416729 -6.365692 0.309279
-2.430130 -6.361620 0.309146
-2.441802 -6.345476 0.308012
-2.454654 -6.338489 0.307666
-2.467799 -6.333859 0.307536
-2.482120 -6.337071 0.308086
-2.496332 -6.339371 0.308578
-2.508379 -6.328302 0.307957
-2.517880 -6.302747 0.306122
-2.533311 -6.312661 0.307315
-2.549886 -6.328387 0.309025
-2.563976 -6.329679 0.309527
-2.575371 -6.316524 0.308815
-2.586048 -6.300235 0.307851
-2.597048 -6.286297 0.307102
-2.612886 -6.296819 0.308468
-2.628929 -6.307764 0.309894
-2.641356 -6.301094 0.309823
-2.650914 -6.281425 0.308645
-2.664728 -6.281701 0.309207
-2.676882 -6.274554 0.309142
-2.686326 -6.255915 0.308094
-2.700891 -6.259600 0.309003
-2.714736 -6.260053 0.309649
-2.728964 -6.261942 0.310440
-2.754228 -6.252742 0.310933
-2.763939 -6.237052 0.310224
-2.776023 -6.230758 0.310356
-2.791510 -6.237145 0.311629
-2.807755 -6.245938 0.313137
-2.819013 -6.236551 0.313043
-2.830144 -6.226931 0.312939
-2.847137 -6.237686 0.314678
-2.859985 -6.233945 0.315133
-2.871595 -6.226097 0.315231
-2.882470 -6.215979 0.315135
-2.899900 -6.227160 0.316989
-2.915458 -6.231937 0.318280
-2.929189 -6.230749 0.319044
-2.940011 -6.220544 0.318993
-2.947322 -6.199924 0.317990
-2.957934 -6.189626 0.317946
-2.972739 -6.191798 0.319071
-2.996060 -6.218367 0.322490
-3.011269 -6.220957 0.323697
-3.029979 -6.233159 0.325825
-3.046034 -6.237540 0.327240
-3.055913 -6.224846 0.327055
-3.056754 -6.188097 0.324588
-3.058906 -6.155708 0.322525
-3.065712 -6.136238 0.321693
