ply
format ascii 1.0
comment ---
element vertex 1594
property float x
property float y
property float z
element face 0
property list uchar uint vertex_indices
end_header
-2.532734 -6.336221 -0.297387
-2.547108 -6.335477 -0.297559
-2.562011 -6.337695 -0.298156
-2.574153 -6.323706 -0.296424
-2.586901 -6.313739 -0.295271
-2.598648 -6.298735 -0.293394
-2.612092 -6.293414 -0.292914
-2.629364 -6.308046 -0.295318
-2.642595 -6.301519 -0.294677
-2.656201 -6.297089 -0.294346
-2.668164 -6.284937 -0.292907
-2.681306 -6.278826 -0.292348
-2.691698 -6.260373 -0.290011
-2.708045 -6.269316 -0.291650
-2.721199 -6.263864 -0.291213
-2.735957 -6.265467 -0.291811
-2.748256 -6.256663 -0.290910
-2.762602 -6.256575 -0.291285
-2.775514 -6.250677 -0.290826
-2.788258 -6.244309 -0.290310
-2.802027 -6.242093 -0.290410
-2.822020 -6.263469 -0.293967
-2.832577 -6.248937 -0.292294
-2.844881 -6.241251 -0.291632
-2.856791 -6.232369 -0.290805
-2.871020 -6.231888 -0.291220
-2.887623 -6.239550 -0.292844
-2.905621 -6.251608 -0.295130
-2.921681 -6.256710 -0.296409
-2.934946 -6.252391 -0.296315
-2.945381 -6.239004 -0.294894
-2.962409 -6.201253 -0.290450
-2.982418 -6.218445 -0.293581
-3.003115 -6.237081 -0.296946
-3.021268 -6.247465 -0.299105
-3.033883 -6.241189 -0.298802
-3.048867 -6.241833 -0.299540
-3.045007 -6.188743 -0.292268
-3.052246 -6.168204 -0.289851
-3.055435 -6.136962 -0.285833
-3.067492 -6.130637 -0.285551
-3.075974 -6.003610 -0.269139
-3.069568 -5.952060 -0.262027
-3.080695 -5.945680 -0.261746
-3.091734 -5.939130 -0.261446
-3.104603 -5.937090 -0.261839
-3.118940 -5.938511 -0.262768
-3.134045 -5.941591 -0.263962
-3.146531 -5.938322 -0.264196
-3.158165 -5.933034 -0.264129
-3.172239 -5.933322 -0.264925
-3.187923 -5.937107 -0.266270
-3.202548 -5.938299 -0.267227
-3.214932 -5.934396 -0.267407
-3.226516 -5.928710 -0.267318
-3.238290 -5.923435 -0.267299
-3.251757 -5.921740 -0.267843
-3.265432 -5.920382 -0.268448
-3.283368 -5.927743 -0.270423
-3.297902 -5.927826 -0.271273
-3.311082 -5.925025 -0.271681
-3.323224 -5.920070 -0.271757
-3.336064 -5.916467 -0.272053
-3.349385 -5.913741 -0.272493
-3.362581 -5.910693 -0.272890
-3.379249 -5.914199 -0.274333
-3.393074 -5.912113 -0.274899
-3.406331 -5.908866 -0.275288
-3.419164 -5.904762 -0.275547
-3.432570 -5.901649 -0.275970
-3.446831 -5.899999 -0.276635
-3.462368 -5.900521 -0.277657
-3.476776 -5.898886 -0.278340
-3.490521 -5.895979 -0.278826
-3.506578 -5.896985 -0.279953
-3.522994 -5.898433 -0.281161
-3.538547 -5.898240 -0.282113
-3.552529 -5.895274 -0.282621
-3.567837 -5.894413 -0.283480
-3.583753 -5.894418 -0.284490
-3.597801 -5.891243 -0.284987
-3.611342 -5.887167 -0.285342
-3.623598 -5.880982 -0.285355
-3.638360 -5.878715 -0.286021
-3.654023 -5.877744 -0.286910
-3.671056 -5.878751 -0.288137
-3.695318 -5.890604 -0.291184
-3.707162 -5.883326 -0.291051
-3.718009 -5.874552 -0.290671
-3.735566 -5.875723 -0.291965
-3.756024 -5.880963 -0.293957
-3.774626 -5.883255 -0.295466
-3.790870 -5.881961 -0.296379
-3.800530 -5.871184 -0.295690
-3.814098 -5.865960 -0.295949
-3.835632 -5.871777 -0.298101
-3.847930 -5.864586 -0.298040
-3.863715 -5.862140 -0.298799
-3.885522 -5.867728 -0.300952
-3.905386 -5.870445 -0.302627
-3.915081 -5.859466 -0.301941
-3.929764 -5.855088 -0.302405
-3.944438 -5.850623 -0.302862
-3.965326 -5.854087 -0.304714
-3.980731 -5.850328 -0.305315
-3.993683 -5.843377 -0.305365
-4.014933 -5.846782 -0.307248
-4.045756 -5.861825 -0.311208
-4.058107 -5.853735 -0.311093
-4.078739 -5.855701 -0.312774
-4.090288 -5.846519 -0.312481
-4.108019 -5.844719 -0.313516
-4.132415 -5.850661 -0.315956
-4.151030 -5.849550 -0.317148
-4.166605 -5.844761 -0.317689
-4.181325 -5.838902 -0.318048
-4.200444 -5.837985 -0.319317
-4.221753 -5.839378 -0.321025
-4.237365 -5.834200 -0.321549
-4.254587 -5.830720 -0.322398
-4.276657 -5.832439 -0.324220
-4.294823 -5.829702 -0.325240
-4.308993 -5.822526 -0.325453
-4.320604 -5.812567 -0.325158
-4.348843 -5.820173 -0.328157
-4.365452 -5.815272 -0.328841
-4.380666 -5.808820 -0.329249
-4.396828 -5.803267 -0.329841
-4.413995 -5.798642 -0.330625
-4.431141 -5.793880 -0.331402
-4.449908 -5.790626 -0.332485
-4.467861 -5.786422 -0.333407
-4.484843 -5.781134 -0.334140
-4.502788 -5.776671 -0.335053
-4.523710 -5.774948 -0.336519
-4.544816 -5.773215 -0.338009
-4.561351 -5.766977 -0.338644
-4.573913 -5.756912 -0.338548
-4.582265 -5.742904 -0.337688
-4.590269 -5.728610 -0.336781
-4.598268 -5.714350 -0.335889
-4.602991 -5.697169 -0.334423
-4.587487 -5.661995 -0.329350
-4.583705 -5.637623 -0.326427
-4.582450 -5.615688 -0.323989
-4.585880 -5.598000 -0.322411
-4.594974 -5.585280 -0.321853
-4.600754 -5.569735 -0.320727
-4.599192 -5.548038 -0.318340
-4.585780 -5.516593 -0.313930
-4.587676 -5.498182 -0.312210
-4.598101 -5.486876 -0.311980
-4.600479 -5.468993 -0.310384
-4.596576 -5.446143 -0.307741
-4.586008 -5.418161 -0.304001
-4.584185 -5.397370 -0.301778
-4.572533 -5.369036 -0.297932
-4.560730 -5.340878 -0.294103
-4.561161 -5.322392 -0.292352
-4.563523 -5.305477 -0.290943
-4.565328 -5.288214 -0.289462
-4.565907 -5.270118 -0.287799
-4.554919 -5.243588 -0.284265
-4.545549 -5.218503 -0.281032
-4.569864 -5.217998 -0.283297
-4.607274 -5.226608 -0.287665
-4.646033 -5.235733 -0.292221
-4.652508 -5.221773 -0.291572
-4.672722 -5.217356 -0.293125
-4.707424 -5.222706 -0.296974
-4.731143 -5.220207 -0.299058
-4.722613 -5.195792 -0.296042
-4.712290 -5.170414 -0.292770
-4.725429 -5.160749 -0.293198
-4.730309 -5.073590 -0.285943
-4.752549 -5.069668 -0.287766
-4.754478 -5.053182 -0.286475
-4.750383 -5.033185 -0.284273
-4.747921 -5.014384 -0.282324
-4.756032 -5.002053 -0.281971
-4.753735 -4.983705 -0.280048
-4.752109 -4.965969 -0.278225
-4.749909 -4.948130 -0.276315
-4.748070 -4.930736 -0.274455
-4.776439 -4.930545 -0.277049
-4.745515 -4.897319 -0.270885
-4.730444 -4.873414 -0.267070
-4.758125 -4.873184 -0.269494
-4.755479 -4.856581 -0.267471
-4.763853 -4.846148 -0.267030
-4.721427 -4.809119 -0.259254
-4.744841 -4.807192 -0.260952
-4.727414 -4.784205 -0.256778
-4.733130 -4.773529 -0.255899
-2.267199 -6.405064 -0.311801
-2.278238 -6.387796 -0.310056
-2.314244 -6.365970 -0.308912
-2.325316 -6.345016 -0.306451
-2.382301 -6.382988 -0.314091
-2.406716 -6.354196 -0.310726
-2.418769 -6.338657 -0.308835
-2.431958 -6.332550 -0.308310
-2.447242 -6.342343 -0.310113
-2.464186 -6.363136 -0.313528
-2.477683 -6.357089 -0.312967
-2.490892 -6.348945 -0.312085
-2.505010 -6.347020 -0.312112
-2.517782 -6.336083 -0.310798
-2.531257 -6.329948 -0.310190
-2.544882 -6.324832 -0.309728
-2.557620 -6.314528 -0.308495
-2.568859 -6.295986 -0.306036
-2.584577 -6.303415 -0.307437
-2.599507 -6.306010 -0.308123
-2.614938 -6.311013 -0.309174
-2.628353 -6.305238 -0.308625
-2.640467 -6.293119 -0.307138
-2.653103 -6.284089 -0.306115
-2.669653 -6.294203 -0.307958
-2.680849 -6.278713 -0.305987
-2.693084 -6.268638 -0.304831
-2.707031 -6.266623 -0.304891
-2.721137 -6.265349 -0.305071
-2.735637 -6.265767 -0.305517
-2.750698 -6.268474 -0.306318
-2.764683 -6.266610 -0.306445
-2.776064 -6.254312 -0.305016
-2.788431 -6.246336 -0.304246
-2.805877 -6.258232 -0.306481
-2.821203 -6.261584 -0.307444
-2.830007 -6.240524 -0.304735
-2.842072 -6.232076 -0.303939
-2.854563 -6.225393 -0.303420
-2.868689 -6.224635 -0.303810
-2.886716 -6.237302 -0.306250
-2.903123 -6.243961 -0.307795
-2.917186 -6.242492 -0.308120
-2.953584 -6.314250 -0.319609
-2.945020 -6.238510 -0.308650
-2.954895 -6.223659 -0.306970
-2.964032 -6.206892 -0.305004
-3.005803 -6.245701 -0.312183
-3.017034 -6.235309 -0.311230
-3.023249 -6.210420 -0.308055
-3.024887 -6.172955 -0.302945
-3.050673 -6.164091 -0.302916
-3.059316 -6.147939 -0.301104
-3.064190 -6.121874 -0.297758
-3.079667 -6.124888 -0.298927
-3.099538 -6.101387 -0.296705
-3.073001 -5.996070 -0.280998
-3.068143 -5.948528 -0.274279
-3.079460 -5.942652 -0.274070
-3.093085 -5.942509 -0.274768
-3.105512 -5.939329 -0.275000
-3.121236 -5.944039 -0.276483
-3.133047 -5.939206 -0.276473
-3.143488 -5.931156 -0.275963
-3.156630 -5.929430 -0.276460
-3.172003 -5.932717 -0.277762
-3.188195 -5.937638 -0.279336
-3.201711 -5.936338 -0.279932
-3.212973 -5.929974 -0.279729
-3.224484 -5.924171 -0.279622
-3.237154 -5.920860 -0.279920
-3.248487 -5.914654 -0.279761
-3.267393 -5.924333 -0.282165
-3.277763 -5.915961 -0.281673
-3.297783 -5.927402 -0.284389
-3.311018 -5.924704 -0.284832
-3.324158 -5.921740 -0.285239
-3.336894 -5.917898 -0.285510
-3.350557 -5.915816 -0.286076
-3.364183 -5.913563 -0.286622
-3.372356 -5.900802 -0.285454
-3.391431 -5.908770 -0.287690
-3.404013 -5.904291 -0.287893
-3.417646 -5.901707 -0.288415
-3.432995 -5.902165 -0.289447
-3.446013 -5.898258 -0.289765
-3.457821 -5.892127 -0.289721
-3.478178 -5.901086 -0.292194
-3.492086 -5.898432 -0.292745
-3.507639 -5.898531 -0.293764
-3.521921 -5.896306 -0.294403
-3.536361 -5.894244 -0.295077
-3.549478 -5.889863 -0.295369
-3.565924 -5.890937 -0.296588
-3.583860 -5.894281 -0.298202
-3.598998 -5.892868 -0.299020
-3.609568 -5.883999 -0.298579
-3.625844 -5.884227 -0.299692
-3.640461 -5.881691 -0.300342
-3.651582 -5.873615 -0.300049
-3.670572 -5.877670 -0.301846
-3.692879 -5.886546 -0.304489
-3.709599 -5.886659 -0.305634
-3.721633 -5.879618 -0.305550
-3.735379 -5.875096 -0.305908
-3.751840 -5.874483 -0.306954
-3.782078 -5.893693 -0.311475
-3.792820 -5.884395 -0.311028
-3.804096 -5.875883 -0.310723
-3.816578 -5.869078 -0.310721
-3.830670 -5.864492 -0.311116
-3.849697 -5.866644 -0.312713
-3.865181 -5.863759 -0.313429
-3.883481 -5.864580 -0.314814
-3.897138 -5.859009 -0.315070
-3.939733 -5.867778 -0.319183
-3.978388 -5.870501 -0.322273
-3.993391 -5.866062 -0.322789
-4.005332 -5.857675 -0.322597
-4.020617 -5.853467 -0.323171
-4.037750 -5.851467 -0.324160
-4.057662 -5.852748 -0.325764
-4.072522 -5.847694 -0.326218
-4.089942 -5.845652 -0.327239
-4.106778 -5.842780 -0.328119
-4.128169 -5.845176 -0.329992
-4.153036 -5.851426 -0.332603
-4.168807 -5.846834 -0.333211
-4.181676 -5.838818 -0.333188
-4.204825 -5.842477 -0.335372
-4.219611 -5.836458 -0.335751
-4.235383 -5.831474 -0.336338
-4.254708 -5.830334 -0.337669
-4.274057 -5.829059 -0.338993
-4.290156 -5.824093 -0.339630
-4.302979 -5.815506 -0.339585
-4.322123 -5.813631 -0.340845
-4.346911 -5.817564 -0.343248
-4.364608 -5.813810 -0.344187
-4.378698 -5.806192 -0.344392
-4.397048 -5.802895 -0.345455
-4.415094 -5.799152 -0.346450
-4.432629 -5.794761 -0.347338
-4.448881 -5.788969 -0.347969
-4.467697 -5.785615 -0.349102
-4.485039 -5.780671 -0.349940
-4.502879 -5.776092 -0.350872
-4.525496 -5.775986 -0.352725
-4.545299 -5.772981 -0.354023
-4.563015 -5.767840 -0.354915
-4.575561 -5.757733 -0.354819
-4.583481 -5.743300 -0.353856
-4.588230 -5.725993 -0.352311
-4.594816 -5.710452 -0.351135
-4.594383 -5.688638 -0.348668
-4.592566 -5.665762 -0.345976
-4.590074 -5.642481 -0.343194
-4.590153 -5.621655 -0.340920
-4.587012 -5.598184 -0.338087
-4.596321 -5.585628 -0.337555
-4.598779 -5.567228 -0.335795
-4.598207 -5.546374 -0.333515
-4.590125 -5.519387 -0.329916
-4.599226 -5.506900 -0.329428
-4.595132 -5.483576 -0.326607
-4.594370 -5.463155 -0.324410
-4.580584 -5.432388 -0.319947
-4.577131 -5.410196 -0.317345
-4.573584 -5.388103 -0.314758
-4.575321 -5.370313 -0.313120
-4.575709 -5.351565 -0.311272
-4.560900 -5.321274 -0.306829
-4.558502 -5.300737 -0.304562
-4.557177 -5.281150 -0.302505
-4.539235 -5.249322 -0.297647
-4.543663 -5.234346 -0.296626
-4.534541 -5.209521 -0.293335
-4.563697 -5.212576 -0.296506
-4.620698 -5.235218 -0.304316
-4.638151 -5.229146 -0.305479
-4.665593 -5.229925 -0.308296
-4.684882 -5.224763 -0.309749
-4.677924 -5.201417 -0.306875
-4.708713 -5.203918 -0.310215
-4.727650 -5.198131 -0.311597
-4.713100 -5.169911 -0.307524
-4.767935 -5.132329 -0.309652
-4.784069 -5.106163 -0.308886
-4.751088 -5.067777 -0.302003
-4.756869 -5.053674 -0.301276
-4.745656 -5.029380 -0.297878
-4.746173 -5.012418 -0.296331
-4.756515 -5.001443 -0.296314
-4.759324 -4.986114 -0.295115
-4.745416 -4.961261 -0.291325
-4.746590 -4.945434 -0.289871
-4.754953 -4.933886 -0.289511
-4.760432 -4.920845 -0.288694
-4.744749 -4.896228 -0.284641
-4.759849 -4.888953 -0.285261
-4.740689 -4.863133 -0.280682
-4.755976 -4.856328 -0.281290
-4.753087 -4.839947 -0.279146
-4.744795 -4.821030 -0.276187
-4.730720 -4.799469 -0.272365
-4.767111 -4.804414 -0.276000
-4.758188 -4.786106 -0.272909
-2.315518 -6.382440 -0.324828
-2.354258 -6.376104 -0.325692
-2.366925 -6.368523 -0.325083
-2.380930 -6.372812 -0.326239
-2.393058 -6.358389 -0.324531
-2.405956 -6.350684 -0.323811
-2.418748 -6.341673 -0.322868
-2.446680 -6.341297 -0.323599
-2.462230 -6.351882 -0.325580
-2.478280 -6.364737 -0.327896
-2.489435 -6.342119 -0.324790
-2.503007 -6.336814 -0.324314
-2.519734 -6.352018 -0.326964
-2.530732 -6.329781 -0.323886
-2.541636 -6.308037 -0.320875
-2.555730 -6.306292 -0.320922
-2.567343 -6.290123 -0.318757
-2.583627 -6.300893 -0.320723
-2.604943 -6.338385 -0.326795
-2.619671 -6.338778 -0.327182
-2.628289 -6.307437 -0.322698
-2.639169 -6.289000 -0.320198
-2.651920 -6.280596 -0.319246
-2.666818 -6.282833 -0.319939
-2.684219 -6.296632 -0.322426
-2.694773 -6.278398 -0.319983
-2.707476 -6.270553 -0.319151
-2.720694 -6.265256 -0.318721
-2.733786 -6.259604 -0.318247
-2.748708 -6.261813 -0.319001
-2.766185 -6.274368 -0.321371
-2.779982 -6.271568 -0.321376
-2.786159 -6.238809 -0.316739
-2.798441 -6.230865 -0.315964
-2.810615 -6.222757 -0.315173
-2.824877 -6.222663 -0.315643
-2.858736 -6.241406 -0.319578
-2.870849 -6.233234 -0.318828
-2.887369 -6.240508 -0.320507
-2.903795 -6.247130 -0.322101
-2.916169 -6.239931 -0.321542
-2.926719 -6.226905 -0.320078
-2.949229 -6.252815 -0.324750
-2.957219 -6.231708 -0.322037
-2.968080 -6.220149 -0.320836
-2.984286 -6.225290 -0.322282
-2.996225 -6.217267 -0.321661
-3.014451 -6.228108 -0.324039
-3.017509 -6.194034 -0.319307
-3.027325 -6.180399 -0.317820
-3.037003 -6.166667 -0.316325
-3.053314 -6.171824 -0.317848
-3.060540 -6.151615 -0.315335
-3.072630 -6.145114 -0.315017
-3.079527 -6.124743 -0.312485
-3.094118 -6.125185 -0.313297
-3.109670 -6.127995 -0.314502
-3.066757 -5.980137 -0.291446
-3.067957 -5.948166 -0.287022
-3.081015 -5.946633 -0.287512
-3.093299 -5.943105 -0.287689
-3.107165 -5.943406 -0.288497
-3.124145 -5.951062 -0.290512
-3.136109 -5.946482 -0.290550
-3.145334 -5.935471 -0.289546
-3.156762 -5.929706 -0.289403
-3.170612 -5.929491 -0.290177
-3.186065 -5.932769 -0.291536
-3.195697 -5.922857 -0.290737
-3.208541 -5.920125 -0.291125
-3.223331 -5.921556 -0.292210
-3.238435 -5.923490 -0.293390
-3.251619 -5.921165 -0.293874
-3.253160 -5.894350 -0.290297
-3.281877 -5.924327 -0.296171
-3.295785 -5.923143 -0.296874
-3.310851 -5.924188 -0.297960
-3.324238 -5.921710 -0.298466
-3.337409 -5.918718 -0.298894
-3.351718 -5.917876 -0.299692
-3.366074 -5.917000 -0.300493
-3.381327 -5.917711 -0.301572
-3.389996 -5.905829 -0.300527
-3.402599 -5.901413 -0.300751
-3.419822 -5.905477 -0.302425
-3.435438 -5.906372 -0.303572
-3.448635 -5.902731 -0.303954
-3.465099 -5.904858 -0.305331
-3.482511 -5.908467 -0.306975
-3.497619 -5.907822 -0.307899
-3.510021 -5.902363 -0.308000
-3.521359 -5.895055 -0.307787
-3.535055 -5.891741 -0.308270
-3.548647 -5.888173 -0.308717
-3.564689 -5.888588 -0.309866
-3.579523 -5.886865 -0.310651
-3.597263 -5.889740 -0.312251
-3.612099 -5.887744 -0.313008
-3.625331 -5.883090 -0.313304
-3.637799 -5.877180 -0.313385
-3.652504 -5.874720 -0.314082
-3.671881 -5.879351 -0.316047
-3.690248 -5.882196 -0.317709
-3.708127 -5.884095 -0.319216
-3.724470 -5.883507 -0.320290
-3.735395 -5.874768 -0.319910
-3.749775 -5.871105 -0.320448
-3.775302 -5.883513 -0.323895
-3.797600 -5.890885 -0.326454
-3.808372 -5.881586 -0.326005
-3.819772 -5.873196 -0.325725
-3.833356 -5.867855 -0.326005
-3.847802 -5.863651 -0.326500
-3.861380 -5.858184 -0.326771
-3.878936 -5.858045 -0.328030
-3.896362 -5.857575 -0.329241
-3.961587 -5.920323 -0.342170
-3.992529 -5.888292 -0.340302
-4.005123 -5.880601 -0.340244
-4.009088 -5.861991 -0.338140
-4.017439 -5.849058 -0.337100
-4.042828 -5.857319 -0.340068
-4.056821 -5.851269 -0.340346
-4.070620 -5.844929 -0.340579
-4.083554 -5.837498 -0.340612
-4.103824 -5.838790 -0.342323
-4.129554 -5.846339 -0.345255
-4.148913 -5.846117 -0.346715
-4.167427 -5.844743 -0.347972
-4.186303 -5.843636 -0.349296
-4.204275 -5.841343 -0.350408
-4.220262 -5.836678 -0.351073
-4.234468 -5.829930 -0.351344
-4.252833 -5.827728 -0.352519
-4.271998 -5.826261 -0.353858
-4.288672 -5.821930 -0.354650
-4.304637 -5.816731 -0.355285
-4.324126 -5.815197 -0.356667
-4.345394 -5.815381 -0.358412
-4.363283 -5.811832 -0.359433
-4.377579 -5.804431 -0.359697
-4.395564 -5.800758 -0.360730
-4.421002 -5.804540 -0.363296
-4.436174 -5.797701 -0.363730
-4.451228 -5.790665 -0.364141
-4.470806 -5.788032 -0.365473
-4.487327 -5.782241 -0.366178
-4.504449 -5.776931 -0.367004
-4.521855 -5.771780 -0.367884
-4.542095 -5.769210 -0.369325
-4.559761 -5.764037 -0.370248
-4.575650 -5.757076 -0.370820
-4.583288 -5.742368 -0.369777
-4.585294 -5.722532 -0.367656
-4.589182 -5.704550 -0.365929
-4.592126 -5.685819 -0.364044
-4.594358 -5.666568 -0.362050
-4.595009 -5.646045 -0.359781
-4.599354 -5.628907 -0.358245
-4.598187 -5.607065 -0.355689
-4.593407 -5.582285 -0.352487
-4.595694 -5.563752 -0.350647
-4.591154 -5.539564 -0.347561
-4.596984 -5.524256 -0.346436
-4.595201 -5.502689 -0.343924
-4.594253 -5.481968 -0.341598
-4.581595 -5.451880 -0.337159
-4.578317 -5.429662 -0.334478
-4.578111 -5.410065 -0.332386
-4.570942 -5.385098 -0.329064
-4.575430 -5.369466 -0.327875
-4.571402 -5.347292 -0.325181
-4.553798 -5.314888 -0.320101
-4.551004 -5.294096 -0.317699
-4.549607 -5.274503 -0.315572
-4.550183 -5.256504 -0.313818
-4.540111 -5.230759 -0.310221
-4.544165 -5.215564 -0.309125
-4.577923 -5.221853 -0.313202
-4.618890 -5.232905 -0.318500
-4.671997 -5.252054 -0.325850
-4.697949 -5.251533 -0.328490
-4.684228 -5.223250 -0.324335
-4.684550 -5.204905 -0.322608
-4.716200 -5.207931 -0.326207
-4.735591 -5.202388 -0.327712
-4.735435 -5.183692 -0.325921
-4.736465 -5.165898 -0.324343
-4.730283 -5.107265 -0.318145
-4.769921 -5.096295 -0.321266
-4.751625 -5.067101 -0.316562
-4.744809 -5.045317 -0.313758
-4.741189 -5.025718 -0.311485
-4.749064 -5.013211 -0.311079
-4.754634 -4.999421 -0.310291
-4.740767 -4.974374 -0.306374
-4.735813 -4.954864 -0.303898
-4.745477 -4.943996 -0.303750
-4.758089 -4.934901 -0.304051
-4.772778 -4.927051 -0.304656
-4.781044 -4.915703 -0.304223
-4.749084 -4.882419 -0.297465
-4.748865 -4.867010 -0.295689
-4.747956 -4.851500 -0.293793
-4.740969 -4.833036 -0.290944
-4.734095 -4.814989 -0.288107
-4.752264 -4.810363 -0.289105
-4.764466 -4.802758 -0.289152
-4.831347 -4.823288 -0.297480
-2.305403 -6.416288 -0.342863
-2.406771 -6.360942 -0.339030
-2.420641 -6.360782 -0.339462
-2.433452 -6.351174 -0.338390
-2.446824 -6.345809 -0.337961
-2.462281 -6.355700 -0.339909
-2.480243 -6.382351 -0.344479
-2.493958 -6.377055 -0.344018
-2.505896 -6.359660 -0.341641
-2.518783 -6.349160 -0.340338
-2.528074 -6.316249 -0.335493
-2.540953 -6.307024 -0.334374
-2.557181 -6.318014 -0.336442
-2.577525 -6.351934 -0.342135
-2.583451 -6.302831 -0.334711
-2.602316 -6.326906 -0.338856
-2.616553 -6.324979 -0.338895
-2.629075 -6.314155 -0.337528
-2.638691 -6.289119 -0.333913
-2.651096 -6.278970 -0.332661
-2.667124 -6.286633 -0.334244
-2.681960 -6.288290 -0.334884
-2.696562 -6.288732 -0.335342
-2.706678 -6.269021 -0.332601
-2.719890 -6.263681 -0.332156
-2.732245 -6.254855 -0.331166
-2.750154 -6.269642 -0.333956
-2.767754 -6.282496 -0.336453
-2.780845 -6.276642 -0.335975
-2.784893 -6.235324 -0.329829
-2.796943 -6.226496 -0.328892
-2.807291 -6.211501 -0.326975
-2.821966 -6.213109 -0.327734
-2.860713 -6.249628 -0.334659
-2.870493 -6.233052 -0.332536
-2.886260 -6.237683 -0.333844
-2.903401 -6.246748 -0.335885
-2.918857 -6.249795 -0.336971
-2.934021 -6.251699 -0.337886
-2.942947 -6.233326 -0.335527
-2.957037 -6.231857 -0.335920
-2.973311 -6.237163 -0.337429
-2.998116 -6.223567 -0.336546
-3.003554 -6.196187 -0.332757
-3.024991 -6.216468 -0.336770
-3.046348 -6.152659 -0.328452
-3.070142 -6.178475 -0.333441
-3.086554 -6.183330 -0.334997
-3.109052 -6.126585 -0.327937
-3.062718 -5.969907 -0.302697
-3.069920 -5.953290 -0.300690
-3.080461 -5.945358 -0.300134
-3.091809 -5.939514 -0.299933
-3.103561 -5.934686 -0.299910
-3.121629 -5.945056 -0.302444
-3.135736 -5.945624 -0.303349
-3.145427 -5.935695 -0.302499
-3.156863 -5.929927 -0.302356
-3.170475 -5.929151 -0.303063
-3.187288 -5.935482 -0.304984
-3.201582 -5.935911 -0.305919
-3.205899 -5.914233 -0.303107
-3.226651 -5.928683 -0.306446
-3.240039 -5.926829 -0.307022
-3.251438 -5.920662 -0.306870
-3.267168 -5.923584 -0.308282
-3.280023 -5.920343 -0.308648
-3.297192 -5.925868 -0.310531
-3.310252 -5.922810 -0.310949
-3.324904 -5.922864 -0.311912
-3.337121 -5.917961 -0.312027
-3.353068 -5.920316 -0.313409
-3.367545 -5.919632 -0.314275
-3.381224 -5.917298 -0.314862
-3.393117 -5.911499 -0.314852
-3.404925 -5.905522 -0.314816
-3.421731 -5.908762 -0.316405
-3.439143 -5.912889 -0.318164
-3.451165 -5.907047 -0.318176
-3.464434 -5.903411 -0.318584
-3.484556 -5.911811 -0.321134
-3.500108 -5.911895 -0.322223
-3.511390 -5.904450 -0.321981
-3.520925 -5.894028 -0.321210
-3.535372 -5.891986 -0.321942
-3.549445 -5.889213 -0.322551
-3.561099 -5.882342 -0.322430
-3.575368 -5.879750 -0.323086
-3.592466 -5.881651 -0.324563
-3.610979 -5.885631 -0.326430
-3.623272 -5.879500 -0.326472
-3.637476 -5.876349 -0.327062
-3.655681 -5.879333 -0.328782
-3.671237 -5.878025 -0.329730
-3.689143 -5.880172 -0.331322
-3.710364 -5.887125 -0.333813
-3.725109 -5.884111 -0.334481
-3.737155 -5.877017 -0.334401
-3.749564 -5.870440 -0.334422
-3.781366 -5.891933 -0.339677
-3.803658 -5.899204 -0.342310
-3.814608 -5.890068 -0.341889
-3.821678 -5.875500 -0.340451
-3.835007 -5.869774 -0.340676
-3.847760 -5.863208 -0.340748
-3.862721 -5.859626 -0.341392
-3.881140 -5.860630 -0.342917
-3.901309 -5.863798 -0.344868
-3.988953 -5.907264 -0.357356
-4.012631 -5.889743 -0.356845
-4.010974 -5.863938 -0.353292
-4.029028 -5.863116 -0.354585
-4.042148 -5.856028 -0.354670
-4.056779 -5.850764 -0.355119
-4.070274 -5.844048 -0.355294
-4.088533 -5.843028 -0.356599
-4.112647 -5.848839 -0.359271
-4.134156 -5.851293 -0.361302
-4.152081 -5.849332 -0.362476
-4.161710 -5.837615 -0.361721
-4.183483 -5.839889 -0.363770
-4.205065 -5.841726 -0.365754
-4.219213 -5.834970 -0.366029
-4.240664 -5.836315 -0.367953
-4.256542 -5.831288 -0.368609
-4.275811 -5.829886 -0.370017
-4.293883 -5.827026 -0.371147
-4.306275 -5.817922 -0.371017
-4.325052 -5.815601 -0.372292
-4.343724 -5.813023 -0.373535
-4.360209 -5.808011 -0.374295
-4.375927 -5.802102 -0.374886
-4.397504 -5.802123 -0.376732
-4.420145 -5.803025 -0.378790
-4.437007 -5.797886 -0.379607
-4.450821 -5.789594 -0.379777
-4.469177 -5.785742 -0.380905
-4.485337 -5.779600 -0.381568
-4.503548 -5.775352 -0.382657
-4.521738 -5.770948 -0.383737
-4.540159 -5.766632 -0.384860
-4.559097 -5.762663 -0.386084
-4.574360 -5.755108 -0.386556
-4.583370 -5.741671 -0.385767
-4.587207 -5.723505 -0.383954
-4.589216 -5.703785 -0.381801
-4.592077 -5.684968 -0.379847
-4.593047 -5.664581 -0.377546
-4.594717 -5.644958 -0.375415
-4.597663 -5.626585 -0.373562
-4.595308 -5.603716 -0.370702
-4.592455 -5.580608 -0.367781
-4.590207 -5.558208 -0.365013
-4.589794 -5.537537 -0.362634
-4.590497 -5.517942 -0.360499
-4.594718 -5.501387 -0.359064
-4.582276 -5.471237 -0.354488
-4.573070 -5.444038 -0.350575
-4.574763 -5.425875 -0.348755
-4.581810 -5.412072 -0.347963
-4.579274 -5.390723 -0.345400
-4.568316 -5.362953 -0.341307
-4.547505 -5.327843 -0.335437
-4.547737 -5.309277 -0.333497
-4.545936 -5.289275 -0.331209
-4.547482 -5.271922 -0.329560
-4.548450 -5.254222 -0.327827
-4.551482 -5.238132 -0.326490
-4.561189 -5.226965 -0.326373
-4.603454 -5.239246 -0.332104
-4.653028 -5.256238 -0.339099
-4.709283 -5.277340 -0.347233
-4.704946 -5.255339 -0.344571
-4.684969 -5.222677 -0.339175
-4.700387 -5.214673 -0.340049
-4.724150 -5.212224 -0.342380
-4.742622 -5.206002 -0.343773
-4.747847 -5.190836 -0.342856
-4.703049 -5.142825 -0.333292
-4.738328 -5.111321 -0.334055
-4.758090 -5.105814 -0.335662
-4.766303 -5.092984 -0.335292
-4.751588 -5.066051 -0.331042
-4.751738 -5.048544 -0.329319
-4.751741 -5.031116 -0.327575
-4.753357 -5.014825 -0.326101
-4.748253 -4.994726 -0.323507
-4.740745 -4.973479 -0.320518
-4.734962 -4.953527 -0.317821
-4.745590 -4.943255 -0.317825
-4.764585 -4.937815 -0.319179
-4.779356 -4.930013 -0.319811
-4.778137 -4.913413 -0.317814
-4.751758 -4.883268 -0.311734
-4.751053 -4.867634 -0.309817
-4.751606 -4.852952 -0.308088
-4.736728 -4.830327 -0.303877
-4.748452 -4.822160 -0.303905
-4.757686 -4.812855 -0.303507
-4.756203 -4.798214 -0.301389
-4.749569 -4.781251 -0.298449
-2.363798 -6.342697 -0.348144
-2.392587 -6.360173 -0.352065
-2.409226 -6.385585 -0.356672
-2.423531 -6.388354 -0.357610
-2.434198 -6.360616 -0.353601
-2.462105 -6.357910 -0.354029
-2.480150 -6.385250 -0.358862
-2.495053 -6.388248 -0.359744
-2.505426 -6.360000 -0.355552
-2.516047 -6.334754 -0.351830
-2.528537 -6.322538 -0.350210
-2.542408 -6.319238 -0.350032
-2.562116 -6.350621 -0.355489
-2.576165 -6.347248 -0.355298
-2.586535 -6.323196 -0.351739
-2.596555 -6.298388 -0.348054
-2.612104 -6.304178 -0.349357
-2.624521 -6.293316 -0.347948
-2.640400 -6.300394 -0.349474
-2.651735 -6.284651 -0.347278
-2.664984 -6.278791 -0.346704
-2.679608 -6.279595 -0.347228
-2.692450 -6.272127 -0.346408
-2.705309 -6.265020 -0.345655
-2.718572 -6.259943 -0.345245
-2.735821 -6.272125 -0.347681
-2.752311 -6.280554 -0.349516
-2.766734 -6.280089 -0.349903
-2.777454 -6.264685 -0.347840
-2.787410 -6.246835 -0.345383
-2.803392 -6.252933 -0.346888
-2.816949 -6.249541 -0.346840
-2.825772 -6.228607 -0.343902
-2.842491 -6.237221 -0.345866
-2.859803 -6.247583 -0.348138
-2.869965 -6.232335 -0.346175
-2.884750 -6.233539 -0.346956
-2.905813 -6.255958 -0.351286
-2.923502 -6.266263 -0.353619
-2.934501 -6.254175 -0.352233
-2.944283 -6.238476 -0.350253
-2.953924 -6.222752 -0.348276
-2.975747 -6.245505 -0.352757
-2.989562 -6.242815 -0.352992
-2.989785 -6.198983 -0.346322
-3.004598 -6.199875 -0.347176
-3.023736 -6.213324 -0.350162
-3.045115 -6.232734 -0.354177
-3.030413 -6.148764 -0.340725
-3.070988 -6.222162 -0.353910
-3.073323 -6.187639 -0.348830
-3.087079 -6.185097 -0.349183
-3.108607 -6.203372 -0.353093
-3.060825 -5.965228 -0.314813
-3.068863 -5.950770 -0.313117
-3.078710 -5.941113 -0.312250
-3.090377 -5.936090 -0.312186
-3.103421 -5.934437 -0.312712
-3.116434 -5.932626 -0.313221
-3.131996 -5.936789 -0.314775
-3.144866 -5.934407 -0.315209
-3.158237 -5.933116 -0.315842
-3.171781 -5.932123 -0.316537
-3.184377 -5.928887 -0.316852
-3.200888 -5.934320 -0.318692
-3.216243 -5.936940 -0.320054
-3.229146 -5.934031 -0.320459
-3.239598 -5.925792 -0.319935
-3.250985 -5.919598 -0.319776
-3.265910 -5.920830 -0.320936
-3.280464 -5.921125 -0.321942
-3.291356 -5.913778 -0.321604
-3.311002 -5.924171 -0.324425
-3.322737 -5.918365 -0.324378
-3.336895 -5.917338 -0.325191
-3.351909 -5.917865 -0.326292
-3.364850 -5.914231 -0.326658
-3.378217 -5.911351 -0.327167
-3.392121 -5.909401 -0.327852
-3.406381 -5.908017 -0.328649
-3.416478 -5.898833 -0.328042
-3.439333 -5.912995 -0.331676
-3.450035 -5.904758 -0.331258
-3.462909 -5.900433 -0.331556
-3.481767 -5.906622 -0.333784
-3.497630 -5.907298 -0.335017
-3.507685 -5.897772 -0.334388
-3.521404 -5.894566 -0.334924
-3.538325 -5.896693 -0.336454
-3.551086 -5.891666 -0.336672
-3.562539 -5.884430 -0.336486
-3.575638 -5.879890 -0.336806
-3.592635 -5.881617 -0.338302
-3.607518 -5.879764 -0.339140
-3.624089 -5.880479 -0.340470
-3.645418 -5.888503 -0.343185
-3.663515 -5.891186 -0.344914
-3.672825 -5.880135 -0.344061
-3.697769 -5.892976 -0.347735
-3.712898 -5.890600 -0.348544
-3.723524 -5.881396 -0.348061
-3.736074 -5.875066 -0.348130
-3.755618 -5.878939 -0.350158
-3.791539 -5.906301 -0.356714
-3.788997 -5.877808 -0.352555
-3.805563 -5.876850 -0.353696
-3.822073 -5.875676 -0.354807
-3.832648 -5.866105 -0.354299
-3.848595 -5.863969 -0.355242
-3.867642 -5.865949 -0.357000
-3.879082 -5.857449 -0.356721
-3.897212 -5.857908 -0.358207
-3.918489 -5.862370 -0.360496
-3.940923 -5.868103 -0.363056
-3.950488 -5.856837 -0.362268
-3.965041 -5.852044 -0.362769
-4.008873 -5.884510 -0.370709
-4.024012 -5.879959 -0.371301
-4.028473 -5.861971 -0.369208
-4.040204 -5.853165 -0.368958
-4.057418 -5.851086 -0.370071
-4.080757 -5.856321 -0.372680
-4.100161 -5.856550 -0.374296
-4.119369 -5.856370 -0.375848
-4.138850 -5.856344 -0.377450
-4.157053 -5.854648 -0.378728
-4.165920 -5.841986 -0.377767
-4.190818 -5.847794 -0.380622
-4.205213 -5.841365 -0.380972
-4.221436 -5.836938 -0.381749
-4.240836 -5.835960 -0.383261
-4.261640 -5.836370 -0.385084
-4.276423 -5.829989 -0.385505
-4.289059 -5.821212 -0.385434
-4.304029 -5.814919 -0.385900
-4.323594 -5.813450 -0.387405
-4.344558 -5.813294 -0.389212
-4.362084 -5.809351 -0.390235
-4.379119 -5.804779 -0.391144
-4.399297 -5.803319 -0.392743
-4.419147 -5.801353 -0.394257
-4.436746 -5.796952 -0.395270
-4.451500 -5.789588 -0.395659
-4.468282 -5.784160 -0.396488
-4.484892 -5.778454 -0.397279
-4.503679 -5.774756 -0.398535
-4.523454 -5.771862 -0.399994
-4.541224 -5.766894 -0.401021
-4.555353 -5.758359 -0.401278
-4.572708 -5.752779 -0.402216
-4.585599 -5.742940 -0.402221
-4.592823 -5.727853 -0.401059
-4.595799 -5.708954 -0.399041
-4.590165 -5.682416 -0.395283
-4.588585 -5.659759 -0.392399
-4.590168 -5.640086 -0.390195
-4.592487 -5.621189 -0.388171
-4.593329 -5.601126 -0.385877
-4.593841 -5.580915 -0.383548
-4.592711 -5.559446 -0.380923
-4.587735 -5.534896 -0.377568
-4.591072 -5.517508 -0.375895
-4.593454 -5.499413 -0.374060
-4.584283 -5.471946 -0.369989
-4.580384 -5.449031 -0.366992
-4.581969 -5.430714 -0.365095
-4.575274 -5.405902 -0.361624
-4.575394 -5.386688 -0.359504
-4.567344 -5.361210 -0.355847
-4.555018 -5.332666 -0.351415
-4.547352 -5.307988 -0.347916
-4.549680 -5.291112 -0.346343
-4.548010 -5.271307 -0.344039
-4.544940 -5.250594 -0.341500
-4.546422 -5.233380 -0.339840
-4.562988 -5.227234 -0.341004
-4.596084 -5.232869 -0.345224
-4.687203 -5.279540 -0.360111
-4.719002 -5.283088 -0.363994
-4.716270 -5.262139 -0.361538
-4.674844 -5.214555 -0.352062
-4.700593 -5.213693 -0.354848
-4.722278 -5.209823 -0.356882
-4.741504 -5.204114 -0.358461
-4.738886 -5.183750 -0.356113
-4.774395 -5.133190 -0.355012
-4.769335 -5.111811 -0.352284
-4.767177 -5.092456 -0.350079
-4.753037 -5.065898 -0.345792
-4.755546 -5.049846 -0.344423
-4.759446 -5.034771 -0.343294
-4.750535 -5.012174 -0.339952
-4.751384 -4.995645 -0.338297
-4.747249 -4.976389 -0.335786
-4.760118 -4.967226 -0.336174
-4.752922 -4.946639 -0.333133
-4.766236 -4.937979 -0.333562
-4.769045 -4.923509 -0.332194
-4.768937 -4.907635 -0.330322
-4.755960 -4.884959 -0.326290
-4.743399 -4.862917 -0.322331
-4.765937 -4.860151 -0.324189
-4.768959 -4.847033 -0.322782
-4.768319 -4.832238 -0.320753
-4.781689 -4.825046 -0.320999
-4.751432 -4.795489 -0.314109
-4.700309 -4.755867 -0.303865
-2.276492 -6.359558 -0.359098
-2.381954 -6.391096 -0.370248
-2.409476 -6.391049 -0.371375
-2.423279 -6.389659 -0.371669
-2.433789 -6.360808 -0.367377
-2.444078 -6.331510 -0.362979
-2.459294 -6.340464 -0.364916
-2.476627 -6.363442 -0.369174
-2.490823 -6.362370 -0.369415
-2.503161 -6.348307 -0.367477
-2.515569 -6.335171 -0.365680
-2.529725 -6.333539 -0.365793
-2.546162 -6.345705 -0.368208
-2.562241 -6.354733 -0.370098
-2.574183 -6.339064 -0.367852
-2.585464 -6.320345 -0.365092
-2.596597 -6.301674 -0.362337
-2.607929 -6.284909 -0.359901
-2.623670 -6.291760 -0.361432
-2.639600 -6.299111 -0.363055
-2.651275 -6.285030 -0.361081
-2.662474 -6.269257 -0.358827
-2.673663 -6.254111 -0.356684
-2.686854 -6.248788 -0.356203
-2.699117 -6.239486 -0.355059
-2.721030 -6.272857 -0.361135
-2.738145 -6.284142 -0.363498
-2.755123 -6.294320 -0.365690
-2.767331 -6.284410 -0.364493
-2.771652 -6.243092 -0.357979
-2.787016 -6.246953 -0.359137
-2.804788 -6.259929 -0.361859
-2.817562 -6.253380 -0.361278
-2.828595 -6.240541 -0.359637
-2.842261 -6.237736 -0.359717
-2.858831 -6.245382 -0.361595
-2.868699 -6.229082 -0.359397
-2.884574 -6.234073 -0.360852
-2.901305 -6.241719 -0.362780
-2.920206 -6.256278 -0.365912
-2.954619 -6.272750 -0.370066
-2.974799 -6.289894 -0.373706
-2.972477 -6.236073 -0.365122
-2.988302 -6.239674 -0.366452
-2.993461 -6.210782 -0.362174
-3.009211 -6.214246 -0.363505
-3.030140 -6.232695 -0.367454
-3.034292 -6.201999 -0.362882
-3.057680 -6.185293 -0.361525
-3.074626 -6.191651 -0.363432
-3.081794 -6.171076 -0.360643
-3.098194 -6.175756 -0.362283
-3.135672 -6.196571 -0.367630
-3.060694 -5.965113 -0.327704
-3.066495 -5.944951 -0.324954
-3.077286 -5.937713 -0.324490
-3.089530 -5.934139 -0.324683
-3.103420 -5.934550 -0.325593
-3.118884 -5.938612 -0.327165
-3.131125 -5.934793 -0.327348
-3.144959 -5.934675 -0.328201
-3.159377 -5.935786 -0.329285
-3.171710 -5.931973 -0.329500
-3.185632 -5.931709 -0.330361
-3.200350 -5.933094 -0.331531
-3.214590 -5.933259 -0.332493
-3.228149 -5.931804 -0.333174
-3.239926 -5.926422 -0.333155
-3.251130 -5.919815 -0.332921
-3.263967 -5.916652 -0.333319
-3.277815 -5.915522 -0.334097
-3.289510 -5.909870 -0.334059
-3.298558 -5.898859 -0.333047
-3.321029 -5.914796 -0.336982
-3.338673 -5.920685 -0.339094
-3.353604 -5.920998 -0.340193
-3.364480 -5.913329 -0.339830
-3.378960 -5.912570 -0.340751
-3.394843 -5.914333 -0.342150
-3.402288 -5.900162 -0.340598
-3.420733 -5.906463 -0.342861
-3.435264 -5.905334 -0.343753
-3.448138 -5.901094 -0.344072
-3.461149 -5.897042 -0.344433
-3.479726 -5.902761 -0.346642
-3.494012 -5.900714 -0.347401
-3.508705 -5.899264 -0.348283
-3.520133 -5.892117 -0.348094
-3.537759 -5.895453 -0.349902
-3.553607 -5.895594 -0.351116
-3.567953 -5.893097 -0.351837
-3.584151 -5.893535 -0.353130
-3.594620 -5.884526 -0.352620
-3.609217 -5.882176 -0.353395
-3.626769 -5.884415 -0.355066
-3.650507 -5.896174 -0.358593
-3.666812 -5.895982 -0.359824
-3.682533 -5.894742 -0.360864
-3.703452 -5.901291 -0.363434
-3.713427 -5.891051 -0.362738
-3.724336 -5.882257 -0.362328
-3.736911 -5.875947 -0.362410
-3.754505 -5.876949 -0.363940
-3.771807 -5.877356 -0.365365
-3.784032 -5.870317 -0.365328
-3.801724 -5.871024 -0.366837
-3.819878 -5.872208 -0.368455
-3.833621 -5.867074 -0.368824
-3.849843 -5.865297 -0.369875
-3.870929 -5.870034 -0.372249
-3.886861 -5.867557 -0.373187
-3.898670 -5.859450 -0.372997
-3.915158 -5.857540 -0.374070
-3.928724 -5.851672 -0.374350
-3.954321 -5.861389 -0.377821
-3.972244 -5.860881 -0.379225
-3.982904 -5.850961 -0.378712
-4.003469 -5.853569 -0.380784
-4.022366 -5.853877 -0.382401
-4.035923 -5.847400 -0.382629
-4.051773 -5.843689 -0.383441
-4.082228 -5.857629 -0.387949
-4.095952 -5.850996 -0.388188
-4.114896 -5.850542 -0.389734
-4.134999 -5.851291 -0.391553
-4.149997 -5.845879 -0.392091
-4.167240 -5.842995 -0.393177
-4.187017 -5.842898 -0.394873
-4.209631 -5.845850 -0.397242
-4.220537 -5.835377 -0.396760
-4.235347 -5.829273 -0.397226
-4.256876 -5.830533 -0.399293
-4.272143 -5.824722 -0.399855
-4.282061 -5.813028 -0.399156
-4.302250 -5.812407 -0.400876
-4.322488 -5.811661 -0.402593
-4.340970 -5.808882 -0.403889
-4.360667 -5.807233 -0.405457
-4.378613 -5.803605 -0.406611
-4.397256 -5.800563 -0.407918
-4.415134 -5.796597 -0.409043
-4.436167 -5.795681 -0.410873
-4.451206 -5.788594 -0.411346
-4.468334 -5.783497 -0.412287
-4.483505 -5.776368 -0.412792
-4.501395 -5.771795 -0.413897
-4.522213 -5.769910 -0.415641
-4.540803 -5.765718 -0.416888
-4.557838 -5.759917 -0.417792
-4.574151 -5.753325 -0.418539
-4.588382 -5.744700 -0.418840
-4.597446 -5.731266 -0.418041
-4.595651 -5.707977 -0.414950
-4.586771 -5.678509 -0.410398
-4.587378 -5.657819 -0.407899
-4.592382 -5.641169 -0.406354
-4.593535 -5.621220 -0.404030
-4.595487 -5.602100 -0.401903
-4.596437 -5.582236 -0.399599
-4.594736 -5.560250 -0.396781
-4.591285 -5.536959 -0.393641
-4.595253 -5.520056 -0.392051
-4.586664 -5.492844 -0.387939
-4.586993 -5.473204 -0.385674
-4.590636 -5.456377 -0.384104
-4.597122 -5.441904 -0.383126
-4.595016 -5.420618 -0.380457
-4.569118 -5.380740 -0.373103
-4.565657 -5.358885 -0.370252
-4.555243 -5.331825 -0.366068
-4.549850 -5.308878 -0.362911
-4.545482 -5.286900 -0.359989
-4.544685 -5.267774 -0.357794
-4.538451 -5.244729 -0.354574
-4.535918 -5.224602 -0.352101
-4.544948 -5.213034 -0.351871
-4.584525 -5.223451 -0.357478
-4.685889 -5.277469 -0.374786
-4.705050 -5.272083 -0.376403
-4.694290 -5.245622 -0.372374
-4.690300 -5.224109 -0.369653
-4.687793 -5.203779 -0.367235
-4.706133 -5.197725 -0.368722
-4.731848 -5.196476 -0.371568
-4.736629 -5.181095 -0.370525
-4.777154 -5.133814 -0.370316
-4.768274 -5.110031 -0.366810
-4.755689 -5.084210 -0.362654
-4.758091 -5.067950 -0.361218
-4.756412 -5.049335 -0.359052
-4.747781 -5.026722 -0.355649
-4.748166 -5.009784 -0.353862
-4.737618 -4.986575 -0.350137
-4.765534 -4.986171 -0.353209
-4.752468 -4.961939 -0.349036
-4.749669 -4.943960 -0.346671
-4.754493 -4.930558 -0.345631
-4.769285 -4.922918 -0.346305
-4.763859 -4.904150 -0.343451
-4.749790 -4.880961 -0.339104
-4.752810 -4.867473 -0.337694
-4.765961 -4.859666 -0.337994
-4.776469 -4.850590 -0.337810
-4.777092 -4.836483 -0.335922
-4.812496 -4.840793 -0.339877
-4.756407 -4.797811 -0.328412
-4.721475 -4.766508 -0.320548
-2.358767 -6.297781 -0.367518
-2.421474 -6.377963 -0.383535
-2.433062 -6.358484 -0.380739
-2.445895 -6.349245 -0.379662
-2.460251 -6.351308 -0.380494
-2.474576 -6.352315 -0.381127
-2.486346 -6.334781 -0.378567
-2.501901 -6.343476 -0.380488
-2.516454 -6.344604 -0.381100
-2.531362 -6.347517 -0.382012
-2.546939 -6.354033 -0.383537
-2.561886 -6.356107 -0.384296
-2.569450 -6.315024 -0.377621
-2.584205 -6.316538 -0.378276
-2.601829 -6.333506 -0.381598
-2.607982 -6.288246 -0.374186
-2.620667 -6.279133 -0.373011
-2.641993 -6.314095 -0.379460
-2.652721 -6.294926 -0.376559
-2.661319 -6.266334 -0.372028
-2.673407 -6.255432 -0.370565
-2.684072 -6.238431 -0.368050
-2.698128 -6.237362 -0.368307
-2.714350 -6.245782 -0.370224
-2.735953 -6.276883 -0.376102
-2.752199 -6.284094 -0.377843
-2.761098 -6.260731 -0.374270
-2.775145 -6.259011 -0.374479
-2.787618 -6.251091 -0.373619
-2.802011 -6.250857 -0.374113
-2.813600 -6.239933 -0.372751
-2.828842 -6.242967 -0.373846
-2.842453 -6.239862 -0.373879
-2.862056 -6.258307 -0.377712
-2.883173 -6.281353 -0.382377
-2.912210 -6.230640 -0.375367
-2.929403 -6.239404 -0.377584
-2.956533 -6.279895 -0.385437
-2.981763 -6.265937 -0.384395
-2.985490 -6.231810 -0.379065
-3.011820 -6.267091 -0.386091
-3.022029 -6.253129 -0.384370
-3.035706 -6.249664 -0.384532
-3.029850 -6.189740 -0.374608
-3.066682 -6.170146 -0.373509
-3.088857 -6.151056 -0.371743
-3.108818 -6.126777 -0.369071
-3.066699 -5.945687 -0.337941
-3.076761 -5.936591 -0.337129
-3.090283 -5.936165 -0.337903
-3.104950 -5.938423 -0.339180
-3.119228 -5.939560 -0.340266
-3.132324 -5.937735 -0.340823
-3.144996 -5.934835 -0.341193
-3.159502 -5.936126 -0.342345
-3.174660 -5.938744 -0.343755
-3.187438 -5.935797 -0.344150
-3.200020 -5.932351 -0.344464
-3.213237 -5.930255 -0.345037
-3.225819 -5.926696 -0.345349
-3.239417 -5.925270 -0.346067
-3.254185 -5.926223 -0.347241
-3.265557 -5.919896 -0.347064
-3.277747 -5.915277 -0.347215
-3.290118 -5.910998 -0.347437
-3.304496 -5.910739 -0.348425
-3.323879 -5.920350 -0.351288
-3.347586 -5.938141 -0.355718
-3.355273 -5.924090 -0.354137
-3.365201 -5.914546 -0.353412
-3.381338 -5.916922 -0.354961
-3.395348 -5.915089 -0.355719
-3.403316 -5.901875 -0.354310
-3.420697 -5.906179 -0.356261
-3.434801 -5.904265 -0.357031
-3.447023 -5.898847 -0.357136
-3.461113 -5.896737 -0.357887
-3.476454 -5.896734 -0.359055
-3.492563 -5.897925 -0.360467
-3.507190 -5.896381 -0.361358
-3.521387 -5.893988 -0.362095
-3.535736 -5.891753 -0.362871
-3.555030 -5.897690 -0.365260
-3.573879 -5.902616 -0.367468
-3.587381 -5.898527 -0.367916
-3.598573 -5.890629 -0.367619
-3.611065 -5.884830 -0.367741
-3.630171 -5.889499 -0.369950
-3.650888 -5.896448 -0.372629
-3.666291 -5.894843 -0.373620
-3.682741 -5.894726 -0.374920
-3.699222 -5.894506 -0.376211
-3.714930 -5.892970 -0.377250
-3.724739 -5.882507 -0.376498
-3.736953 -5.875651 -0.376478
-3.754438 -5.876490 -0.378025
-3.773722 -5.879759 -0.380082
-3.787677 -5.875170 -0.380551
-3.802948 -5.872381 -0.381398
-3.819529 -5.871332 -0.382612
-3.838383 -5.873308 -0.384463
-3.850414 -5.865687 -0.384348
-3.868738 -5.866642 -0.386015
-3.889284 -5.870420 -0.388285
-3.902611 -5.864308 -0.388514
-3.913262 -5.854608 -0.388002
-3.932682 -5.856438 -0.389909
-3.958001 -5.865736 -0.393404
-3.970227 -5.857843 -0.393303
-3.983344 -5.851072 -0.393447
-3.999805 -5.848489 -0.394487
-4.024131 -5.855620 -0.397608
-4.037519 -5.848906 -0.397801
-4.053159 -5.844912 -0.398587
-4.074934 -5.848278 -0.400966
-4.094844 -5.849167 -0.402835
-4.106323 -5.839817 -0.402512
-4.130577 -5.845554 -0.405468
-4.149292 -5.844532 -0.406981
-4.165618 -5.840584 -0.407876
-4.185387 -5.840485 -0.409629
-4.205439 -5.840531 -0.411437
-4.219084 -5.833179 -0.411636
-4.228659 -5.821239 -0.410832
-4.249864 -5.822197 -0.412897
-4.270386 -5.822205 -0.414776
-4.287227 -5.818032 -0.415746
-4.302900 -5.812492 -0.416428
-4.322493 -5.811039 -0.418048
-4.340907 -5.808178 -0.419374
-4.359057 -5.804901 -0.420629
-4.379229 -5.803580 -0.422353
-4.396935 -5.799555 -0.423485
-4.413773 -5.794523 -0.424409
-4.430480 -5.789248 -0.425299
-4.454021 -5.790685 -0.427764
-4.471311 -5.785707 -0.428774
-4.487494 -5.779527 -0.429529
-4.503010 -5.772601 -0.430132
-4.521165 -5.768124 -0.431332
-4.540929 -5.765045 -0.432889
-4.559066 -5.760266 -0.434075
-4.574963 -5.753258 -0.434758
-4.587420 -5.742968 -0.434683
-4.591608 -5.725055 -0.432797
-4.592540 -5.704284 -0.430225
-4.587140 -5.677966 -0.426309
-4.589045 -5.658421 -0.424024
-4.599187 -5.646282 -0.423548
-4.596018 -5.622482 -0.420228
-4.596327 -5.601905 -0.417693
-4.595377 -5.580391 -0.414923
-4.594983 -5.559514 -0.412307
-4.596359 -5.540277 -0.410098
-4.591469 -5.515928 -0.406605
-4.587672 -5.492698 -0.403381
-4.588119 -5.473135 -0.401080
-4.592796 -5.457125 -0.399683
-4.596544 -5.440423 -0.398118
-4.592528 -5.417612 -0.394984
-4.568519 -5.379241 -0.387806
-4.564660 -5.357071 -0.384796
-4.554097 -5.329898 -0.380464
-4.547192 -5.305796 -0.376915
-4.540549 -5.282107 -0.373458
-4.532284 -5.257411 -0.369714
-4.535406 -5.241397 -0.368276
-4.531115 -5.219995 -0.365388
-4.542558 -5.210208 -0.365636
-4.611984 -5.242113 -0.377284
-4.665823 -5.262002 -0.385793
-4.698811 -5.266508 -0.390175
-4.708717 -5.254527 -0.390046
-4.697067 -5.227616 -0.385755
-4.697734 -5.209410 -0.383874
-4.710482 -5.199493 -0.384329
-4.703634 -5.176384 -0.381038
-4.740546 -5.182512 -0.386103
-4.770032 -5.183381 -0.389721
-4.691449 -5.095912 -0.370984
-4.754276 -5.118115 -0.380859
-4.746359 -5.077297 -0.375519
-4.748274 -5.060822 -0.373955
-4.752252 -5.045747 -0.372773
-4.748532 -5.026155 -0.370172
-4.749516 -5.009604 -0.368437
-4.756893 -4.997005 -0.367866
-4.743508 -4.972394 -0.363508
-4.744148 -4.956266 -0.361702
-4.739881 -4.937546 -0.359003
-4.746302 -4.925154 -0.358220
-4.758715 -4.916280 -0.358489
-4.754546 -4.898326 -0.355776
-4.753815 -4.882564 -0.353665
-4.753671 -4.867395 -0.351644
-4.757963 -4.854884 -0.350389
-4.763851 -4.843456 -0.349390
-4.760574 -4.827427 -0.346768
-4.750281 -4.808067 -0.342917
-4.764022 -4.801511 -0.343217
-4.737352 -4.774460 -0.336527
-2.360056 -6.313054 -0.383482
-2.431695 -6.351018 -0.393190
-2.446717 -6.359323 -0.395180
-2.477550 -6.377655 -0.399407
-2.480550 -6.297959 -0.385851
-2.517378 -6.354409 -0.396695
-2.530613 -6.346474 -0.395731
-2.544931 -6.345329 -0.395957
-2.553366 -6.308799 -0.389921
-2.564394 -6.289153 -0.386859
-2.584829 -6.323443 -0.393343
-2.599691 -6.325092 -0.394052
-2.610810 -6.306504 -0.391174
-2.624913 -6.304260 -0.391197
-2.650194 -6.285311 -0.388686
-2.661582 -6.270343 -0.386460
-2.674020 -6.260946 -0.385230
-2.686441 -6.251833 -0.384059
-2.697037 -6.234865 -0.381493
-2.713565 -6.244649 -0.383711
-2.731902 -6.261720 -0.387249
-2.745237 -6.256972 -0.386899
-2.758436 -6.251807 -0.386487
-2.776090 -6.264763 -0.389336
-2.788608 -6.256850 -0.388457
-2.804011 -6.260365 -0.389644
-2.815570 -6.249084 -0.388185
-2.823903 -6.226148 -0.384637
-2.845104 -6.251061 -0.389724
-2.861062 -6.256174 -0.391261
-2.874158 -6.250948 -0.390948
-2.898724 -6.285544 -0.397856
-2.892302 -6.213446 -0.385458
-2.912434 -6.232524 -0.389589
-2.918808 -6.205661 -0.385396
-2.930407 -6.196494 -0.384426
-2.995876 -6.264603 -0.399053
-3.011728 -6.267605 -0.400379
-3.024146 -6.216414 -0.392583
-3.043177 -6.145627 -0.382001
-3.056292 -6.141909 -0.382148
-3.061315 -6.116135 -0.378226
-3.099206 -6.140152 -0.384411
-3.097283 -6.096993 -0.377273
-3.074869 -6.002142 -0.360486
-3.065247 -5.942252 -0.350177
-3.077827 -5.939480 -0.350526
-3.092177 -5.941041 -0.351697
-3.105729 -5.940490 -0.352487
-3.117484 -5.935503 -0.352455
-3.129025 -5.930016 -0.352337
-3.143380 -5.931140 -0.353478
-3.158560 -5.934018 -0.354963
-3.173175 -5.935402 -0.356181
-3.185164 -5.930695 -0.356254
-3.199960 -5.932229 -0.357525
-3.212272 -5.928124 -0.357734
-3.224581 -5.923978 -0.357944
-3.237818 -5.921794 -0.358540
-3.255735 -5.929451 -0.361035
-3.268727 -5.926466 -0.361501
-3.279962 -5.919775 -0.361262
-3.292083 -5.914916 -0.361384
-3.306498 -5.914671 -0.362407
-3.324175 -5.920811 -0.364681
-3.338274 -5.919597 -0.365543
-3.347642 -5.909032 -0.364592
-3.358787 -5.901994 -0.364333
-3.377941 -5.910259 -0.367077
-3.393465 -5.911345 -0.368431
-3.407223 -5.908967 -0.369116
-3.420457 -5.905528 -0.369601
-3.434722 -5.903902 -0.370454
-3.449651 -5.903363 -0.371533
-3.464195 -5.902002 -0.372460
-3.478685 -5.900430 -0.373355
-3.490788 -5.894572 -0.373405
-3.508536 -5.898446 -0.375410
-3.524422 -5.898907 -0.376745
-3.539881 -5.898487 -0.377916
-3.552397 -5.893003 -0.378077
-3.568605 -5.893594 -0.379474
-3.584455 -5.893439 -0.380731
-3.599047 -5.891095 -0.381557
-3.612626 -5.887024 -0.382040
-3.627994 -5.885727 -0.383099
-3.646631 -5.889439 -0.385194
-3.666395 -5.894674 -0.387620
-3.680634 -5.891149 -0.388260
-3.698442 -5.892974 -0.390014
-3.711533 -5.887500 -0.390272
-3.724568 -5.881898 -0.390511
-3.738922 -5.878203 -0.391153
-3.759299 -5.883234 -0.393627
-3.774704 -5.880809 -0.394560
-3.790576 -5.878948 -0.395623
-3.802747 -5.871713 -0.395566
-3.819112 -5.870358 -0.396757
-3.835551 -5.868973 -0.397955
-3.849140 -5.863533 -0.398304
-3.861765 -5.856724 -0.398371
-3.890091 -5.871097 -0.402969
-3.903229 -5.864714 -0.403154
-3.915663 -5.857363 -0.403140
-3.940418 -5.866152 -0.406610
-3.957651 -5.864839 -0.407925
-3.976374 -5.865304 -0.409642
-3.985251 -5.853048 -0.408610
-4.007734 -5.858033 -0.411340
-4.033056 -5.866306 -0.414814
-4.049967 -5.863839 -0.415961
-4.061722 -5.854927 -0.415705
-4.076271 -5.849406 -0.416205
-4.097757 -5.852167 -0.418552
-4.117702 -5.852865 -0.420465
-4.119903 -5.832430 -0.417686
-4.153542 -5.848969 -0.423172
-4.165832 -5.840289 -0.423043
-4.177050 -5.830364 -0.422643
-4.206265 -5.840907 -0.426877
-4.217597 -5.830931 -0.426497
-4.228393 -5.820361 -0.425990
-4.246198 -5.817552 -0.427263
-4.271317 -5.822618 -0.430363
-4.285939 -5.816017 -0.430813
-4.299397 -5.808099 -0.430975
-4.318043 -5.805660 -0.432420
-4.336521 -5.802897 -0.433814
-4.357130 -5.802219 -0.435718
-4.376481 -5.800054 -0.437302
-4.396701 -5.798621 -0.439085
-4.412842 -5.792868 -0.439877
-4.431245 -5.789296 -0.441207
-4.449091 -5.785029 -0.442398
-4.470730 -5.784379 -0.444478
-4.486149 -5.777442 -0.445084
-4.502371 -5.771198 -0.445879
-4.524108 -5.770153 -0.447954
-4.541969 -5.765219 -0.449121
-4.559078 -5.759445 -0.450112
-4.574735 -5.752197 -0.450769
-4.581923 -5.737016 -0.449500
-4.583887 -5.717098 -0.447071
-4.583945 -5.695587 -0.444245
-4.585214 -5.675334 -0.441728
-4.594918 -5.662746 -0.441128
-4.594666 -5.641362 -0.438332
-4.595857 -5.621405 -0.435892
-4.593121 -5.598178 -0.432622
-4.591932 -5.576474 -0.429731
-4.593192 -5.557018 -0.427410
-4.595700 -5.538737 -0.425392
-4.595702 -5.518464 -0.422862
-4.590426 -5.493968 -0.419231
-4.588177 -5.472165 -0.416290
-4.589449 -5.453381 -0.414135
-4.588612 -5.433012 -0.411563
-4.568426 -5.397402 -0.404941
-4.571572 -5.380589 -0.403288
-4.564526 -5.355902 -0.399527
-4.549053 -5.324935 -0.394053
-4.546446 -5.304149 -0.391303
-4.552110 -5.289772 -0.390293
-4.543962 -5.265073 -0.386460
-4.524267 -5.232037 -0.380303
-4.536139 -5.222582 -0.380641
-4.549828 -5.214378 -0.381354
-4.620891 -5.247372 -0.393671
