ply
format ascii 1.0
comment ---
element vertex 1708
property float x
property float y
property float z
element face 0
property list uchar uint vertex_indices
end_header
-1.636935 2.857541 0.125272
-1.612809 2.854576 0.124177
-1.590149 2.855052 0.123136
-1.566325 2.852735 0.122018
-1.533733 2.828884 0.120436
-1.510343 2.827109 0.119314
-1.485996 2.822783 0.118136
-1.458173 2.809351 0.116773
-1.431670 2.798798 0.115475
-1.409785 2.799873 0.114415
-1.387722 2.800310 0.113347
-1.364395 2.797137 0.112218
-1.341784 2.795600 0.111132
-1.317179 2.788230 0.109949
-1.297785 2.795087 0.109045
-1.274056 2.789464 0.107926
-1.249346 2.780535 0.106766
-1.228235 2.781682 0.105805
-1.207581 2.783946 0.104880
-1.185083 2.780360 0.103872
-1.161617 2.773359 0.102827
-1.138142 2.765791 0.101795
-1.110499 2.744313 0.100557
-1.090013 2.745127 0.099710
-0.995550 2.500440 0.094944
-0.957537 2.437340 0.093174
-0.933287 2.418969 0.092148
-0.915187 2.421148 0.091465
-0.897744 2.425465 0.090833
-0.878867 2.424476 0.090137
-0.856675 2.410953 0.089272
-0.832989 2.391042 0.088337
-0.814395 2.389603 0.087694
-0.800180 2.404937 0.087311
-0.782380 2.406351 0.086742
-0.763062 2.401407 0.086100
-0.745424 2.402969 0.085566
-0.730972 2.417828 0.085232
-0.712344 2.415036 0.084668
-0.687725 2.385459 0.083761
-0.670903 2.389498 0.083325
-0.654471 2.395286 0.082926
-0.637350 2.397866 0.082499
-0.620922 2.403692 0.082127
-0.600410 2.389412 0.081510
-0.579159 2.370482 0.080851
-0.566463 2.394754 0.080755
-0.548342 2.391222 0.080318
-0.528103 2.375762 0.079747
-0.511852 2.381608 0.079454
-0.493054 2.372931 0.078994
-0.473298 2.357929 0.078471
-0.459002 2.375088 0.078350
-0.442328 2.378195 0.078068
-0.422729 2.362449 0.077573
-0.407746 2.376261 0.077440
-0.390989 2.378622 0.077181
-0.372373 2.367783 0.076777
-0.353210 2.352024 0.076329
-0.333976 2.334450 0.075871
-0.317120 2.334190 0.075622
-0.305376 2.375639 0.075856
-0.292969 2.414614 0.076064
-0.282441 2.473338 0.076498
-0.272054 2.538308 0.077003
-0.260949 2.602069 0.077495
-0.243183 2.604267 0.077308
-0.223965 2.591145 0.076961
-0.204765 2.576733 0.076608
-0.186831 2.575561 0.076408
-0.170012 2.588048 0.076364
-0.152026 2.586522 0.076174
-0.133856 2.582095 0.075960
-0.115879 2.579868 0.075777
-0.098027 2.579249 0.075617
-0.079833 2.572449 0.075398
-0.061311 2.558111 0.075105
-0.042979 2.544893 0.074831
-0.025005 2.537080 0.074621
-0.000795 2.364905 0.072690
0.018637 2.286937 0.071762
0.035718 2.264881 0.071427
0.052199 2.258992 0.071266
0.068474 2.260714 0.071190
0.084545 2.276997 0.071269
0.100907 2.280166 0.071216
0.117346 2.275599 0.071087
0.133758 2.261293 0.070862
0.150062 2.253430 0.070708
0.166422 2.261333 0.070720
0.182642 2.252075 0.070561
0.198787 2.243160 0.070409
0.215079 2.244558 0.070366
0.231663 2.256289 0.070433
0.247443 2.238559 0.070203
0.263621 2.236394 0.070135
0.279420 2.225231 0.069980
0.295677 2.226346 0.069954
0.311716 2.222750 0.069883
0.328541 2.234063 0.069967
0.344922 2.235968 0.069959
0.361331 2.237910 0.069956
0.377196 2.231511 0.069872
0.393828 2.236307 0.069905
0.409797 2.231890 0.069849
0.425763 2.227820 0.069800
0.440819 2.213628 0.069653
0.456036 2.202522 0.069541
0.472041 2.200554 0.069525
0.487761 2.195851 0.069486
0.503712 2.193624 0.069476
0.519660 2.191457 0.069471
0.535354 2.187159 0.069448
0.550535 2.178811 0.069390
0.566924 2.180679 0.069438
0.583218 2.181568 0.069482
0.598667 2.175986 0.069465
0.614904 2.176350 0.069513
0.631012 2.175685 0.069556
0.648297 2.182893 0.069684
0.662920 2.172139 0.069635
0.680536 2.180903 0.069790
0.698136 2.188943 0.069944
0.716062 2.198370 0.070118
0.732139 2.196398 0.070182
0.748621 2.196713 0.070275
0.765392 2.198481 0.070390
0.781929 2.198781 0.070497
0.798086 2.196958 0.070588
0.814361 2.195704 0.070692
0.830462 2.193518 0.070794
0.846931 2.193092 0.070921
0.862691 2.189189 0.071020
0.877049 2.178805 0.071057
0.893064 2.176281 0.071186
0.907891 2.168442 0.071266
0.920978 2.153211 0.071274
0.937789 2.154367 0.071467
0.957421 2.167130 0.071795
0.973136 2.163185 0.071952
0.989531 2.161982 0.072148
1.009940 2.176490 0.072527
1.027010 2.177391 0.072767
1.041510 2.168346 0.072907
1.053344 2.149549 0.072948
1.070448 2.150539 0.073220
1.089902 2.159768 0.073598
1.105675 2.155519 0.073834
1.120386 2.147561 0.074039
1.135549 2.141240 0.074274
1.152996 2.142610 0.074611
1.169604 2.140990 0.074926
1.186484 2.140120 0.075263
1.202057 2.134924 0.075561
1.217852 2.130397 0.075879
1.234503 2.128465 0.076243
1.253147 2.132459 0.076695
1.267735 2.123984 0.077006
1.284169 2.121005 0.077400
1.300175 2.116667 0.077790
1.318297 2.118304 0.078273
1.340304 2.130633 0.078912
1.355685 2.123978 0.079320
1.376849 2.133133 0.079953
-1.937057 2.799151 0.113660
-1.729496 2.859876 0.108808
-1.713378 2.874568 0.108180
-1.688111 2.869137 0.107154
-1.661819 2.861364 0.106055
-1.638273 2.859857 0.105039
-1.613768 2.856122 0.103962
-1.590456 2.855150 0.102913
-1.568552 2.857533 0.101904
-1.542962 2.850929 0.100736
-1.511092 2.828505 0.099314
-1.487211 2.825418 0.098199
-1.463878 2.823505 0.097103
-1.432036 2.799394 0.095674
-1.408622 2.796499 0.094576
-1.386276 2.796156 0.093523
-1.363742 2.795080 0.092468
-1.343314 2.799505 0.091500
-1.324032 2.807000 0.090585
-1.297780 2.794791 0.089413
-1.274021 2.789080 0.088347
-1.251351 2.786079 0.087336
-1.226388 2.775921 0.086251
-1.206608 2.780708 0.085375
-1.188987 2.791942 0.084596
-1.160191 2.768587 0.083410
-1.137447 2.763232 0.082468
-1.109427 2.740488 0.081344
-1.088758 2.740625 0.080512
-0.997234 2.505609 0.077049
-0.952515 2.419975 0.075353
-0.931967 2.413987 0.074574
-0.909911 2.402242 0.073755
-0.895068 2.415443 0.073219
-0.877795 2.420058 0.072608
-0.857902 2.414913 0.071913
-0.833921 2.393950 0.071080
-0.817558 2.401086 0.070547
-0.802073 2.411666 0.070061
-0.784146 2.412693 0.069498
-0.764217 2.405376 0.068873
-0.746326 2.405951 0.068339
-0.731372 2.418728 0.067932
-0.711078 2.408746 0.067333
-0.690762 2.398000 0.066745
-0.670950 2.388820 0.066189
-0.651972 2.382848 0.065677
-0.638104 2.400461 0.065379
-0.620783 2.402023 0.064957
-0.600605 2.389343 0.064432
-0.582651 2.387079 0.064008
-0.561897 2.369991 0.063479
-0.545943 2.377336 0.063158
-0.527934 2.373664 0.062762
-0.511332 2.377485 0.062436
-0.496405 2.390950 0.062195
-0.473629 2.358599 0.061620
-0.457232 2.362993 0.061333
-0.438181 2.350863 0.060935
-0.425014 2.375777 0.060817
-0.409216 2.384587 0.060590
-0.390435 2.373322 0.060230
-0.370766 2.354836 0.059831
-0.352280 2.343618 0.059495
-0.334973 2.340417 0.059223
-0.318694 2.344939 0.059014
-0.307968 2.395126 0.059118
-0.296160 2.439963 0.059188
-0.287265 2.514207 0.059455
-0.274773 2.561466 0.059545
-0.259596 2.586904 0.059497
-0.243367 2.603979 0.059400
-0.224608 2.595753 0.059148
-0.205418 2.581739 0.058868
-0.187022 2.575436 0.058645
-0.170305 2.589234 0.058554
-0.152972 2.596476 0.058428
-0.134492 2.588392 0.058213
-0.116135 2.580938 0.058010
-0.097982 2.575592 0.057826
-0.080061 2.573374 0.057668
-0.061491 2.558296 0.057438
-0.043259 2.547296 0.057239
-0.024988 2.532980 0.057027
-0.004576 2.459450 0.056473
0.018880 2.275649 0.055285
0.035001 2.284904 0.055234
0.051650 2.276174 0.055084
0.068229 2.266860 0.054935
0.084606 2.265289 0.054835
0.100773 2.282209 0.054845
0.117228 2.277507 0.054735
0.133667 2.254230 0.054524
0.150006 2.264928 0.054510
0.166304 2.257689 0.054399
0.182423 2.241273 0.054240
0.198675 2.241169 0.054177
0.214915 2.240323 0.054113
0.231380 2.248089 0.054100
0.247366 2.237979 0.053992
0.263572 2.236521 0.053936
0.279597 2.230736 0.053859
0.295470 2.222655 0.053773
0.311880 2.226741 0.053758
0.328072 2.225976 0.053720
0.344514 2.229445 0.053708
0.360673 2.227848 0.053672
0.377921 2.242262 0.053728
0.394310 2.242954 0.053711
0.409980 2.234219 0.053647
0.425474 2.224222 0.053580
0.440736 2.212525 0.053508
0.455687 2.198520 0.053426
0.471107 2.190628 0.053382
0.486987 2.187901 0.053370
0.502927 2.185875 0.053366
0.519118 2.186193 0.053378
0.535223 2.185625 0.053390
0.551101 2.183104 0.053395
0.566696 2.178398 0.053393
0.582645 2.176662 0.053411
0.598677 2.175561 0.053438
0.614639 2.173927 0.053466
0.630382 2.170767 0.053491
0.646236 2.168449 0.053525
0.662550 2.169169 0.053581
0.678954 2.170307 0.053644
0.698661 2.191600 0.053826
0.715573 2.194856 0.053913
0.732444 2.197580 0.054003
0.748737 2.196774 0.054079
0.766236 2.202534 0.054199
0.781681 2.196852 0.054260
0.797828 2.195005 0.054349
0.813347 2.189923 0.054427
0.829232 2.186784 0.054522
0.845379 2.184940 0.054632
0.861535 2.183093 0.054750
0.877339 2.179562 0.054865
0.892689 2.173988 0.054975
0.906859 2.163269 0.055062
0.920406 2.150147 0.055142
0.939574 2.161421 0.055378
0.956819 2.164055 0.055571
0.972759 2.161089 0.055738
0.989536 2.161458 0.055935
1.005738 2.159402 0.056127
1.024292 2.166357 0.056386
1.036668 2.149469 0.056502
1.054064 2.151729 0.056751
1.070482 2.150174 0.056986
1.088124 2.152905 0.057260
1.104543 2.151060 0.057516
1.119011 2.142343 0.057736
1.135306 2.139976 0.058010
1.153367 2.143432 0.058336
1.170277 2.142798 0.058647
1.186851 2.140916 0.058961
1.201880 2.133981 0.059252
1.218544 2.132207 0.059593
1.235352 2.130739 0.059949
1.251450 2.126965 0.060301
1.270300 2.131348 0.060730
1.285309 2.124069 0.061083
1.301666 2.120716 0.061480
1.321394 2.126900 0.061969
1.341415 2.133516 0.062478
1.364272 2.147602 0.063067
-1.886866 2.819592 0.093119
-1.880264 2.849292 0.093108
-1.857601 2.847085 0.092571
-1.731176 2.862369 0.088506
-1.710063 2.866060 0.087673
-1.675606 2.839874 0.086425
-1.665568 2.869024 0.085844
-1.646070 2.877092 0.084966
-1.617935 2.865147 0.083824
-1.593033 2.860588 0.082755
-1.569417 2.858988 0.081708
-1.541582 2.846979 0.080535
-1.512567 2.831628 0.079324
-1.487186 2.824863 0.078210
-1.465120 2.826211 0.077182
-1.443053 2.827430 0.076155
-1.420835 2.828098 0.075126
-1.389678 2.804812 0.073872
-1.366255 2.801481 0.072826
-1.345518 2.805166 0.071857
-1.324097 2.806809 0.070879
-1.300267 2.801436 0.069853
-1.273507 2.787231 0.068771
-1.248228 2.776606 0.067739
-1.225757 2.773660 0.066790
-1.203339 2.770484 0.065858
-1.177316 2.755907 0.064859
-1.169782 2.797884 0.064298
-1.136964 2.761250 0.063179
-1.112426 2.749616 0.062267
-1.074203 2.692691 0.061075
-0.995808 2.500383 0.059046
-0.949508 2.409323 0.057747
-0.930759 2.409306 0.057057
-0.912386 2.410321 0.056391
-0.892848 2.406960 0.055716
-0.873254 2.402998 0.055057
-0.856932 2.410687 0.054479
-0.840295 2.417212 0.053908
-0.819575 2.408100 0.053273
-0.802147 2.411214 0.052718
-0.782947 2.407147 0.052143
-0.761358 2.392967 0.051538
-0.745412 2.401329 0.051055
-0.724390 2.388341 0.050491
-0.710008 2.403224 0.050063
-0.691263 2.399275 0.049569
-0.670341 2.385114 0.049050
-0.656153 2.401106 0.048664
-0.637601 2.397051 0.048214
-0.620543 2.399793 0.047802
-0.602391 2.397048 0.047384
-0.581405 2.379642 0.046930
-0.566781 2.394116 0.046596
-0.548327 2.388784 0.046209
-0.529352 2.380144 0.045824
-0.511671 2.378092 0.045472
-0.493349 2.372056 0.045121
-0.476762 2.375754 0.044808
-0.458839 2.371363 0.044484
-0.439831 2.359754 0.044151
-0.422543 2.358359 0.043857
-0.406087 2.362247 0.043586
-0.388975 2.361727 0.043313
-0.369452 2.343914 0.043009
-0.352066 2.340400 0.042749
-0.335365 2.341701 0.042508
-0.319411 2.348846 0.042288
-0.303203 2.354321 0.042072
-0.295604 2.433342 0.042010
-0.288941 2.527068 0.041976
-0.274397 2.555920 0.041815
-0.260150 2.590111 0.041670
-0.243316 2.601236 0.041487
-0.225413 2.602006 0.041292
-0.206516 2.591631 0.041086
-0.188096 2.585635 0.040894
-0.169828 2.580740 0.040712
-0.152803 2.591576 0.040561
-0.134923 2.591701 0.040398
-0.116044 2.576694 0.040220
-0.097878 2.570896 0.040062
-0.080053 2.570066 0.039917
-0.062776 2.579484 0.039792
-0.043909 2.557363 0.039629
-0.025195 2.533988 0.039472
-0.005587 2.481698 0.039285
0.018919 2.270290 0.038914
0.034869 2.284746 0.038826
0.051156 2.290937 0.038733
0.068005 2.271800 0.038615
0.084558 2.260531 0.038511
0.100806 2.268262 0.038432
0.117113 2.278563 0.038358
0.133540 2.272599 0.038272
0.149877 2.255190 0.038178
0.166240 2.261016 0.038111
0.182241 2.233484 0.038016
0.198524 2.236917 0.037954
0.214890 2.242481 0.037898
0.231033 2.237470 0.037835
0.247259 2.236490 0.037780
0.263426 2.233936 0.037726
0.279779 2.236409 0.037680
0.296136 2.238322 0.037637
0.311927 2.228377 0.037587
0.328495 2.234270 0.037555
0.344262 2.225556 0.037513
0.360972 2.232787 0.037487
0.377808 2.240752 0.037466
0.394682 2.248095 0.037448
0.410544 2.241436 0.037421
0.425871 2.228929 0.037394
0.440970 2.215041 0.037369
0.455194 2.192933 0.037341
0.470906 2.188268 0.037331
0.486525 2.183018 0.037324
0.502952 2.185761 0.037327
0.518896 2.183787 0.037331
0.535267 2.185584 0.037341
0.551034 2.182095 0.037351
0.566900 2.179554 0.037366
0.582564 2.175539 0.037384
0.598504 2.173754 0.037408
0.614449 2.172019 0.037436
0.630210 2.169014 0.037468
0.646076 2.166798 0.037506
0.661930 2.164535 0.037548
0.678837 2.168971 0.037601
0.696848 2.179836 0.037665
0.714460 2.187586 0.037732
0.731937 2.194012 0.037804
0.749540 2.200690 0.037882
0.766111 2.201211 0.037960
0.781546 2.195488 0.038038
0.797480 2.192546 0.038125
0.813578 2.190463 0.038219
0.829671 2.188335 0.038320
0.845260 2.183723 0.038425
0.861383 2.181734 0.038539
0.876841 2.176615 0.038657
0.892833 2.174021 0.038786
0.908964 2.172016 0.038922
0.925787 2.172981 0.039071
0.940863 2.166312 0.039217
0.957599 2.166711 0.039381
0.973271 2.162595 0.039548
0.989509 2.160765 0.039726
1.005250 2.156901 0.039911
1.020857 2.152515 0.040103
1.037641 2.152602 0.040312
1.054237 2.151826 0.040530
1.072429 2.156757 0.040769
1.087207 2.149089 0.040995
1.102182 2.142216 0.041232
1.118246 2.139192 0.041487
1.136639 2.144034 0.041770
1.154452 2.146595 0.042060
1.170490 2.143042 0.042349
1.182643 2.126830 0.042620
1.201880 2.133549 0.042956
1.217438 2.128318 0.043277
1.234598 2.128012 0.043622
1.253609 2.133146 0.043996
1.269522 2.128648 0.044357
1.285767 2.125065 0.044734
1.305630 2.131890 0.045157
1.322506 2.129759 0.045567
1.340718 2.131243 0.046004
1.363534 2.145258 0.046500
-1.732744 2.864578 0.068171
-1.709990 2.864753 0.067303
-1.686948 2.864444 0.066397
-1.665772 2.868520 0.065495
-1.647310 2.879073 0.064613
-1.621703 2.873171 0.063591
-1.593806 2.861670 0.062516
-1.567286 2.853152 0.061454
-1.541089 2.845125 0.060390
-1.511156 2.827531 0.059266
-1.485534 2.820149 0.058207
-1.465172 2.825808 0.057225
-1.444922 2.831746 0.056243
-1.422748 2.832618 0.055238
-1.393457 2.814382 0.054149
-1.365613 2.799280 0.053091
-1.344707 2.802483 0.052130
-1.322947 2.803150 0.051170
-1.299013 2.797435 0.050198
-1.274665 2.790079 0.049237
-1.249670 2.780325 0.048287
-1.227093 2.777122 0.047378
-1.201550 2.764611 0.046460
-1.179359 2.761623 0.045591
-1.159233 2.764636 0.044755
-1.138421 2.765283 0.043931
-1.113804 2.753455 0.043099
-1.074057 2.691625 0.042194
-0.993393 2.491794 0.041094
-0.950467 2.411958 0.040270
-0.931342 2.410682 0.039600
-0.913136 2.412292 0.038950
-0.894554 2.412347 0.038314
-0.879109 2.423482 0.037705
-0.860234 2.422122 0.037100
-0.839608 2.413867 0.036508
-0.818462 2.403046 0.035934
-0.801362 2.407326 0.035382
-0.782708 2.405341 0.034845
-0.762600 2.397124 0.034323
-0.741732 2.385176 0.033820
-0.723008 2.381557 0.033331
-0.706660 2.387792 0.032853
-0.690690 2.395733 0.032387
-0.671379 2.388743 0.031944
-0.652414 2.382806 0.031514
-0.636120 2.388962 0.031088
-0.619593 2.394059 0.030674
-0.602099 2.394422 0.030277
-0.583144 2.387213 0.029903
-0.559367 2.354470 0.029578
-0.550839 2.400832 0.029152
-0.531912 2.392767 0.028816
-0.511185 2.374013 0.028510
-0.493997 2.374382 0.028184
-0.477743 2.380107 0.027859
-0.461476 2.385912 0.027544
-0.442360 2.374065 0.027272
-0.423884 2.365453 0.027006
-0.405725 2.358247 0.026747
-0.388330 2.355667 0.026488
-0.370745 2.351412 0.026243
-0.352055 2.338611 0.026026
-0.336691 2.350015 0.025761
-0.318772 2.342002 0.025551
-0.304385 2.362122 0.025277
-0.293199 2.410934 0.024932
-0.287864 2.515461 0.024439
-0.274305 2.552927 0.024126
-0.259939 2.585843 0.023829
-0.243062 2.596369 0.023600
-0.225913 2.604931 0.023383
-0.208003 2.605773 0.023194
-0.189133 2.595310 0.023046
-0.170537 2.586953 0.022899
-0.151593 2.572862 0.022776
-0.133816 2.573271 0.022615
-0.116319 2.577871 0.022447
-0.097447 2.560817 0.022353
-0.079859 2.563407 0.022202
-0.062283 2.566636 0.022054
-0.044054 2.556755 0.021955
-0.025783 2.543725 0.021871
-0.006188 2.493155 0.021921
0.018683 2.272960 0.022558
0.034733 2.284580 0.022413
0.051273 2.280687 0.022326
0.067853 2.272975 0.022256
0.084341 2.266696 0.022185
0.100671 2.269981 0.022085
0.117055 2.269695 0.022001
0.133436 2.271647 0.021912
0.149761 2.249729 0.021913
0.165923 2.232709 0.021901
0.182090 2.228271 0.021847
0.198453 2.237373 0.021746
0.214782 2.240853 0.021670
0.231166 2.245014 0.021593
0.247077 2.232570 0.021582
0.263429 2.235513 0.021517
0.279811 2.238369 0.021455
0.296237 2.241462 0.021395
0.312780 2.246202 0.021333
0.328597 2.236661 0.021327
0.345329 2.243986 0.021261
0.377612 2.238016 0.021216
0.394221 2.241831 0.021173
0.410010 2.234524 0.021175
0.425700 2.226746 0.021183
0.439939 2.203026 0.021256
0.455361 2.194505 0.021274
0.470739 2.186250 0.021294
0.486630 2.183722 0.021295
0.502595 2.182014 0.021297
0.518873 2.183172 0.021292
0.534877 2.181747 0.021300
0.550856 2.180135 0.021313
0.566677 2.177263 0.021334
0.582578 2.175115 0.021357
0.598342 2.171996 0.021388
0.614621 2.172694 0.021408
0.630719 2.171977 0.021438
0.646561 2.169471 0.021480
0.662715 2.169051 0.021518
0.679379 2.171783 0.021549
0.696669 2.178101 0.021571
0.714423 2.186720 0.021590
0.732145 2.194563 0.021618
0.748576 2.194574 0.021680
0.765690 2.198225 0.021735
0.781875 2.196588 0.021815
0.798168 2.195479 0.021899
0.813795 2.190901 0.022002
0.829346 2.186043 0.022113
0.843820 2.176039 0.022248
0.860697 2.177803 0.022347
0.877182 2.177536 0.022461
0.893515 2.176457 0.022585
0.910292 2.177267 0.022709
0.926693 2.176272 0.022848
0.941312 2.167579 0.023020
0.957024 2.163666 0.023184
0.974050 2.165151 0.023338
0.991031 2.166252 0.023502
1.006577 2.161508 0.023694
1.022645 2.158813 0.023888
1.038478 2.155173 0.024094
1.054897 2.153692 0.024302
1.070188 2.147983 0.024533
1.088510 2.153195 0.024742
1.102516 2.142839 0.025005
1.118040 2.137931 0.025264
1.137507 2.146457 0.025496
1.153549 2.143047 0.025772
1.168406 2.135666 0.026069
1.182954 2.127346 0.026379
1.198729 2.123020 0.026690
1.217440 2.127858 0.026992
1.236761 2.134238 0.027304
1.253305 2.131782 0.027649
1.267675 2.122696 0.028020
1.284745 2.121642 0.028387
1.305026 2.129742 0.028752
1.322377 2.129010 0.029147
1.338458 2.124509 0.029562
1.357220 2.127370 0.029980
-1.872519 2.829353 0.052408
-1.732440 2.862627 0.047795
-1.710706 2.865163 0.046946
-1.689006 2.867994 0.046066
-1.666042 2.868118 0.045150
-1.644741 2.872171 0.044220
-1.622026 2.873049 0.043263
-1.595339 2.864498 0.042272
-1.567011 2.851724 0.041267
-1.539384 2.840242 0.040263
-1.511878 2.828642 0.039259
-1.485402 2.819176 0.038260
-1.465660 2.826434 0.037277
-1.443452 2.827353 0.036292
-1.421160 2.827880 0.035312
-1.389706 2.803846 0.034341
-1.364904 2.796814 0.033385
-1.344175 2.800475 0.032437
-1.323510 2.804162 0.031500
-1.298396 2.795140 0.030587
-1.271029 2.779103 0.029701
-1.252912 2.789189 0.028800
-1.228371 2.780315 0.027941
-1.203824 2.770842 0.027104
-1.183583 2.773897 0.026262
-1.162226 2.773285 0.025444
-1.140730 2.771908 0.024646
-1.115700 2.758855 0.023897
-1.084080 2.723588 0.023235
-0.991883 2.486117 0.023220
-0.948652 2.405159 0.022804
-0.930030 2.405476 0.022156
-0.911001 2.404104 0.021531
-0.895607 2.415326 0.020875
-0.879056 2.422501 0.020247
-0.862646 2.430188 0.019631
-0.841668 2.420754 0.019100
-0.819660 2.406756 0.018608
-0.801941 2.408680 0.018064
-0.784304 2.410751 0.017533
-0.764454 2.403678 0.017060
-0.743349 2.390880 0.016632
-0.726313 2.394496 0.016138
-0.707548 2.390569 0.015696
-0.689653 2.390073 0.015251
-0.670536 2.383822 0.014850
-0.652686 2.382906 0.014435
-0.636992 2.391877 0.013976
-0.619736 2.393528 0.013570
-0.599522 2.380455 0.013262
-0.581843 2.379346 0.012897
-0.562598 2.369878 0.012595
-0.544195 2.364201 0.012282
-0.531278 2.387913 0.011798
-0.512025 2.377275 0.011538
-0.493413 2.369562 0.011271
-0.478289 2.381822 0.010886
-0.461182 2.382578 0.010584
-0.443962 2.382497 0.010297
-0.420353 2.341084 0.010299
-0.405266 2.353542 0.009948
-0.391254 2.374018 0.009549
-0.374223 2.374318 0.009296
-0.355961 2.365463 0.009116
-0.335662 2.340368 0.009060
-0.321739 2.363484 0.008670
-0.310277 2.408348 0.008127
-0.296455 2.436585 0.007707
-0.286638 2.502481 0.007015
-0.275223 2.559187 0.006390
-0.259209 2.576506 0.006060
-0.242738 2.590714 0.005759
-0.225718 2.600404 0.005497
-0.207729 2.600182 0.005315
-0.189445 2.596368 0.005168
-0.170379 2.582281 0.005105
-0.151818 2.573041 0.005013
-0.132706 2.554754 0.004997
-0.115755 2.566356 0.004754
-0.097981 2.566291 0.004608
-0.079778 2.558659 0.004526
-0.061900 2.555797 0.004413
-0.044206 2.556185 0.004278
-0.026015 2.545120 0.004240
-0.007899 2.533285 0.004213
0.018225 2.282077 0.006119
0.035180 2.264414 0.006156
0.051385 2.270529 0.006005
0.067917 2.263204 0.005968
0.084124 2.272703 0.005796
0.100571 2.268229 0.005743
0.116977 2.263901 0.005692
0.133362 2.248472 0.005736
0.149617 2.236375 0.005756
0.165783 2.226780 0.005760
0.182037 2.230978 0.005653
0.198470 2.243072 0.005483
0.215052 2.256614 0.005303
0.231353 2.254614 0.005256
0.247339 2.242936 0.005293
0.263016 2.225504 0.005382
0.279726 2.237441 0.005228
0.296188 2.241299 0.005144
0.312337 2.237992 0.005124
0.328979 2.244195 0.005026
0.344624 2.232414 0.005083
0.361918 2.248090 0.004911
0.377546 2.237174 0.004968
0.393044 2.225754 0.005031
0.408421 2.214041 0.005101
0.424058 2.206693 0.005137
0.439558 2.198462 0.005183
0.455241 2.192941 0.005210
0.471056 2.189221 0.005225
0.486655 2.183611 0.005259
0.502518 2.180882 0.005272
0.518435 2.178771 0.005283
0.534570 2.178621 0.005281
0.550215 2.174294 0.005319
0.566150 2.172509 0.005338
0.582134 2.171134 0.005358
0.598267 2.170862 0.005372
0.614182 2.168938 0.005405
0.630390 2.169074 0.005424
0.646508 2.168484 0.005453
0.662514 2.167095 0.005494
0.679366 2.171044 0.005494
0.698254 2.187186 0.005395
0.716420 2.197983 0.005347
0.732560 2.196293 0.005410
0.747834 2.189679 0.005520
0.764271 2.189707 0.005578
0.781383 2.193244 0.005613
0.799015 2.199201 0.005634
0.814160 2.192057 0.005770
0.826813 2.172710 0.006014
0.841868 2.165836 0.006159
0.860679 2.177013 0.006161
0.878110 2.181145 0.006229
0.894013 2.178021 0.006363
0.911034 2.179870 0.006464
0.927393 2.178629 0.006597
0.942739 2.172977 0.006774
0.957713 2.165864 0.006969
0.975043 2.168540 0.007094
0.992172 2.170162 0.007235
1.007657 2.165099 0.007438
1.023751 2.162430 0.007631
1.040018 2.160367 0.007827
1.054822 2.152778 0.008076
1.071343 2.151580 0.008284
1.087295 2.148218 0.008518
1.105138 2.151480 0.008711
1.122261 2.151967 0.008936
1.138383 2.148857 0.009198
1.154356 2.145180 0.009475
1.169409 2.138411 0.009785
1.182943 2.126766 0.010141
1.200956 2.129591 0.010403
1.218471 2.130577 0.010690
1.236809 2.133880 0.010974
1.252603 2.129155 0.011325
1.268620 2.125049 0.011685
1.284938 2.121750 0.012051
1.301743 2.119759 0.012421
1.319840 2.121318 0.012781
1.337622 2.121735 0.013163
1.358580 2.130744 0.013505
-1.904284 2.805528 0.033035
-1.878750 2.839922 0.032167
-1.724544 2.843919 0.027462
-1.710586 2.863664 0.026585
-1.689990 2.869063 0.025702
-1.663640 2.861554 0.024821
-1.640412 2.861139 0.023905
-1.616864 2.859992 0.022973
-1.596307 2.865911 0.022006
-1.567022 2.850914 0.021095
-1.533690 2.825544 0.020221
-1.507591 2.817273 0.019291
-1.486619 2.821509 0.018313
-1.465584 2.825543 0.017336
-1.443612 2.827087 0.016371
-1.418961 2.821454 0.015446
-1.393707 2.813833 0.014540
-1.372981 2.817956 0.013587
-1.344252 2.800044 0.012761
-1.324173 2.805362 0.011826
-1.304862 2.812733 0.010889
-1.275979 2.792629 0.010129
-1.253250 2.789509 0.009286
-1.228365 2.779622 0.008505
-1.206592 2.778462 0.007685
-1.186413 2.781821 0.006851
-1.164254 2.778847 0.006077
-1.140859 2.771570 0.005353
-1.115385 2.757080 0.004703
-1.091173 2.745907 0.004050
-0.950502 2.410628 0.005309
-0.928660 2.399985 0.004769
-0.910010 2.399830 0.004161
-0.894335 2.409963 0.003482
-0.878088 2.418123 0.002832
-0.861483 2.425001 0.002205
-0.842090 2.421408 0.001686
-0.825395 2.427734 0.001093
-0.805044 2.419794 0.000644
-0.782874 2.404050 0.000285
-0.763141 2.397311 -0.000141
-0.746496 2.402828 -0.000669
-0.724969 2.387717 -0.000984
-0.710108 2.400472 -0.001557
-0.690487 2.392581 -0.001913
-0.669787 2.379257 -0.002200
-0.654189 2.388595 -0.002703
-0.641011 2.409528 -0.003316
-0.621938 2.402830 -0.003633
-0.600651 2.384692 -0.003816
-0.582057 2.379065 -0.004117
-0.564696 2.379342 -0.004469
-0.546883 2.377035 -0.004783
-0.529142 2.374814 -0.005087
-0.511608 2.373441 -0.005389
-0.493213 2.366874 -0.005623
-0.476378 2.368968 -0.005944
-0.460808 2.378688 -0.006342
-0.444156 2.382049 -0.006659
-0.424786 2.367954 -0.006769
-0.404173 2.344554 -0.006762
-0.388786 2.355322 -0.007137
-0.374533 2.374690 -0.007606
-0.357011 2.371296 -0.007804
-0.336494 2.344786 -0.007721
-0.319497 2.343887 -0.007931
-0.307690 2.385185 -0.008634
-0.295346 2.425067 -0.009319
-0.285131 2.486963 -0.010264
-0.272315 2.530063 -0.010983
-0.259230 2.574339 -0.011715
-0.242484 2.585715 -0.012045
-0.224791 2.588064 -0.012259
-0.207167 2.591326 -0.012479
-0.188842 2.586592 -0.012595
-0.170460 2.580514 -0.012688
-0.150980 2.559119 -0.012586
-0.133344 2.560755 -0.012762
-0.116187 2.569740 -0.013024
-0.098115 2.565224 -0.013114
-0.080038 2.559801 -0.013187
-0.061953 2.553226 -0.013240
-0.044249 2.553263 -0.013372
-0.026297 2.547556 -0.013427
-0.006170 2.484102 -0.012745
0.018983 2.255265 -0.009957
0.035003 2.265445 -0.010192
0.051353 2.266127 -0.010303
0.067675 2.268600 -0.010432
0.084096 2.266174 -0.010496
0.100432 2.269872 -0.010635
0.116868 2.263016 -0.010635
0.133251 2.250579 -0.010559
0.149519 2.237206 -0.010468
0.165765 2.236411 -0.010536
0.181974 2.232929 -0.010566
0.198360 2.241411 -0.010747
0.215202 2.266984 -0.011149
0.231841 2.275666 -0.011328
0.247580 2.252676 -0.011092
0.263810 2.249206 -0.011108
0.279917 2.243368 -0.011089
0.296457 2.248177 -0.011207
0.312235 2.236650 -0.011108
0.327604 2.219440 -0.010931
0.345630 2.249801 -0.011375
0.361551 2.242572 -0.011324
0.377216 2.232467 -0.011232
0.392079 2.212567 -0.011007
0.407116 2.197189 -0.010839
0.423176 2.195848 -0.010853
0.439104 2.193031 -0.010844
0.454868 2.188607 -0.010811
0.471206 2.190453 -0.010857
0.486972 2.186368 -0.010823
0.502773 2.182868 -0.010792
0.518633 2.180105 -0.010768
0.534379 2.176467 -0.010729
0.550291 2.174403 -0.010707
0.566073 2.171347 -0.010669
0.629735 2.163872 -0.010541
0.645722 2.162533 -0.010506
0.661429 2.159341 -0.010443
0.678608 2.165560 -0.010499
0.699111 2.191760 -0.010813
0.716938 2.200367 -0.010892
0.732950 2.197845 -0.010818
0.747573 2.187483 -0.010637
0.764016 2.187577 -0.010588
0.780914 2.189992 -0.010565
0.799703 2.202064 -0.010662
0.815125 2.196240 -0.010519
0.827458 2.175187 -0.010171
0.842524 2.168291 -0.010004
0.860840 2.177039 -0.010033
0.878265 2.181123 -0.009995
0.894344 2.178788 -0.009868
0.911531 2.181345 -0.009797
0.929118 2.185408 -0.009737
0.944952 2.181689 -0.009571
0.959195 2.171331 -0.009312
0.976009 2.171779 -0.009185
0.991303 2.165960 -0.008969
1.007928 2.165460 -0.008814
1.024484 2.164566 -0.008645
1.039559 2.157940 -0.008395
1.055703 2.155378 -0.008188
1.072529 2.155241 -0.008003
1.088909 2.153352 -0.007787
1.105125 2.150784 -0.007553
1.123256 2.154775 -0.007390
1.139091 2.150640 -0.007116
1.152695 2.138997 -0.006742
1.170000 2.139753 -0.006509
1.184673 2.131779 -0.006159
1.199163 2.123293 -0.005794
1.220954 2.137796 -0.005692
1.237497 2.135448 -0.005376
1.251258 2.124525 -0.004949
1.268867 2.125257 -0.004647
1.285759 2.123654 -0.004306
1.300545 2.115782 -0.003880
1.317001 2.112711 -0.003498
1.338127 2.122681 -0.003249
1.358324 2.129569 -0.002950
-1.856952 2.709087 0.013427
-1.869081 2.818190 0.011983
-1.729312 2.853059 0.007121
-1.710249 2.861633 0.006237
-1.689095 2.865841 0.005354
-1.663376 2.859819 0.004520
-1.640040 2.859213 0.003628
-1.616398 2.857892 0.002726
-1.590582 2.851347 0.001854
-1.561475 2.836642 0.001043
-1.536132 2.830645 0.000159
-1.507191 2.815456 -0.000646
-1.485024 2.816704 -0.001590
-1.466836 2.827950 -0.002624
-1.442621 2.823766 -0.003515
-1.423654 2.832998 -0.004526
-1.400595 2.831396 -0.005427
-1.361876 2.787274 -0.005892
-1.346858 2.806445 -0.006975
-1.326011 2.809734 -0.007888
-1.298241 2.793319 -0.008580
-1.279043 2.800658 -0.009509
-1.253184 2.788560 -0.010210
-1.229067 2.780932 -0.010943
-1.207345 2.779941 -0.011732
-1.187057 2.782983 -0.012553
-1.163776 2.776546 -0.013245
-1.139269 2.765722 -0.013866
-1.114498 2.753383 -0.014447
-1.090270 2.742087 -0.015020
-1.009794 2.543830 -0.013219
-0.973819 2.488326 -0.013156
-0.931684 2.409480 -0.012756
-0.913013 2.409409 -0.013346
-0.895009 2.411427 -0.013948
-0.877430 2.414793 -0.014554
-0.860661 2.420992 -0.015185
-0.842895 2.423418 -0.015751
-0.823647 2.420011 -0.016223
-0.804002 2.414661 -0.016652
-0.780887 2.395060 -0.016866
-0.762892 2.395180 -0.017341
-0.741947 2.382860 -0.017624
-0.728045 2.399524 -0.018310
-0.710915 2.402740 -0.018792
-0.693392 2.404131 -0.019234
-0.671950 2.387718 -0.019401
-0.654136 2.387044 -0.019787
-0.642129 2.413444 -0.020568
-0.622134 2.402399 -0.020777
-0.601105 2.385525 -0.020883
-0.582234 2.378525 -0.021126
-0.565747 2.383308 -0.021540
-0.548276 2.382921 -0.021863
-0.529136 2.373244 -0.022031
-0.511047 2.368739 -0.022269
-0.493588 2.367424 -0.022547
-0.476381 2.367344 -0.022836
-0.461704 2.382440 -0.023356
-0.446421 2.394476 -0.023822
-0.426662 2.378269 -0.023826
-0.405898 2.354219 -0.023694
-0.388131 2.349002 -0.023855
-0.370384 2.343428 -0.024002
-0.353830 2.346067 -0.024275
-0.337432 2.349943 -0.024561
-0.318559 2.334505 -0.024523
-0.306986 2.377347 -0.025439
-0.295803 2.426795 -0.026463
-0.282908 2.465058 -0.027299
-0.274483 2.547715 -0.028874
-0.258322 2.563161 -0.029326
-0.242618 2.584562 -0.029874
-0.225108 2.588841 -0.030129
-0.207179 2.588793 -0.030305
-0.189602 2.592777 -0.030545
-0.170043 2.572495 -0.030367
-0.151599 2.564346 -0.030388
-0.134052 2.567655 -0.030600
-0.116687 2.574086 -0.030859
-0.098652 2.570578 -0.030945
-0.079935 2.554528 -0.030810
-0.061925 2.549019 -0.030850
-0.044358 2.551647 -0.031027
-0.026079 2.538353 -0.030924
-0.006558 2.489714 -0.030205
0.017984 2.280081 -0.026688
0.034779 2.268025 -0.026585
0.051109 2.270235 -0.026726
0.067716 2.259748 -0.026643
0.084114 2.256577 -0.026684
0.100421 2.259349 -0.026825
0.116754 2.262420 -0.026968
0.133131 2.257219 -0.026963
0.149429 2.241387 -0.026769
0.165715 2.242395 -0.026866
0.181951 2.238266 -0.026871
0.198331 2.244565 -0.027056
0.214852 2.254426 -0.027302
0.231379 2.260831 -0.027484
0.247403 2.248982 -0.027341
0.263430 2.240155 -0.027248
0.280038 2.247561 -0.027440
0.296040 2.239863 -0.027362
0.312010 2.232818 -0.027292
0.327676 2.221275 -0.027140
0.343986 2.222326 -0.027208
0.362354 2.255378 -0.027843
0.377805 2.241170 -0.027635
0.391919 2.210387 -0.027129
0.407049 2.196245 -0.026916
0.423044 2.194080 -0.026913
0.439074 2.192451 -0.026917
0.456060 2.201284 -0.027104
0.471535 2.193509 -0.026993
0.487199 2.188215 -0.026923
0.503025 2.184808 -0.026883
0.518972 2.182694 -0.026863
0.534821 2.179787 -0.026826
0.550554 2.176049 -0.026771
0.566846 2.176969 -0.026795
0.629541 2.161859 -0.026522
0.645349 2.159339 -0.026467
0.661399 2.158450 -0.026437
0.678715 2.165534 -0.026546
0.698055 2.184544 -0.026863
0.716677 2.198074 -0.027077
0.732725 2.195786 -0.027004
0.748129 2.189874 -0.026862
0.764502 2.189495 -0.026814
0.782406 2.197229 -0.026906
0.799484 2.200144 -0.026906
0.815858 2.199208 -0.026832
0.831022 2.192168 -0.026644
0.844952 2.179331 -0.026348
0.862130 2.182395 -0.026329
0.878321 2.180609 -0.026217
0.893336 2.173433 -0.026003
0.910389 2.175493 -0.025947
0.928369 2.181376 -0.025951
0.943162 2.173287 -0.025702
0.958956 2.169576 -0.025524
0.974368 2.164304 -0.025311
0.990057 2.160210 -0.025111
1.006787 2.160226 -0.024976
1.023515 2.160086 -0.024830
1.040189 2.159596 -0.024670
1.056482 2.157552 -0.024474
1.073704 2.158822 -0.024327
1.089649 2.155301 -0.024089
1.104396 2.147517 -0.023768
1.116125 2.129384 -0.023263
1.136593 2.141456 -0.023264
1.153925 2.142451 -0.023066
1.170633 2.141185 -0.022819
1.187120 2.139065 -0.022548
1.203207 2.135555 -0.022243
1.222805 2.142979 -0.022110
1.238190 2.136982 -0.021742
1.251721 2.125341 -0.021270
1.268123 2.122451 -0.020932
1.287451 2.128071 -0.020722
1.302162 2.119921 -0.020275
1.315795 2.108722 -0.019768
1.336876 2.118627 -0.019589
1.354781 2.119215 -0.019247
1.384601 2.152172 -0.019404
-1.728510 2.849888 -0.013173
-1.711985 2.864171 -0.014149
-1.690505 2.867765 -0.015027
-1.666114 2.864887 -0.015850
-1.641940 2.862485 -0.016696
-1.614301 2.851901 -0.017451
-1.587597 2.843229 -0.018237
-1.564652 2.843318 -0.019143
-1.537997 2.834255 -0.019932
-1.514557 2.832780 -0.020822
-1.489022 2.825855 -0.021635
-1.467946 2.829911 -0.022598
-1.443553 2.825323 -0.023434
-1.419045 2.820089 -0.024253
-1.402472 2.835554 -0.025365
-1.371717 2.812989 -0.025908
-1.345415 2.801673 -0.026601
-1.323364 2.801556 -0.027448
-1.297591 2.790656 -0.028116
-1.276620 2.792881 -0.028971
-1.253916 2.789840 -0.029730
-1.230341 2.783834 -0.030424
-1.207283 2.778879 -0.031118
-1.184972 2.775733 -0.031825
-1.162063 2.770326 -0.032476
-1.138654 2.762857 -0.033075
-1.111524 2.742913 -0.033443
-1.083363 2.718636 -0.033713
-1.010531 2.545324 -0.031373
-0.967980 2.467709 -0.030636
-0.941183 2.441075 -0.030760
-0.916553 2.420775 -0.030974
-0.898138 2.421530 -0.031546
-0.878751 2.418530 -0.032035
-0.862289 2.425920 -0.032700
-0.844952 2.430043 -0.033292
-0.816347 2.390987 -0.033070
-0.797178 2.386927 -0.033478
-0.780424 2.392054 -0.034044
-0.761430 2.388060 -0.034426
-0.746136 2.398958 -0.035078
-0.727986 2.398016 -0.035493
-0.711011 2.401865 -0.035988
-0.693244 2.402158 -0.036403
-0.672878 2.390548 -0.036574
-0.655266 2.390867 -0.036964
-0.638697 2.395884 -0.037436
-0.621727 2.398996 -0.037861
-0.600307 2.380123 -0.037837
-0.581958 2.375632 -0.038087
-0.565162 2.378747 -0.038479
-0.548141 2.380634 -0.038837
-0.529167 2.371812 -0.038968
-0.510996 2.366816 -0.039167
-0.493822 2.367092 -0.039463
-0.477757 2.373747 -0.039881
-0.462904 2.387967 -0.040448
-0.446066 2.390458 -0.040765
-0.424313 2.361332 -0.040420
-0.406929 2.359203 -0.040624
-0.388248 2.347907 -0.040628
-0.371071 2.346356 -0.040828
-0.357354 2.369885 -0.041547
-0.336420 2.340244 -0.041143
-0.319317 2.338388 -0.041314
-0.304476 2.354733 -0.041865
-0.293398 2.404165 -0.043113
-0.284438 2.476269 -0.044843
-0.273620 2.537350 -0.046339
-0.259571 2.572700 -0.047285
-0.242619 2.581994 -0.047670
-0.225208 2.587248 -0.047963
-0.207767 2.592603 -0.048253
-0.189512 2.588899 -0.048343
-0.171140 2.583216 -0.048385
-0.152812 2.577333 -0.048417
-0.136035 2.592377 -0.048897
-0.118078 2.591722 -0.049033
-0.098653 2.567196 -0.048644
-0.079689 2.546674 -0.048337
-0.062170 2.549932 -0.048543
-0.044404 2.548628 -0.048645
-0.025634 2.523846 -0.048229
-0.004979 2.444376 -0.046607
0.017526 2.288872 -0.043306
0.034549 2.270657 -0.043013
0.051122 2.263821 -0.042966
0.067560 2.260621 -0.042996
0.083996 2.255676 -0.042984
0.100232 2.265191 -0.043288
0.116552 2.275961 -0.043618
0.133013 2.261403 -0.043384
0.149355 2.250995 -0.043238
0.165616 2.242187 -0.043125
0.181831 2.235946 -0.043066
0.198306 2.248006 -0.043411
0.214581 2.245543 -0.043430
0.230907 2.245630 -0.043504
0.246857 2.233460 -0.043301
0.262853 2.225562 -0.043191
0.279089 2.225277 -0.043248
0.296819 2.258059 -0.044043
0.311752 2.228318 -0.043436
0.327825 2.224508 -0.043407
0.344005 2.222989 -0.043426
0.360315 2.223602 -0.043491
0.377745 2.240377 -0.043916
0.392301 2.215598 -0.043406
0.407163 2.197612 -0.043045
0.423317 2.197210 -0.043076
0.440111 2.204102 -0.043269
0.456717 2.208130 -0.043395
0.472710 2.205314 -0.043364
0.487721 2.192953 -0.043115
0.503322 2.187156 -0.043011
0.519151 2.183813 -0.042959
0.534934 2.180232 -0.042899
0.551195 2.180822 -0.042930
0.567580 2.182250 -0.042976
0.584079 2.184361 -0.043035
0.599626 2.179120 -0.042924
0.615097 2.173592 -0.042803
0.630534 2.168087 -0.042680
0.646042 2.163305 -0.042569
0.662096 2.162283 -0.042539
0.679379 2.169002 -0.042679
0.698862 2.188752 -0.043110
0.716702 2.197459 -0.043287
0.733434 2.199130 -0.043301
0.749399 2.196270 -0.043209
0.767499 2.205201 -0.043377
0.783567 2.202662 -0.043282
0.799849 2.201250 -0.043208
0.815328 2.195696 -0.043035
0.831783 2.195148 -0.042970
0.847920 2.192955 -0.042862
0.863755 2.189304 -0.042716
0.878667 2.181409 -0.042470
0.893671 2.174146 -0.042231
0.908973 2.168390 -0.042021
0.928196 2.179815 -0.042188
0.943155 2.172456 -0.041929
0.956750 2.159564 -0.041541
0.972314 2.155107 -0.041334
0.989862 2.158642 -0.041297
1.005776 2.155464 -0.041104
1.022274 2.154518 -0.040953
1.040091 2.158456 -0.040903
1.057889 2.162023 -0.040835
1.073436 2.157086 -0.040572
1.088860 2.151724 -0.040292
1.101444 2.136376 -0.039784
1.116575 2.130215 -0.039470
1.134811 2.134670 -0.039379
1.152252 2.136141 -0.039213
1.169168 2.135660 -0.038995
1.186811 2.137372 -0.038815
1.205334 2.141652 -0.038679
1.223493 2.144469 -0.038501
1.240022 2.141978 -0.038198
1.255452 2.136032 -0.037811
1.270836 2.129936 -0.037410
1.285150 2.120672 -0.036932
1.303916 2.124404 -0.036718
1.323432 2.129963 -0.036530
1.334983 2.112712 -0.035851
1.354349 2.117447 -0.035622
-1.734092 2.860715 -0.033675
-1.713168 2.865424 -0.034544
-1.694671 2.875845 -0.035537
-1.672458 2.878127 -0.036414
-1.645215 2.868869 -0.037108
-1.617840 2.859059 -0.037802
-1.591592 2.851629 -0.038544
-1.566826 2.847496 -0.039350
-1.543000 2.845449 -0.040195
-1.515089 2.833105 -0.040852
-1.489823 2.826899 -0.041617
-1.468555 2.830511 -0.042563
-1.446056 2.830850 -0.043442
-1.420307 2.822470 -0.044147
-1.390292 2.802279 -0.044609
-1.368535 2.803498 -0.045476
-1.347041 2.805211 -0.046343
-1.324379 2.803458 -0.047129
-1.302818 2.804472 -0.047958
-1.279502 2.800200 -0.048666
-1.258192 2.801329 -0.049470
-1.231630 2.786685 -0.049930
-1.207107 2.777384 -0.050482
-1.182234 2.766405 -0.050981
-1.159445 2.761216 -0.051584
-1.136315 2.754472 -0.052136
-1.112550 2.745164 -0.052614
-1.088173 2.733238 -0.053017
-1.013003 2.552479 -0.049665
-0.962336 2.447675 -0.047932
-0.940055 2.436161 -0.048245
-0.918025 2.424838 -0.048545
-0.895526 2.411170 -0.048774
-0.879465 2.419995 -0.049500
-0.863139 2.427907 -0.050193
-0.840052 2.410495 -0.050289
-0.815955 2.388300 -0.050256
-0.797439 2.386733 -0.050687
-0.779524 2.387238 -0.051153
-0.762407 2.390749 -0.051679
-0.745594 2.395418 -0.052220
-0.728886 2.400482 -0.052759
-0.708137 2.388120 -0.052870
-0.690541 2.388870 -0.053283
-0.674617 2.396951 -0.053862
-0.654151 2.384291 -0.053927
-0.638304 2.392554 -0.054490
-0.616579 2.372719 -0.054355
-0.600032 2.377232 -0.054806
-0.582186 2.375211 -0.055085
-0.564248 2.372418 -0.055336
-0.546120 2.368288 -0.055543
-0.528466 2.366334 -0.055795
-0.508389 2.350572 -0.055692
-0.493525 2.363655 -0.056302
-0.478497 2.376330 -0.056896
-0.460036 2.368757 -0.056971
-0.441967 2.363023 -0.057084
-0.424900 2.363219 -0.057339
-0.406697 2.355747 -0.057391
-0.390393 2.360636 -0.057751
-0.374616 2.369433 -0.058204
-0.358282 2.374621 -0.058559
-0.339161 2.358928 -0.058371
-0.320411 2.344851 -0.058216
-0.305219 2.358598 -0.058771
-0.294081 2.407687 -0.060237
-0.286813 2.494865 -0.062690
-0.274483 2.542829 -0.064127
-0.260643 2.580453 -0.065294
-0.243577 2.589008 -0.065700
-0.223764 2.569266 -0.065363
-0.207099 2.582377 -0.065878
-0.188606 2.575386 -0.065863
-0.170410 2.571180 -0.065915
-0.153495 2.583244 -0.066390
-0.136339 2.593427 -0.066811
-0.118141 2.589323 -0.066852
-0.099028 2.569781 -0.066480
-0.081023 2.566323 -0.066528
-0.063137 2.564470 -0.066615
-0.045164 2.560398 -0.066638
-0.026769 2.545709 -0.066376
-0.007009 2.492220 -0.065077
0.017532 2.283937 -0.059651
0.034469 2.268118 -0.059338
0.051154 2.256584 -0.059135
0.067681 2.247579 -0.058996
0.083716 2.265052 -0.059561
0.100121 2.263630 -0.059619
0.116276 2.300971 -0.060712
0.132865 2.283444 -0.060333
0.149238 2.247741 -0.059463
0.165467 2.235869 -0.059228
0.181667 2.230165 -0.059156
0.198084 2.240047 -0.059501
0.214559 2.248090 -0.059795
0.230741 2.242041 -0.059706
0.246725 2.231229 -0.059486
0.262660 2.221735 -0.059299
0.278735 2.217724 -0.059258
0.294817 2.214562 -0.059237
0.313371 2.261577 -0.060570
0.328287 2.233502 -0.059871
0.343841 2.220543 -0.059577
0.359887 2.217096 -0.059539
0.375875 2.213131 -0.059484
0.391900 2.210078 -0.059451
0.407605 2.203174 -0.059311
0.423996 2.205257 -0.059413
0.441170 2.215982 -0.059747
0.457138 2.212382 -0.059689
0.472314 2.200832 -0.059413
0.487766 2.192964 -0.059233
0.503765 2.190861 -0.059208
0.518821 2.180312 -0.058950
0.535017 2.180397 -0.058978
0.551560 2.183271 -0.059080
0.567947 2.184575 -0.059136
0.583954 2.182751 -0.059103
0.599548 2.177875 -0.058984
0.615002 2.172217 -0.058841
0.630877 2.169766 -0.058781
0.646796 2.167659 -0.058728
0.662721 2.165620 -0.058672
0.680061 2.172565 -0.058858
0.699624 2.192661 -0.059398
0.717885 2.203732 -0.059688
0.734935 2.207044 -0.059763
0.752156 2.211039 -0.059852
0.769541 2.215616 -0.059952
0.784939 2.209187 -0.059748
0.798759 2.194717 -0.059321
0.814203 2.189120 -0.059130
0.831903 2.194903 -0.059244
0.848125 2.193108 -0.059147
0.863770 2.188533 -0.058968
0.879077 2.182469 -0.058745
0.894225 2.175820 -0.058499
0.911507 2.178817 -0.058510
0.929214 2.183404 -0.058557
0.945076 2.179804 -0.058376
0.955807 2.154793 -0.057611
0.972501 2.155042 -0.057522
0.989465 2.156222 -0.057451
1.006210 2.156351 -0.057345
1.023295 2.157646 -0.057264
1.040073 2.157575 -0.057137
1.058445 2.163283 -0.057159
1.074893 2.161607 -0.056974
1.089585 2.153535 -0.056610
1.103347 2.142304 -0.056154
1.118523 2.136192 -0.055827
1.135616 2.136648 -0.055667
1.152806 2.137241 -0.055501
1.167958 2.130934 -0.055143
1.186416 2.135360 -0.055060
1.204975 2.139783 -0.054967
1.223065 2.142410 -0.054816
1.241247 2.145050 -0.054655
1.259125 2.146496 -0.054452
1.273213 2.136363 -0.053935
1.288669 2.130366 -0.053517
1.306205 2.130387 -0.053245
1.325165 2.134268 -0.053061
1.337084 2.117996 -0.052346
1.353883 2.115530 -0.051976
-1.938201 2.780710 -0.046430
-1.877912 2.786129 -0.047596
-1.731885 2.854354 -0.053920
-1.713283 2.864241 -0.054905
-1.696306 2.878155 -0.056004
-1.672684 2.877325 -0.056802
-1.642420 2.861139 -0.057271
-1.616733 2.855249 -0.057979
-1.592893 2.853547 -0.058787
-1.563245 2.837743 -0.059278
-1.540236 2.837602 -0.060129
-1.510249 2.820058 -0.060574
-1.491597 2.830299 -0.061665
-1.468572 2.829520 -0.062495
-1.442355 2.820278 -0.063117
-1.423195 2.829017 -0.064163
-1.393822 2.810650 -0.064544
-1.371048 2.809268 -0.065326
-1.349200 2.810110 -0.066151
-1.326908 2.809472 -0.066929
-1.304152 2.807215 -0.067654
-1.285622 2.816692 -0.068662
-1.262847 2.813823 -0.069344
-1.239102 2.807697 -0.069928
-1.206247 2.773746 -0.069775
-1.181970 2.764529 -0.070240
-1.157098 2.752861 -0.070622
-1.136063 2.752572 -0.071287
-1.113744 2.747857 -0.071818
-1.089207 2.735456 -0.072128
-1.012872 2.550926 -0.067790
-0.959321 2.436416 -0.065274
-0.936884 2.424176 -0.065491
-0.914014 2.409713 -0.065630
-0.896409 2.413134 -0.066243
-0.878290 2.414556 -0.066788
-0.861133 2.419301 -0.067413
-0.840753 2.411881 -0.067687
-0.817556 2.393157 -0.067630
-0.800072 2.395696 -0.068154
-0.782756 2.398752 -0.068680
-0.763227 2.392722 -0.068938
-0.746898 2.399430 -0.069545
-0.727986 2.395281 -0.069832
-0.707458 2.383767 -0.069896
-0.689777 2.384054 -0.070285
-0.673157 2.388896 -0.070796
-0.658976 2.404946 -0.071622
-0.634102 2.371256 -0.070994
-0.615065 2.363865 -0.071117
-0.598525 2.368207 -0.071572
-0.582557 2.375441 -0.072104
-0.563490 2.366834 -0.072161
-0.545974 2.365813 -0.072432
-0.526061 2.351535 -0.072301
-0.508619 2.350092 -0.072540
-0.496080 2.376495 -0.073600
-0.479521 2.380518 -0.073988
-0.459743 2.365112 -0.073788
-0.443727 2.372092 -0.074248
-0.426165 2.369401 -0.074412
-0.407422 2.358567 -0.074323
-0.390590 2.359956 -0.074595
-0.375403 2.372921 -0.075210
-0.357823 2.369142 -0.075312
-0.339682 2.360713 -0.075267
-0.322134 2.356191 -0.075333
-0.305271 2.356769 -0.075549
-0.291137 2.380404 -0.076462
-0.282853 2.457483 -0.079007
-0.276444 2.558338 -0.082283
-0.261354 2.584662 -0.083276
-0.243658 2.587123 -0.083533
-0.225295 2.582667 -0.083572
-0.206428 2.572062 -0.083416
-0.188424 2.570318 -0.083528
-0.170267 2.566378 -0.083567
-0.152307 2.564466 -0.083663
-0.134675 2.566839 -0.083889
-0.116582 2.562552 -0.083903
-0.099418 2.572517 -0.084356
-0.081842 2.576888 -0.084631
-0.064205 2.580807 -0.084889
-0.045869 2.570919 -0.084713
-0.027438 2.556692 -0.084397
0.017528 2.279226 -0.075968
0.034165 2.273089 -0.075885
0.051054 2.254555 -0.075410
0.067581 2.245466 -0.075227
0.083936 2.242136 -0.075222
0.099808 2.280487 -0.076524
0.116434 2.255556 -0.075835
0.132769 2.270292 -0.076391
0.149149 2.254021 -0.075968
0.165358 2.234752 -0.075447
0.181545 2.227848 -0.075314
0.197901 2.234368 -0.075601
0.214400 2.244437 -0.075998
0.230824 2.247905 -0.076185
0.246945 2.240391 -0.076022
0.263063 2.234585 -0.075911
0.278934 2.223884 -0.075643
0.295966 2.240993 -0.076253
0.312155 2.237810 -0.076218
0.327848 2.225933 -0.075904
0.343933 2.222443 -0.075855
0.359554 2.212050 -0.075584
0.375674 2.210271 -0.075584
0.391587 2.205775 -0.075495
0.407467 2.201269 -0.075404
0.424789 2.214661 -0.075879
0.441624 2.220908 -0.076125
0.457432 2.215244 -0.075990
0.472376 2.201076 -0.075581
0.488381 2.198591 -0.075542
0.503753 2.190250 -0.075313
0.519428 2.185262 -0.075188
0.535261 2.181945 -0.075114
0.551552 2.182601 -0.075164
0.567828 2.182983 -0.075202
0.583398 2.177791 -0.075060
0.599125 2.174033 -0.074960
0.614324 2.166627 -0.074741
0.631969 2.176627 -0.075074
0.647358 2.170695 -0.074895
0.663330 2.168827 -0.074843
0.680716 2.175920 -0.075073
0.699246 2.189531 -0.075508
0.717709 2.201855 -0.075898
0.735407 2.208953 -0.076117
0.752739 2.213491 -0.076250
0.770078 2.217716 -0.076369
0.785037 2.208855 -0.076066
0.797992 2.189848 -0.075434
0.813448 2.184406 -0.075232
0.831896 2.193996 -0.075504
0.848421 2.193674 -0.075454
0.863055 2.184260 -0.075110
0.878357 2.178249 -0.074870
0.893762 2.172841 -0.074643
0.910520 2.173554 -0.074606
0.926777 2.171925 -0.074488
0.940811 2.160760 -0.074062
0.958575 2.165480 -0.074134
0.971756 2.151130 -0.073595
0.989916 2.157170 -0.073696
1.006280 2.155770 -0.073555
1.023439 2.157347 -0.073502
1.041849 2.163454 -0.073584
1.059351 2.165809 -0.073540
1.074113 2.157923 -0.073166
1.091056 2.157978 -0.073034
1.105742 2.149920 -0.072639
1.122847 2.150349 -0.072504
1.137866 2.143497 -0.072131
1.153154 2.137607 -0.071781
1.167258 2.127842 -0.071302
1.185875 2.132826 -0.071275
1.206790 2.144789 -0.071456
1.224789 2.147048 -0.071324
1.239954 2.140307 -0.070902
1.258586 2.144111 -0.070799
1.280427 2.157202 -0.070971
1.289917 2.133320 -0.069991
1.309672 2.139733 -0.069936
1.319749 2.118086 -0.069008
1.336204 2.114831 -0.068636
1.350202 2.104639 -0.068041
-1.731243 2.851382 -0.074200
-1.714205 2.864795 -0.075307
-1.694368 2.872348 -0.076282
-1.670073 2.869978 -0.077009
-1.639526 2.853117 -0.077354
-1.615527 2.851140 -0.078113
-1.588102 2.840926 -0.078650
-1.562969 2.835871 -0.079333
-1.538031 2.831043 -0.080022
-1.519410 2.841562 -0.081144
-1.493953 2.835071 -0.081785
-1.470077 2.832226 -0.082523
-1.442321 2.819083 -0.082959
-1.420357 2.820489 -0.083805
-1.400336 2.826849 -0.084789
-1.377526 2.825629 -0.085542
-1.353337 2.820327 -0.086164
-1.327737 2.810671 -0.086643
-1.306659 2.813173 -0.087471
-1.286344 2.817636 -0.088347
-1.267008 2.824780 -0.089292
-1.237892 2.802981 -0.089343
-1.222104 2.820134 -0.090568
-1.186965 2.778581 -0.089973
-1.160969 2.763663 -0.090176
-1.138814 2.760029 -0.090711
-1.121660 2.771960 -0.091719
-1.086565 2.725626 -0.090881
-0.997842 2.500010 -0.084339
-0.960552 2.439375 -0.082963
-0.939696 2.432599 -0.083277
-0.913983 2.408380 -0.083016
-0.896525 2.412300 -0.083642
-0.878754 2.414958 -0.084216
-0.857649 2.405187 -0.084375
-0.838437 2.401880 -0.084729
-0.821257 2.405947 -0.085312
-0.801548 2.400073 -0.085557
