ply
format ascii 1.0
comment ---
element vertex 1701
property float x
property float y
property float z
element face 0
property list uchar uint vertex_indices
end_header
-3.142311 2.612657 1.009154
-3.127186 2.624971 1.005653
-3.107894 2.630965 0.998960
-3.103841 2.660400 1.003976
-3.095361 2.683351 1.005655
-3.079261 2.694567 1.001464
-3.060055 2.700860 0.994843
-3.025906 2.682976 0.976454
-3.011803 2.697183 0.973755
-2.988136 2.695730 0.963480
-2.965331 2.695478 0.953830
-2.948915 2.705801 0.949255
-2.936723 2.723369 0.948089
-2.899439 2.697837 0.926602
-2.875518 2.694846 0.915832
-2.857243 2.701566 0.909628
-2.837155 2.705009 0.901913
-2.802238 2.681528 0.881858
-2.771860 2.665597 0.865416
-2.749513 2.663961 0.855582
-2.726261 2.660389 0.844924
-2.709440 2.668728 0.839661
-2.684412 2.661311 0.827376
-2.661767 2.658132 0.817048
-2.637809 2.652076 0.805514
-2.619582 2.657058 0.798884
-2.600007 2.659211 0.791045
-2.577369 2.654919 0.780459
-2.557383 2.655744 0.772146
-2.536441 2.654312 0.762921
-2.516246 2.654137 0.754295
-2.495228 2.651880 0.744856
-2.474171 2.649146 0.735296
-2.452483 2.644591 0.725065
-2.428848 2.635186 0.712926
-2.407035 2.629247 0.702344
-2.392753 2.639994 0.698710
-2.378002 2.649467 0.694601
-2.359292 2.649358 0.686674
-2.337155 2.640522 0.675348
-2.315589 2.632247 0.664404
-2.296163 2.628383 0.655373
-2.281379 2.635293 0.650747
-2.270393 2.651251 0.649782
-2.259023 2.665917 0.648385
-2.229784 2.634028 0.628974
-2.179343 2.545000 0.587752
-3.940945 -0.399436 0.594066
-3.883389 -0.391358 0.573184
-3.915415 -0.375085 0.589790
-3.893048 -0.363691 0.583696
-3.879656 -0.351357 0.581407
-3.882656 -0.337162 0.586082
-3.889627 -0.322294 0.592513
-3.887899 -0.308205 0.595328
-3.880567 -0.294653 0.595812
-3.879954 -0.280152 0.599204
-3.868199 -0.266995 0.597869
-3.866022 -0.252496 0.600667
-3.861361 -0.238251 0.602430
-3.854361 -0.224290 0.603207
-3.845586 -0.210571 0.603230
-3.844186 -0.195677 0.606468
-3.855714 -0.178590 0.615370
-3.852658 -0.163780 0.617942
-3.850585 -0.148762 0.620957
-3.854777 -0.132577 0.626743
-3.860105 -0.116082 0.633057
-3.853482 -0.101763 0.634101
-3.842149 -0.088397 0.633043
-3.842126 -0.072831 0.637006
-3.837301 -0.058224 0.638828
-3.836771 -0.042724 0.642569
-3.836158 -0.027218 0.646275
-3.836846 -0.011400 0.650569
-3.835313 0.003944 0.653862
-3.839852 0.020719 0.659911
-3.838625 0.036186 0.663346
-3.828746 0.049539 0.662823
-3.833218 0.066408 0.668852
-3.846188 0.085528 0.678801
-3.836348 0.098843 0.678266
-3.830769 0.113212 0.679674
-3.825096 0.127521 0.681024
-3.815688 0.140753 0.680620
-3.814646 0.156284 0.684095
-3.812480 0.171506 0.687040
-3.813232 0.187595 0.691351
-3.810305 0.202618 0.693933
-3.805613 0.217101 0.695674
-3.801520 0.231753 0.697688
-3.802135 0.247890 0.701929
-3.798374 0.262658 0.704090
-3.800238 0.279271 0.708931
-3.801344 0.295694 0.713418
-3.797559 0.310511 0.715562
-3.790954 0.324356 0.716341
-3.790198 0.340227 0.719933
-3.787080 0.355295 0.722384
-3.783011 0.370035 0.724371
-3.776682 0.383948 0.725251
-3.784677 0.403204 0.733125
-3.786267 0.420175 0.737889
-3.780607 0.434427 0.739100
-3.775246 0.448791 0.740452
-3.767389 0.462164 0.740564
-3.759120 0.475343 0.740458
-3.760241 0.492335 0.745012
-3.763515 0.510303 0.750655
-3.765878 0.527997 0.755864
-3.760040 0.542290 0.756976
-3.757042 0.557817 0.759514
-3.752828 0.572852 0.761443
-3.748414 0.587825 0.763273
-3.744315 0.602968 0.765265
-3.742001 0.618960 0.768169
-3.737109 0.633813 0.769765
-3.735845 0.650396 0.773222
-3.737708 0.668540 0.778297
-3.737693 0.685891 0.782428
-3.736515 0.702767 0.785977
-3.733566 0.718847 0.788623
-3.733385 0.736372 0.792717
-3.719732 0.747155 0.789812
-3.712495 0.761160 0.790238
-3.711248 0.778291 0.793801
-3.713388 0.797293 0.799162
-3.708061 0.812445 0.800615
-3.703598 0.828101 0.802531
-3.706583 0.847877 0.808405
-3.711607 0.868931 0.815396
-3.709129 0.885964 0.818425
-3.701577 0.900203 0.818756
-3.700154 0.917971 0.822376
-3.700475 0.936849 0.826955
-3.702590 0.956905 0.832530
-3.692024 0.969579 0.831272
-3.687416 0.985810 0.833242
-3.685770 1.003903 0.836837
-3.687904 1.024423 0.842520
-3.704620 1.054173 0.856230
-3.690559 1.064928 0.853106
-3.672589 1.073127 0.847808
-3.664287 1.087424 0.847826
-3.678097 1.116126 0.860114
-3.677747 1.135848 0.864600
-3.669930 1.150735 0.864947
-3.664739 1.167415 0.866768
-3.654442 1.180685 0.865735
-3.660861 1.205447 0.874119
-3.653412 1.220806 0.874717
-3.660804 1.246636 0.883739
-3.666573 1.271578 0.891898
-3.653627 1.283310 0.889432
-3.641247 1.295407 0.887276
-3.667680 1.335971 0.907405
-3.650602 1.344811 0.902594
-3.640413 1.358710 0.901738
-3.636644 1.377475 0.904604
-3.645821 1.406269 0.915027
-3.641023 1.424552 0.917363
-3.643602 1.448702 0.924040
-3.650480 1.476468 0.933292
-3.634452 1.486206 0.929103
-3.618735 1.496101 0.925076
-3.614334 1.515149 0.927743
-3.619523 1.542215 0.936146
-3.613461 1.560171 0.937886
-3.593727 1.566687 0.931445
-3.602963 1.597706 0.942396
-3.600716 1.619202 0.946495
-3.597095 1.639654 0.949795
-3.595546 1.662056 0.954383
-3.589554 1.680686 0.956299
-3.578487 1.694857 0.955127
-3.574178 1.715148 0.958105
-3.570385 1.736035 0.961428
-3.566000 1.756513 0.964414
-3.553118 1.769186 0.962154
-3.541574 1.783090 0.960717
-3.541891 1.808291 0.966694
-3.536571 1.828291 0.969183
-3.529467 1.846675 0.970573
-3.528028 1.870712 0.975563
-3.518904 1.887325 0.975721
-3.502065 1.896254 0.970975
-3.491917 1.911854 0.970479
-3.493836 1.939828 0.977728
-3.492293 1.964510 0.982810
-3.479373 1.977535 0.980587
-3.465552 1.989591 0.977771
-3.451779 2.001662 0.974975
-3.445538 2.021798 0.977090
-3.439553 2.042342 0.979400
-3.435473 2.065114 0.982993
-3.429564 2.086044 0.985415
-3.417463 2.100187 0.983756
-3.401727 2.110231 0.979674
-3.394232 2.129621 0.981085
-3.386796 2.149200 0.982559
-3.382507 2.172573 0.986179
-3.369035 2.185338 0.983624
-3.365431 2.209833 0.987772
-3.335800 2.203289 0.974201
-3.335137 2.231504 0.980388
-3.337034 2.263170 0.988403
-3.322987 2.275476 0.985483
-3.310201 2.289348 0.983430
-3.321332 2.333477 0.998044
-3.328347 2.372995 1.009919
-3.309144 2.379249 1.003488
-3.307568 2.408347 1.009464
-3.276023 2.398335 0.994267
-3.254375 2.401029 0.986007
-3.237451 2.409878 0.981073
-3.242185 2.448074 0.991674
-3.251109 2.492570 1.005415
-3.254431 2.529988 1.015246
-3.240371 2.543599 1.012538
-3.215331 2.541716 1.001804
-3.198733 2.551630 0.997202
-3.203417 2.592278 1.008291
-3.198183 2.619073 1.012162
-3.171411 2.614410 1.000056
-3.164415 2.638927 1.002671
-3.149111 2.651215 0.999096
-3.148591 2.686083 1.006695
-3.125672 2.686971 0.997395
-3.108744 2.696991 0.992613
-3.091401 2.706361 0.987505
-3.066468 2.703641 0.976537
-3.045200 2.706549 0.968338
-3.018513 2.700494 0.955878
-2.996518 2.701822 0.947008
-2.972430 2.699494 0.936443
-2.955128 2.708333 0.931182
-2.937694 2.716954 0.925808
-2.915546 2.717457 0.916656
-2.885170 2.703447 0.900840
-2.863822 2.704824 0.892200
-2.831689 2.686813 0.874747
-2.805759 2.679373 0.862222
-2.779751 2.671419 0.849545
-2.754411 2.664313 0.837328
-2.737915 2.673365 0.832382
-2.710510 2.661805 0.818304
-2.688891 2.660835 0.808986
-2.665407 2.656014 0.798030
-2.641162 2.649368 0.786349
-2.622211 2.652843 0.779119
-2.603985 2.657630 0.772481
-2.582686 2.656034 0.763143
-2.561328 2.654014 0.753686
-2.541700 2.655283 0.745682
-2.520126 2.652175 0.735896
-2.501778 2.655588 0.728905
-2.483665 2.659266 0.722075
-2.463840 2.658922 0.713646
-2.440057 2.649366 0.701530
-2.416504 2.639667 0.689488
-2.400404 2.646314 0.684188
-2.380604 2.644092 0.675391
-2.356718 2.631710 0.662650
-2.339800 2.635033 0.656312
-2.323407 2.639132 0.650382
-2.301658 2.629645 0.639225
-2.278222 2.615075 0.626256
-2.267691 2.631785 0.625625
-2.260188 2.655898 0.627920
-2.240654 2.648914 0.618327
-2.242088 2.695602 0.629407
-3.844584 -0.404848 0.539272
-3.906214 -0.386437 0.567728
-3.860521 -0.377502 0.551981
-3.856773 -0.364556 0.553618
-3.861581 -0.350535 0.558882
-3.875021 -0.335320 0.567831
-3.884981 -0.320180 0.575422
-3.887446 -0.305655 0.579957
-3.882668 -0.291833 0.581511
-3.872240 -0.278628 0.580723
-3.887125 -0.261983 0.590676
-3.864581 -0.250261 0.584823
-3.853500 -0.236991 0.583836
-3.846968 -0.223040 0.584802
-3.834427 -0.209982 0.583210
-3.841591 -0.193812 0.590085
-3.856695 -0.176170 0.600429
-3.855121 -0.161136 0.603623
-3.851281 -0.146448 0.605851
-3.853490 -0.130644 0.610718
-3.861607 -0.113661 0.618185
-3.840518 -0.102141 0.612898
-3.847949 -0.085182 0.620091
-3.843192 -0.070570 0.621942
-3.841524 -0.055332 0.625152
-3.842890 -0.039431 0.629708
-3.839275 -0.024574 0.632057
-3.834328 -0.010027 0.633804
-3.828894 0.004381 0.635322
-3.827385 0.019678 0.638587
-3.833061 0.036711 0.645084
-3.827130 0.050975 0.646355
-3.821287 0.065219 0.647649
-3.834203 0.084244 0.657450
-3.817855 0.095754 0.653950
-3.824311 0.113220 0.660827
-3.803330 0.123279 0.655145
-3.824499 0.144891 0.668783
-3.816286 0.158406 0.668930
-3.816976 0.174440 0.673173
-3.813037 0.189144 0.675270
-3.803034 0.202009 0.674535
-3.805308 0.218561 0.679502
-3.805804 0.234617 0.683645
-3.786091 0.244291 0.678306
-3.788866 0.261057 0.683500
-3.801179 0.281032 0.693208
-3.804409 0.298146 0.698653
-3.796756 0.311636 0.698941
-3.794611 0.326990 0.701835
-3.793738 0.342815 0.705336
-3.788871 0.357251 0.706927
-3.780270 0.370326 0.706715
-3.779114 0.386102 0.710073
-3.775783 0.401105 0.712385
-3.782424 0.419920 0.719526
-3.781574 0.435977 0.723054
-3.774068 0.449475 0.723343
-3.771179 0.464786 0.725877
-3.764132 0.478449 0.726374
-3.763935 0.494902 0.730229
-3.762920 0.511081 0.733691
-3.762680 0.527646 0.737545
-3.762169 0.544164 0.741276
-3.761224 0.560563 0.744802
-3.758209 0.576117 0.747305
-3.754375 0.591348 0.749405
-3.751669 0.607123 0.752072
-3.744563 0.620934 0.752534
-3.738611 0.635276 0.753573
-3.735370 0.650905 0.755981
-3.737300 0.669046 0.761020
-3.738507 0.686950 0.765714
-3.734309 0.702320 0.767670
-3.735592 0.720445 0.772437
-3.734845 0.737663 0.776184
-3.728060 0.751904 0.776840
-3.717794 0.764368 0.775698
-3.718536 0.782531 0.780245
-3.718403 0.800344 0.784359
-3.710486 0.814108 0.784441
-3.705231 0.829313 0.785911
-3.705174 0.847397 0.790109
-3.718633 0.873070 0.801432
-3.715300 0.889631 0.803971
-3.707850 0.903928 0.804346
-3.699847 0.917923 0.804429
-3.699349 0.936281 0.808502
-3.694107 0.951967 0.810069
-3.685558 0.965737 0.809875
-3.685877 0.984839 0.814437
-3.689386 1.006010 0.820744
-3.691710 1.026627 0.826449
-3.691140 1.045606 0.830623
-3.684047 1.060603 0.831281
-3.677010 1.075665 0.831973
-3.680146 1.097306 0.838230
-3.684977 1.120231 0.845455
-3.680480 1.137225 0.847599
-3.671774 1.151491 0.847436
-3.661834 1.164940 0.846593
-3.665401 1.187571 0.853240
-3.656769 1.202009 0.853142
-3.659562 1.224407 0.859424
-3.672615 1.254209 0.871496
-3.674649 1.276530 0.877456
-3.664246 1.290100 0.876446
-3.655400 1.304794 0.876313
-3.655406 1.326004 0.881205
-3.652569 1.345261 0.884513
-3.645717 1.361623 0.885554
-3.639390 1.378435 0.886906
-3.636520 1.397957 0.890258
-3.633168 1.417225 0.893357
-3.619033 1.428168 0.890244
-3.623155 1.453484 0.897710
-3.643338 1.491876 0.914582
-3.633669 1.506674 0.914130
-3.612923 1.512448 0.907187
-3.622069 1.542695 0.917783
-3.612445 1.557641 0.917378
-3.612044 1.580370 0.922437
-3.603982 1.596760 0.922984
-3.600139 1.616824 0.926055
-3.602177 1.642117 0.932669
-3.602340 1.665996 0.938210
-3.598558 1.686578 0.941419
-3.589214 1.702310 0.941294
-3.585053 1.722762 0.944317
-3.579888 1.742424 0.946757
-3.578008 1.765232 0.951226
-3.565980 1.778749 0.949514
-3.564154 1.801864 0.954070
-3.560228 1.823162 0.957370
-3.555971 1.844288 0.960495
-3.552856 1.866663 0.964360
-3.552152 1.891570 0.969765
-3.547647 1.912926 0.972835
-3.518131 1.909387 0.960215
-3.520077 1.937308 0.967359
-3.513335 1.956633 0.969061
-3.509263 1.978820 0.972483
-3.502689 1.998564 0.974342
-3.487710 2.009574 0.970841
-3.483258 2.031719 0.974089
-3.475939 2.050951 0.975522
-3.468180 2.069815 0.976691
-3.457619 2.085709 0.976057
-3.453667 2.108961 0.979741
-3.448009 2.130499 0.982348
-3.441370 2.151088 0.984340
-3.439053 2.176749 0.989214
-3.426447 2.190796 0.987317
-3.432312 2.226354 0.997710
-3.417171 2.237663 0.994164
-3.372595 2.213973 0.970858
-3.415537 2.294521 1.006323
-3.404460 2.310978 1.005559
-3.377267 2.307775 0.993862
-3.353793 2.308838 0.984619
-3.344586 2.327483 0.985084
-3.361008 2.378585 1.003190
-3.374364 2.426564 1.019349
-3.338167 2.411456 1.001307
-3.331777 2.434556 1.003884
-3.314397 2.443431 0.998819
-3.293237 2.447217 0.991077
-3.279512 2.460803 0.988531
-3.284604 2.499928 0.999318
-3.294796 2.546602 1.013851
-3.279951 2.559361 1.010643
-3.259462 2.564253 1.003381
-3.242851 2.574483 0.998876
-3.228561 2.588005 0.996039
-3.220159 2.610066 0.997489
-3.222611 2.648189 1.006919
-3.210828 2.665917 1.006011
-3.181796 2.658108 0.992397
-3.176147 2.685096 0.996026
-3.159865 2.696265 0.991801
-3.143035 2.706614 0.987162
-3.120401 2.707946 0.978148
-3.102713 2.716862 0.972822
-3.080015 2.717802 0.963676
-3.054567 2.714136 0.952380
-3.031162 2.713497 0.942578
-3.005881 2.709560 0.931273
-2.981400 2.706661 0.920514
-2.952982 2.696886 0.906620
-2.936273 2.706574 0.901802
-2.921936 2.720363 0.898850
-2.898053 2.717691 0.888354
-2.863947 2.696794 0.869648
-2.837185 2.688273 0.856669
-2.812324 2.682777 0.845129
-2.786073 2.674428 0.832384
-2.763862 2.673126 0.822840
-2.734793 2.658812 0.807617
-2.715581 2.662546 0.800399
-2.694480 2.662560 0.791583
-2.671347 2.658437 0.781021
-2.648405 2.654365 0.770545
-2.628750 2.656479 0.762774
-2.609498 2.659217 0.755302
-2.588950 2.659147 0.746681
-2.567853 2.657685 0.737531
-2.541634 2.645244 0.723874
-2.522136 2.646365 0.715950
-2.505053 2.652365 0.710090
-2.488635 2.659623 0.704783
-2.469397 2.660532 0.696935
-2.448161 2.656645 0.687226
-2.428683 2.656195 0.679000
-2.399741 2.633724 0.662084
-2.371219 2.611153 0.645333
-2.356650 2.620126 0.641226
-2.347404 2.641418 0.642014
-2.332639 2.649441 0.637652
-2.297866 2.608370 0.614363
-2.291911 2.636608 0.618081
-2.261706 2.604331 0.598634
-2.257593 2.636504 0.604017
-2.237907 2.628838 0.594321
-2.216397 2.615439 0.582650
-3.874794 -0.399372 0.536982
-3.894884 -0.384633 0.548170
-3.857018 -0.375078 0.535792
-3.852638 -0.362258 0.537137
-3.864109 -0.347589 0.545063
-3.875925 -0.332570 0.553230
-3.885608 -0.317490 0.560611
-3.881716 -0.303763 0.562455
-3.872456 -0.290574 0.562120
-3.870898 -0.276315 0.565029
-3.866671 -0.262282 0.566872
-3.862258 -0.248181 0.568673
-3.860031 -0.233682 0.571426
-3.847036 -0.220709 0.569670
-3.844997 -0.206063 0.572552
-3.836377 -0.192401 0.572666
-3.850563 -0.174960 0.582495
-3.853311 -0.159250 0.587501
-3.847093 -0.145025 0.588693
-3.904236 -0.072001 0.629028
-3.888532 -0.059342 0.626183
-3.871562 -0.047079 0.622749
-3.855895 -0.034686 0.619845
-3.845731 -0.021224 0.619320
-3.834841 -0.008007 0.618450
-3.833066 0.007219 0.621581
-3.837234 0.023851 0.627343
-3.833942 0.038754 0.629799
-3.829848 0.053448 0.631888
-3.823345 0.067513 0.632887
-3.820899 0.082577 0.635689
-3.823341 0.098923 0.640683
-3.817533 0.113105 0.641959
-3.822508 0.130204 0.648100
-3.811828 0.143008 0.647143
-3.820540 0.161249 0.654991
-3.818771 0.176569 0.658073
-3.813952 0.190996 0.659752
-3.814763 0.207099 0.664006
-3.814601 0.222945 0.667813
-3.793375 0.232234 0.661881
-3.785009 0.245417 0.661857
-3.785559 0.261433 0.665957
-3.805766 0.283973 0.679232
-3.807047 0.300437 0.683709
-3.798209 0.313508 0.683444
-3.790750 0.327003 0.683809
-3.796034 0.344948 0.690170
-3.790238 0.359036 0.691306
-3.785637 0.373544 0.692999
-3.780431 0.387828 0.694397
-3.778653 0.403393 0.697424
-3.777044 0.419058 0.700533
-3.781894 0.437260 0.706746
-3.777425 0.451921 0.708493
-3.772653 0.466473 0.710089
-3.768677 0.481355 0.712068
-3.768264 0.497717 0.715775
-3.764062 0.512566 0.717645
-3.765254 0.529712 0.722149
-3.764498 0.546111 0.725713
-3.763165 0.562325 0.729004
-3.755532 0.575828 0.729199
-3.751262 0.590816 0.731048
-3.751500 0.607871 0.735131
-3.748737 0.623635 0.737738
-3.743564 0.638331 0.739150
-3.737415 0.652589 0.740075
-3.734722 0.668506 0.742730
-3.733100 0.684996 0.745932
-3.733443 0.702518 0.750137
-3.729740 0.718132 0.752314
-3.734292 0.737936 0.758684
-3.726323 0.751535 0.758718
-3.719640 0.765792 0.759404
-3.714261 0.780743 0.760756
-3.720710 0.801962 0.768179
-3.711996 0.815277 0.767841
-3.706425 0.830281 0.769119
-3.706612 0.848468 0.773381
-3.710610 0.868876 0.779644
-3.720676 0.892847 0.789101
-3.704450 0.902165 0.784884
-3.695775 0.915710 0.784594
-3.695585 0.934178 0.788758
-3.692439 0.951026 0.791388
-3.687757 0.967038 0.793222
-3.686260 0.985021 0.796753
-3.688555 1.005412 0.802322
-3.696451 1.029404 0.810910
-3.691403 1.045586 0.812629
-3.686831 1.062124 0.814613
-3.686968 1.081724 0.819144
-3.688963 1.102654 0.824706
-3.685380 1.120120 0.827285
-3.677088 1.134571 0.827323
-3.683837 1.159045 0.835556
-3.683495 1.178990 0.839966
-3.666761 1.187924 0.835424
-3.666027 1.207752 0.839650
-3.667870 1.229507 0.845327
-3.683816 1.261348 0.858844
-3.678499 1.278479 0.860649
-3.666492 1.290874 0.858744
-3.655285 1.303818 0.857276
-3.655106 1.324834 0.861981
-3.652736 1.344380 0.865488
-3.649731 1.363571 0.868663
-3.640269 1.377984 0.868209
-3.634158 1.394972 0.869658
-3.629528 1.413173 0.871964
-3.632664 1.437538 0.878724
-3.637141 1.463183 0.886301
-3.650823 1.496426 0.899225
-3.640980 1.511087 0.898668
-3.625702 1.521328 0.894966
-3.594507 1.518372 0.882001
-3.619076 1.561490 0.901445
-3.615943 1.581909 0.904829
-3.608085 1.598445 0.905470
-3.601486 1.616112 0.906861
-3.611539 1.648299 0.918101
-3.612828 1.673177 0.924230
-3.605677 1.690799 0.925387
-3.595733 1.705994 0.924893
-3.588745 1.723880 0.926169
-3.591937 1.751136 0.933577
-3.579141 1.763912 0.931404
-3.582844 1.792032 0.939204
-3.578002 1.812392 0.941876
-3.570493 1.830342 0.942950
-3.565940 1.851205 0.945844
-3.561911 1.872712 0.949089
-3.563475 1.899848 0.955808
-3.555216 1.917522 0.956511
-3.551832 1.940141 0.960251
-3.541009 1.955415 0.959394
-3.531166 1.971712 0.959150
-3.528411 1.995357 0.963360
-3.527696 2.021318 0.968892
-3.524951 2.045384 0.973193
-3.508420 2.055009 0.968788
-3.498842 2.072005 0.968788
-3.498531 2.099103 0.974719
-3.495696 2.123704 0.979086
-3.470359 2.123645 0.969005
-3.472225 2.153680 0.976444
-3.476167 2.186387 0.985298
-3.474993 2.213647 0.990898
-3.463587 2.229407 0.989862
-3.455092 2.248592 0.990742
-3.455179 2.277966 0.997299
-3.457553 2.310372 1.005434
-3.457689 2.340480 1.012162
-3.446600 2.357345 1.011469
-3.426928 2.363789 1.005034
-3.406022 2.368573 0.997733
-3.390021 2.379302 0.993700
-3.418472 2.445984 1.019799
-3.413152 2.470788 1.023132
-3.397726 2.482842 1.019601
-3.367725 2.475953 1.006049
-3.345781 2.479234 0.997958
-3.320501 2.477906 0.987507
-3.310088 2.496206 0.987329
-3.312524 2.532018 0.996149
-3.316842 2.570897 1.006389
-3.307458 2.591413 1.007086
-3.290246 2.601188 1.002271
-3.282643 2.624473 1.004272
-3.264629 2.633173 0.998882
-3.262739 2.665034 1.005041
-3.251035 2.683051 1.004210
-3.233296 2.692344 0.999032
-3.217123 2.703930 0.994976
-3.197026 2.709642 0.988045
-3.175773 2.713494 0.980233
-3.149461 2.709447 0.968647
-3.137841 2.727880 0.967882
-3.114060 2.727430 0.958083
-3.092294 2.729952 0.949735
-3.068888 2.729689 0.940109
-3.044106 2.726985 0.929386
-3.021058 2.726852 0.919914
-2.991104 2.715076 0.905110
-2.963335 2.706496 0.891877
-2.941056 2.706823 0.882789
-2.919242 2.707760 0.874013
-2.893775 2.702192 0.862340
-2.867081 2.694151 0.849625
-2.845847 2.695413 0.841130
-2.818948 2.686345 0.828096
-2.791932 2.676658 0.814874
-2.768204 2.672585 0.804193
-2.745334 2.669813 0.794136
-2.720914 2.663855 0.782756
-2.701203 2.666515 0.775143
-2.676596 2.659591 0.763470
-2.653280 2.654798 0.752778
-2.633235 2.656120 0.744730
-2.616858 2.664573 0.739707
-2.598238 2.668450 0.732785
-2.570982 2.654457 0.718508
-2.545796 2.644128 0.705864
-2.524147 2.640677 0.696140
-2.506204 2.644720 0.689539
-2.485851 2.643333 0.680796
-2.465608 2.641795 0.672074
-2.455403 2.662050 0.672123
-2.431164 2.650953 0.659743
-2.407463 2.640344 0.647699
-2.383403 2.628154 0.635186
-2.368991 2.637633 0.631264
-2.355605 2.649241 0.628234
-2.336968 2.648012 0.620334
-2.317985 2.645288 0.611993
-2.287719 2.614128 0.592987
-2.282557 2.643926 0.597295
-2.250688 2.606457 0.576334
-2.234472 2.607219 0.569970
-2.203386 2.568758 0.549170
-3.827993 -0.400675 0.503511
-3.892141 -0.382068 0.532240
-3.870233 -0.371048 0.526442
-3.866316 -0.358167 0.527962
-3.869620 -0.344339 0.532481
-3.877973 -0.329711 0.539137
-3.880560 -0.315480 0.543529
-3.885096 -0.300803 0.548792
-3.877773 -0.287402 0.549259
-3.858736 -0.275445 0.544945
-3.855188 -0.261423 0.547033
-3.861983 -0.245843 0.553445
-3.864025 -0.230761 0.557943
-3.867040 -0.215395 0.562892
-3.856107 -0.202071 0.562055
-3.849159 -0.188122 0.562893
-3.842875 -0.174048 0.564020
-3.847102 -0.158154 0.569589
-3.839281 -0.144281 0.570092
-3.987441 -0.053430 0.648946
-3.972367 -0.040234 0.646533
-3.957807 -0.027053 0.644307
-3.949969 -0.012551 0.644957
-3.941691 0.001802 0.645397
-3.870004 0.001798 0.618219
-3.878685 0.019602 0.625938
-3.854405 0.029737 0.619247
-3.844097 0.043011 0.618627
-3.835332 0.056579 0.618659
-3.839122 0.073248 0.624215
-3.830020 0.086655 0.624065
-3.828529 0.101992 0.627274
-3.832803 0.118889 0.633048
-3.823978 0.132262 0.632973
-3.822295 0.147565 0.636077
-3.812680 0.160610 0.635604
-3.820938 0.178782 0.643174
-3.818693 0.193959 0.646009
-3.819439 0.210046 0.650196
-3.814913 0.224551 0.651984
-3.802855 0.236680 0.650318
-3.791954 0.249079 0.649151
-3.796715 0.266476 0.655153
-3.802781 0.284397 0.661769
-3.806512 0.301642 0.667325
-3.796333 0.314224 0.666445
-3.786942 0.327010 0.665907
-3.795250 0.345977 0.673599
-3.795392 0.362161 0.677499
-3.792538 0.377306 0.679999
-3.787533 0.391676 0.681485
-3.784594 0.406818 0.683937
-3.783018 0.422503 0.687032
-3.783139 0.438884 0.690934
-3.779722 0.453937 0.693160
-3.774409 0.468257 0.694481
-3.771786 0.483666 0.697082
-3.770287 0.499573 0.700224
-3.768250 0.515306 0.703114
-3.768099 0.531880 0.706917
-3.768786 0.548884 0.711136
-3.758035 0.561005 0.709817
-3.747521 0.573176 0.708595
-3.744697 0.588730 0.711109
-3.745896 0.606147 0.715598
-3.748281 0.624205 0.720686
-3.745620 0.640031 0.723310
-3.740177 0.654600 0.724567
-3.733272 0.668493 0.725100
-3.733257 0.685716 0.729050
-3.731859 0.702353 0.732327
-3.729934 0.718804 0.735354
-3.725224 0.733928 0.736998
-3.725601 0.751672 0.741200
-3.716094 0.782128 0.744479
-3.714076 0.798858 0.747512
-3.711864 0.815561 0.750461
-3.707919 0.831405 0.752540
-3.707897 0.849449 0.756632
-3.708557 0.867980 0.761096
-3.711864 0.888111 0.766945
-3.704710 0.902471 0.767430
-3.696279 0.916117 0.767257
-3.694363 0.933544 0.770460
-3.695024 0.952577 0.775022
-3.689391 0.968000 0.776325
-3.688200 0.986135 0.779960
-3.687361 1.004591 0.783802
-3.682648 1.020777 0.785626
-3.694469 1.047306 0.796194
-3.695224 1.067171 0.800964
-3.693609 1.085669 0.804504
-3.687258 1.101231 0.805542
-3.669724 1.109561 0.800609
-3.665972 1.126837 0.803037
-3.693187 1.164791 0.822139
-3.678557 1.175146 0.818782
-3.673118 1.191675 0.820381
-3.666178 1.207234 0.821177
-3.665065 1.226883 0.825154
-3.680009 1.257942 0.837929
-3.675201 1.275351 0.839962
-3.655903 1.282436 0.834046
-3.646754 1.296740 0.833693
-3.644592 1.316178 0.837205
-3.649580 1.341039 0.844710
-3.644552 1.358633 0.846691
-3.639190 1.376053 0.848501
-3.640205 1.398430 0.853900
-3.640928 1.420761 0.859173
-3.642086 1.443612 0.864730
-3.646037 1.468855 0.871907
-3.649549 1.493984 0.878886
-3.643077 1.511296 0.880230
-3.627091 1.520921 0.876149
-3.620974 1.538579 0.877704
-3.614830 1.556290 0.879258
-3.616532 1.580673 0.885356
-3.609454 1.597813 0.886415
-3.618452 1.628810 0.896828
-3.626708 1.659513 0.906882
-3.620518 1.677904 0.908560
-3.610423 1.692925 0.907962
-3.601186 1.708729 0.907871
-3.594922 1.727250 0.909542
-3.588629 1.745833 0.911213
-3.593941 1.775201 0.919808
-3.593787 1.799789 0.925204
-3.586214 1.817612 0.926199
-3.583653 1.840268 0.930221
-3.577512 1.859659 0.932117
-3.569425 1.877268 0.932853
-3.564967 1.898499 0.935808
-3.566081 1.925382 0.942192
-3.560669 1.946003 0.944632
-3.554763 1.966254 0.946793
-3.542056 1.979697 0.944784
-3.537296 2.001305 0.947687
-3.547187 2.038298 0.959721
-3.534891 2.052451 0.958018
-3.526713 2.070973 0.958888
-3.519374 2.090482 0.960300
-3.509797 2.107681 0.960320
-3.508068 2.133522 0.965318
-3.518183 2.172679 0.977891
-3.503276 2.184442 0.974608
-3.497206 2.206114 0.976969
-3.490710 2.227459 0.979086
-3.481268 2.245573 0.979329
-3.479825 2.273057 0.984767
-3.477168 2.299398 0.989472
-3.475344 2.326982 0.994769
-3.476999 2.359009 1.002403
-3.468415 2.379043 1.003373
-3.456334 2.394941 1.002054
-3.452564 2.421136 1.006253
-3.446800 2.445111 1.009174
-3.439322 2.467147 1.010988
-3.429071 2.485845 1.010972
-3.423481 2.510641 1.014117
-3.412562 2.528771 1.013697
-3.380430 2.519228 0.998863
-3.354063 2.516858 0.987860
-3.339390 2.529818 0.984807
-3.353720 2.581961 1.001731
-3.354511 2.616459 1.009454
-3.334198 2.622332 1.002602
-3.319379 2.635731 0.999548
-3.317913 2.667957 1.005855
-3.312103 2.694439 1.009186
-3.287243 2.693861 0.999095
-3.272713 2.708032 0.996283
-3.259257 2.723844 0.994241
-3.240082 2.731279 0.988109
-3.215671 2.730794 0.978177
-3.190323 2.728652 0.967506
-3.168755 2.732029 0.959518
-3.143023 2.728815 0.948444
-3.127320 2.741006 0.944666
-3.102151 2.738277 0.933900
-3.076501 2.734509 0.922710
-3.050141 2.729302 0.910920
-3.026167 2.727675 0.900838
-3.001264 2.724273 0.889997
-2.969866 2.709738 0.874170
-2.943595 2.703346 0.862125
-2.917315 2.696595 0.849991
-2.894109 2.694812 0.840139
-2.874246 2.698642 0.832813
-2.850894 2.696193 0.822744
-2.820207 2.680367 0.806881
-2.795536 2.674867 0.795619
-2.772282 2.671639 0.785403
-2.750811 2.671442 0.776539
-2.730247 2.672740 0.768351
-2.705396 2.665721 0.756673
-2.684111 2.665176 0.747795
-2.658156 2.655311 0.735063
-2.639636 2.659618 0.728318
-2.623958 2.669464 0.723885
-2.601459 2.665533 0.713794
-2.578563 2.660430 0.703298
-2.554878 2.653286 0.692055
-2.529615 2.642355 0.679382
-2.508121 2.638832 0.669795
-2.488442 2.638788 0.661680
-2.473090 2.647807 0.657227
-2.455740 2.652266 0.651016
-2.438035 2.655635 0.644445
-2.415234 2.647108 0.633328
-2.395526 2.644978 0.624822
-2.380453 2.653051 0.620349
-2.362926 2.655013 0.613619
-2.338781 2.640661 0.600811
-2.319682 2.637504 0.592416
-2.306902 2.649076 0.589693
-2.288720 2.646871 0.581920
-2.257628 2.611458 0.561984
-2.240138 2.608965 0.554487
-2.256183 2.691999 0.578540
-3.919420 -0.389698 0.525393
-3.889934 -0.379472 0.516605
-3.886759 -0.366684 0.518333
-3.873303 -0.354759 0.516026
-3.873713 -0.341250 0.519327
-3.873606 -0.327590 0.522498
-3.862032 -0.315078 0.521117
-3.881826 -0.298670 0.532457
-3.882948 -0.284263 0.536337
-3.860914 -0.272731 0.530865
-3.860400 -0.258328 0.534169
-3.864195 -0.243179 0.539284
-3.865715 -0.228199 0.543521
-3.862519 -0.213801 0.545862
-3.859272 -0.199338 0.548210
-3.851285 -0.185581 0.548621
-3.848508 -0.170946 0.551204
-3.841923 -0.156919 0.552218
-3.799360 -0.149293 0.538201
-3.993013 -0.050241 0.635171
-4.009976 -0.030500 0.646410
-3.998280 -0.016553 0.645498
-3.988031 -0.002384 0.645178
-3.972498 0.010541 0.642570
-3.966131 0.025403 0.643863
-3.956783 0.039534 0.643855
-3.950544 0.054328 0.645168
-3.972003 0.075795 0.658481
-3.947592 0.086152 0.651888
-3.888896 0.087585 0.630261
-3.874673 0.099909 0.627949
-3.852761 0.110071 0.622220
-3.840208 0.122543 0.620555
-3.863136 0.144666 0.634533
-3.818317 0.148053 0.618542
-3.823424 0.165261 0.624625
-3.826367 0.181924 0.629756
-3.823170 0.196823 0.632147
-3.808430 0.208224 0.629350
-3.809690 0.224426 0.633713
-3.812088 0.241034 0.638591
-3.808635 0.255835 0.640827
-3.803515 0.270093 0.642298
-3.805136 0.286561 0.646825
-3.801594 0.301352 0.649000
-3.795021 0.315110 0.649780
-3.789243 0.329115 0.650910
-3.788462 0.344865 0.654329
-3.795584 0.363490 0.661398
-3.791194 0.378049 0.663158
-3.791052 0.394184 0.666884
-3.790293 0.410139 0.670328
-3.790534 0.426523 0.674241
-3.786228 0.441206 0.676031
-3.780321 0.455270 0.677064
-3.776304 0.470081 0.678978
-3.776789 0.486732 0.683017
-3.776696 0.503217 0.686792
-3.777625 0.520193 0.691061
-3.773206 0.534991 0.692792
-3.765038 0.548203 0.692730
-3.754256 0.560254 0.691402
-3.749363 0.574846 0.692887
-3.746082 0.590175 0.695147
-3.751608 0.609529 0.701669
-3.750093 0.625802 0.704805
-3.748457 0.642083 0.707891
-3.742904 0.656585 0.709075
-3.738579 0.671691 0.710859
-3.734771 0.687081 0.712900
-3.731018 0.702541 0.714972
-3.724485 0.716669 0.715678
-3.720116 0.731894 0.717452
-3.719692 0.749164 0.721188
-3.725201 0.769580 0.727893
-3.721792 0.785518 0.730181
-3.715106 0.799787 0.730838
-3.715918 0.818074 0.735258
-3.715014 0.835550 0.738835
-3.711236 0.851547 0.740979
-3.708834 0.868365 0.743829
-3.706566 0.885338 0.746761
-3.702093 0.901141 0.748585
-3.698908 0.917737 0.751075
-3.694351 0.933609 0.752875
-3.692504 0.951127 0.756077
-3.689582 0.968101 0.758742
-3.687164 0.985457 0.761683
-3.686894 1.004208 0.765755
-3.687959 1.023899 0.770544
-3.694578 1.047185 0.778259
-3.687077 1.061812 0.778633
-3.694549 1.085986 0.786867
-3.678981 1.095580 0.783025
-3.670963 1.109994 0.783146
-3.673079 1.131090 0.788635
-3.672433 1.150517 0.792692
-3.673195 1.171020 0.797525
-3.671375 1.189919 0.801010
-3.667732 1.207681 0.803541
-3.662870 1.224686 0.805435
-3.664281 1.246168 0.810726
-3.669010 1.270175 0.817847
-3.656971 1.282372 0.815914
-3.647850 1.296652 0.815561
-3.650992 1.319932 0.821906
-3.643894 1.335831 0.822684
-3.633478 1.349289 0.821646
-3.637009 1.373296 0.828295
-3.644419 1.400487 0.837137
-3.643155 1.421256 0.841225
-3.639602 1.440383 0.844068
-3.648343 1.469324 0.853801
-3.643374 1.487644 0.855918
-3.636243 1.504312 0.856838
-3.631713 1.523153 0.859235
-3.629398 1.543918 0.862906
-3.626999 1.564752 0.866557
-3.617620 1.579865 0.866260
-3.613097 1.599120 0.868742
-3.623231 1.631048 0.879653
-3.626443 1.657348 0.886657
-3.617884 1.673598 0.886918
-3.610222 1.690682 0.887704
-3.604641 1.709684 0.889711
-3.601457 1.730947 0.893135
-3.600782 1.754643 0.898058
-3.598136 1.776717 0.901862
-3.594239 1.797786 0.904961
-3.594740 1.823128 0.910689
-3.586974 1.840850 0.911556
-3.582669 1.861959 0.914496
-3.576903 1.881794 0.916591
-3.572115 1.902698 0.919293
-3.570508 1.926880 0.923937
-3.568309 1.950672 0.928263
-3.561294 1.969805 0.929707
-3.549681 1.984356 0.928370
-3.543255 2.004249 0.930199
-3.539058 2.026572 0.933416
-3.535857 2.050107 0.937277
-3.535408 2.076746 0.942875
-3.531943 2.100411 0.946653
-3.526715 2.122365 0.949371
-3.548401 2.173856 0.968928
-3.537213 2.189856 0.968033
-3.528064 2.208167 0.968424
-3.520761 2.228640 0.969994
-3.505203 2.239865 0.966351
-3.517087 2.282527 0.980162
-3.494130 2.285391 0.971824
-3.497487 2.318838 0.980316
-3.501471 2.353424 0.989290
-3.494519 2.375373 0.991276
-3.484982 2.394374 0.991614
-3.485826 2.426132 0.998734
-3.482027 2.452547 1.002887
-3.476906 2.477583 1.006220
-3.457904 2.485428 1.000437
-3.442075 2.497189 0.996725
-3.443604 2.531164 1.004547
-3.431052 2.547345 1.003045
-3.415134 2.559192 0.999291
-3.396416 2.567325 0.993639
-3.380169 2.578665 0.989629
-3.393906 2.630404 1.005976
-3.374924 2.638399 1.000163
-3.357872 2.648962 0.995643
-3.360524 2.686890 1.004668
-3.348708 2.705037 1.003795
-3.328836 2.711885 0.997347
-3.314491 2.726560 0.994722
-3.285966 2.720754 0.982166
-3.291030 2.763783 0.993165
-3.259683 2.753599 0.978550
-3.221224 2.732329 0.958779
-3.197474 2.732614 0.949351
-3.175131 2.734833 0.940876
-3.152512 2.736455 0.932156
-3.132682 2.742252 0.925406
-3.110770 2.744673 0.917112
-3.071608 2.719413 0.896164
-3.048978 2.720061 0.887193
-3.025715 2.719486 0.877705
-2.996884 2.709513 0.864029
-2.969271 2.701149 0.851164
-2.943494 2.695499 0.839586
-2.919832 2.693130 0.829525
-2.896676 2.691388 0.819786
-2.877634 2.696591 0.813123
-2.848703 2.684269 0.798864
-2.826755 2.683933 0.789873
-2.800880 2.676302 0.777792
-2.779563 2.676628 0.769175
-2.758527 2.677279 0.760731
-2.737254 2.677302 0.752055
-2.716472 2.678049 0.743720
-2.688970 2.665718 0.729987
-2.668609 2.666722 0.721865
-2.647653 2.666351 0.713218
-2.624142 2.660653 0.702447
-2.601543 2.656400 0.692338
-2.583544 2.661151 0.685931
-2.564235 2.663039 0.678410
-2.539679 2.653708 0.666478
-2.515016 2.643598 0.654349
-2.496988 2.647115 0.647693
-2.479155 2.650783 0.641155
-2.460522 2.652402 0.633885
-2.442826 2.655731 0.627354
-2.420723 2.648757 0.616952
-2.403251 2.651709 0.610465
-2.386452 2.655783 0.604497
-2.365097 2.648731 0.594435
-2.342466 2.637879 0.583102
-2.318628 2.623221 0.570528
-2.317924 2.663937 0.578644
-2.301394 2.665930 0.572478
-2.277917 2.649868 0.559844
-2.257638 2.640730 0.549947
-2.232381 2.617793 0.535246
-3.862149 -0.392023 0.488177
-3.887060 -0.376958 0.500786
-3.878626 -0.364754 0.500404
-3.859939 -0.353468 0.496041
-3.893621 -0.336456 0.512443
-3.874488 -0.324901 0.508036
-3.866085 -0.312066 0.507931
-3.860710 -0.298754 0.509084
-3.873293 -0.283030 0.517475
-3.872715 -0.268763 0.520673
-3.870419 -0.254587 0.523235
-3.875671 -0.239218 0.528889
-3.862378 -0.226402 0.527092
-3.843276 -0.214490 0.522944
-3.839402 -0.200263 0.524991
-3.849565 -0.183691 0.532800
-3.849732 -0.168606 0.536566
-3.839718 -0.155205 0.536170
-3.962389 -0.102262 0.594434
-4.036242 -0.006560 0.645248
-4.005106 0.003268 0.636187
-3.981373 0.014434 0.630179
-3.980776 0.030622 0.633933
-3.995825 0.050466 0.644348
-4.001489 0.068271 0.650795
-3.994152 0.083005 0.651687
-3.981398 0.096340 0.650229
-3.977307 0.111761 0.652471
-3.968313 0.125892 0.652579
-3.939453 0.134690 0.644045
-3.945682 0.152681 0.650698
-3.916641 0.161043 0.641974
-3.904240 0.173792 0.640454
-3.891678 0.186388 0.638828
-3.856747 0.192337 0.627316
-3.824589 0.198757 0.616935
-3.810467 0.210323 0.614458
-3.808475 0.225510 0.617332
-3.820374 0.245076 0.626390
-3.821433 0.261342 0.630633
-3.810870 0.273874 0.629669
-3.803522 0.287391 0.630124
-3.803524 0.303341 0.633874
-3.800430 0.318274 0.636224
-3.794719 0.332306 0.637381
-3.796206 0.348864 0.641800
-3.784785 0.360850 0.640337
-3.787225 0.377815 0.645188
-3.792378 0.395864 0.651295
-3.794012 0.412701 0.655799
-3.787088 0.426343 0.656364
-3.784634 0.441697 0.658984
-3.780131 0.456275 0.660653
-3.774948 0.470591 0.662000
-3.777286 0.487958 0.666850
-3.778131 0.504803 0.671016
-3.779221 0.521829 0.675307
-3.773878 0.536216 0.676581
-3.766579 0.549772 0.676927
-3.760507 0.563848 0.677844
-3.759093 0.579979 0.680966
-3.760730 0.597534 0.685549
-3.756843 0.612685 0.687509
-3.750428 0.626710 0.688260
-3.749589 0.643332 0.691684
-3.747633 0.659502 0.694581
-3.744612 0.675226 0.696972
-3.740036 0.690249 0.698616
-3.735241 0.705199 0.700155
-3.728834 0.719380 0.700911
-3.722886 0.733804 0.701888
-3.724408 0.752047 0.706526
-3.724471 0.769655 0.710467
-3.722512 0.786308 0.713430
-3.717940 0.801659 0.715113
-3.714847 0.817843 0.717535
-3.715922 0.836344 0.722039
-3.711304 0.851850 0.723726
-3.705497 0.866745 0.724826
-3.704643 0.884448 0.728413
-3.703227 0.901932 0.731735
-3.699721 0.918311 0.734020
-3.694289 0.933640 0.735342
-3.690864 0.950190 0.737688
-3.686831 0.966450 0.739738
-3.690587 0.987454 0.745774
-3.694453 1.008699 0.751901
-3.693193 1.026970 0.755433
-3.685369 1.041268 0.755604
-3.685102 1.060335 0.759680
-3.683465 1.078655 0.763071
-3.679396 1.095519 0.765218
-3.676035 1.112918 0.767749
-3.681576 1.136254 0.774949
-3.676954 1.153052 0.776865
-3.672986 1.170359 0.779138
-3.677738 1.193673 0.786027
-3.672839 1.210569 0.787852
-3.665292 1.225698 0.788285
-3.662571 1.244244 0.791292
-3.664825 1.266427 0.796978
-3.660494 1.284071 0.799173
-3.654086 1.300293 0.800268
-3.656888 1.323316 0.806338
-3.659190 1.346168 0.812179
-3.639931 1.353077 0.806360
-3.635384 1.370966 0.808516
-3.644228 1.399178 0.818002
-3.641953 1.419107 0.821461
-3.635638 1.436009 0.822724
-3.631855 1.454972 0.825395
-3.631472 1.476753 0.829970
-3.635589 1.502322 0.837074
-3.636979 1.525914 0.842711
-3.639640 1.550751 0.849099
-3.634672 1.569474 0.851256
-3.622126 1.581935 0.849172
-3.619215 1.602531 0.852513
-3.614852 1.622019 0.855060
-3.608021 1.639482 0.856227
-3.616867 1.670722 0.866341
-3.609656 1.688130 0.867345
-3.606644 1.709352 0.870771
-3.606942 1.733702 0.876131
-3.608926 1.759795 0.882508
-3.597540 1.773833 0.881182
-3.594205 1.795348 0.884537
-3.595718 1.821562 0.890750
-3.591726 1.842799 0.893787
-3.584321 1.860912 0.894846
-3.581425 1.883464 0.898577
-3.581116 1.908713 0.903874
-3.580665 1.934043 0.909129
-3.578348 1.957738 0.913316
-3.570882 1.976441 0.914459
-3.557561 1.989280 0.912101
-3.549428 2.007422 0.912860
-3.547458 2.032036 0.917359
-3.548033 2.059528 0.923445
-3.545301 2.083791 0.927568
-3.547668 2.113707 0.934847
-3.568637 2.164019 0.953609
-3.554890 2.177212 0.951128
-3.543412 2.192883 0.950042
-3.540006 2.217564 0.953968
-3.544817 2.251688 0.963053
-3.527191 2.260765 0.958183
-3.504025 2.263397 0.949807
-3.539465 2.333623 0.978320
-3.532232 2.355107 0.980062
-3.521630 2.372769 0.979689
-3.510869 2.390321 0.979224
-3.517521 2.428921 0.989918
-3.514938 2.456792 0.994773
-3.511532 2.483941 0.999149
-3.499250 2.500352 0.997824
-3.480150 2.508276 0.992067
-3.467604 2.524390 0.990560
-3.460455 2.547470 0.992597
-3.447853 2.563709 0.991077
-3.458723 2.610655 1.005086
-3.430499 2.606752 0.993265
-3.422460 2.629396 0.994827
-3.434039 2.678648 1.009562
-3.434944 2.714148 1.017264
-3.396078 2.695499 0.998187
-3.383658 2.712911 0.996910
-3.371979 2.731477 0.996152
-3.351156 2.737227 0.989151
-3.320076 2.728172 0.975062
-3.316768 2.758861 0.980053
-3.291392 2.757703 0.969809
-3.249338 2.731649 0.947877
-3.218774 2.721963 0.933817
-3.197043 2.725174 0.925869
-3.178227 2.732681 0.919939
-3.158181 2.738234 0.913112
-3.140702 2.747689 0.908084
-3.118125 2.749111 0.899390
-3.082881 2.730184 0.881524
-3.071141 2.748469 0.880532
-3.029367 2.718074 0.857723
-3.003075 2.712277 0.846043
-2.979033 2.709898 0.835938
-2.955963 2.708903 0.826489
-2.924667 2.693693 0.810881
-2.895473 2.681561 0.796721
-2.867831 2.671659 0.783622
-2.854755 2.686985 0.781411
-2.834664 2.689981 0.773905
-2.810269 2.685094 0.763084
-2.786724 2.681446 0.752844
-2.762819 2.676849 0.742262
-2.741774 2.677277 0.733826
-2.722347 2.680564 0.726607
-2.700134 2.678391 0.717170
-2.675813 2.671863 0.706011
-2.653760 2.669387 0.696570
-2.627811 2.658884 0.683958
-2.600680 2.645494 0.670293
-2.582658 2.650021 0.663868
-2.568908 2.663177 0.660887
-2.547783 2.660990 0.651879
-2.524325 2.653509 0.640882
-2.501355 2.646539 0.630190
-2.484353 2.651946 0.624377
-2.466209 2.654596 0.617564
-2.445138 2.650399 0.608222
-2.428400 2.655389 0.602469
-2.412752 2.662513 0.597597
-2.387592 2.647355 0.584473
-2.367319 2.642677 0.575427
-2.346294 2.635518 0.565606
-2.333155 2.646471 0.562595
-2.318130 2.652470 0.557864
-2.304265 2.660786 0.554092
-2.288184 2.663067 0.548254
-2.266933 2.651593 0.537623
-2.257879 2.670204 0.537938
-3.881323 -0.387474 0.481147
-3.880997 -0.374768 0.483813
-3.874957 -0.362406 0.484345
-3.859890 -0.350822 0.481430
-3.876015 -0.335747 0.490753
-3.888942 -0.320681 0.498935
-3.871382 -0.308919 0.495242
-3.865234 -0.295727 0.496077
-3.864446 -0.281731 0.499081
-3.881363 -0.265220 0.509160
-3.876039 -0.251462 0.510497
-3.872394 -0.237377 0.512542
-3.863925 -0.223912 0.512698
-3.848817 -0.211432 0.510212
-3.843109 -0.197507 0.511510
-3.846754 -0.182011 0.516603
-3.850746 -0.166329 0.521876
-3.841391 -0.152848 0.521764
-3.837192 -0.138466 0.523753
-4.068908 0.002332 0.642442
-4.022961 0.075225 0.643492
-4.008804 0.088385 0.641529
-3.987103 0.099539 0.636327
-3.992838 0.117466 0.642746
-3.982739 0.131365 0.642416
-3.965312 0.143236 0.638917
-3.970663 0.161112 0.645157
-3.968115 0.176890 0.648004
-3.946624 0.187331 0.642652
-3.951848 0.205239 0.648825
-3.954107 0.222365 0.653719
-3.928556 0.231253 0.646487
-3.913874 0.243193 0.643940
-3.894206 0.253461 0.639165
-3.860753 0.259207 0.628271
-3.839215 0.268435 0.622548
-3.813750 0.276181 0.615029
-3.804680 0.289117 0.614724
-3.812070 0.307541 0.621724
-3.813334 0.323991 0.626008
-3.807270 0.337946 0.627014
-3.796028 0.350046 0.625680
-3.775574 0.358753 0.620168
-3.789194 0.379726 0.630001
-3.793727 0.397534 0.635755
-3.785821 0.410761 0.635873
-3.779376 0.424511 0.636639
-3.776142 0.439491 0.638860
-3.771119 0.453787 0.640259
-3.775454 0.471828 0.645952
-3.779087 0.489698 0.651339
-3.777889 0.505687 0.654509
-3.776931 0.521828 0.657795
-3.774021 0.537202 0.660178
-3.772718 0.553301 0.663312
-3.765610 0.566932 0.663737
-3.768151 0.584809 0.668678
-3.763735 0.599683 0.670364
-3.748081 0.609490 0.666749
-3.746913 0.625840 0.669955
-3.749633 0.644064 0.675014
-3.748146 0.660424 0.678091
-3.746268 0.676664 0.680991
-3.741854 0.691743 0.682686
-3.739621 0.707924 0.685429
-3.735480 0.723222 0.687263
-3.733333 0.739563 0.690063
-3.730217 0.755479 0.692403
-3.726938 0.771368 0.694672
-3.724810 0.787914 0.697508
-3.725056 0.805785 0.701515
-3.721113 0.821524 0.703489
-3.716541 0.836976 0.705161
-3.712780 0.852917 0.707239
-3.701594 0.864804 0.705658
-3.701448 0.882839 0.709532
-3.702070 0.901418 0.713807
-3.699540 0.918309 0.716534
-3.694082 0.933582 0.717813
-3.690101 0.949763 0.719837
-3.685071 0.965384 0.721343
-3.689402 0.986679 0.727576
-3.695048 1.008955 0.734509
-3.694756 1.027781 0.738471
-3.692536 1.045530 0.741477
-3.691561 1.064157 0.745134
-3.687823 1.081142 0.747400
-3.681326 1.096431 0.748264
-3.681430 1.116049 0.752531
-3.682303 1.136308 0.757222
-3.682236 1.156090 0.761455
-3.681098 1.175289 0.765159
-3.681663 1.195767 0.769773
-3.679350 1.214420 0.772914
-3.670640 1.228740 0.772722
-3.664083 1.244584 0.773663
-3.667444 1.267510 0.779842
-3.667289 1.288116 0.784202
-3.657928 1.302198 0.783706
-3.658469 1.323540 0.788481
-3.662213 1.347415 0.794999
-3.660668 1.367549 0.798727
-3.646909 1.378583 0.795918
-3.644462 1.398200 0.799192
-3.642721 1.418485 0.802873
-3.638027 1.436602 0.804978
-3.636233 1.457094 0.808678
-3.630560 1.474635 0.810287
-3.627749 1.494556 0.813479
-3.644530 1.530535 0.827464
-3.641655 1.550821 0.830704
-3.636847 1.569633 0.832901
-3.633360 1.589651 0.835850
-3.630702 1.610495 0.839284
-3.623108 1.627252 0.839987
-3.620303 1.648205 0.843384
-3.618740 1.670385 0.847507
-3.615055 1.690857 0.850465
-3.609710 1.709979 0.852507
-3.607582 1.732099 0.856396
-3.608369 1.757034 0.861978
-3.600072 1.773842 0.862408
-3.591038 1.790018 0.862422
-3.592016 1.815623 0.868208
-3.588359 1.837070 0.871362
-3.583839 1.857839 0.874042
-3.581411 1.880762 0.877964
-3.580894 1.905727 0.883036
-3.584949 1.935416 0.890830
-3.585474 1.961903 0.896609
-3.573037 1.975603 0.894783
-3.562984 1.991714 0.894364
-3.557862 2.012923 0.896880
-3.556875 2.038558 0.901889
-3.559221 2.067913 0.908938
-3.559581 2.095474 0.914852
-3.553739 2.116685 0.917076
-3.556283 2.147079 0.924402
-3.548881 2.166972 0.925745
-3.539842 2.185181 0.926108
-3.542746 2.216740 0.933797
-3.541103 2.243550 0.938758
-3.539468 2.270628 0.943771
-3.511996 2.268408 0.932829
-3.531247 2.319860 0.950863
-3.546524 2.367429 0.966567
-3.536242 2.385547 0.966390
-3.524408 2.401905 0.965247
-3.526973 2.435632 0.973199
-3.534946 2.476333 0.984655
-3.528824 2.500288 0.987245
-3.515385 2.515387 0.985193
-3.499165 2.527039 0.981355
-3.490149 2.547765 0.982142
-3.481194 2.568722 0.982990
-3.476253 2.595019 0.986468
-3.456520 2.602314 0.980347
-3.456886 2.635952 0.987353
-3.452732 2.664008 0.991464
-3.445171 2.687805 0.993379
-3.436381 2.710167 0.994515
-3.422819 2.726192 0.992504
-3.406928 2.739072 0.988941
-3.385271 2.743897 0.981496
-3.362261 2.746664 0.973098
-3.344600 2.756889 0.968275
-3.323797 2.762550 0.961295
-3.294630 2.755892 0.948562
-3.254469 2.732652 0.928192
-3.218821 2.715412 0.910777
-3.199545 2.722236 0.904580
-3.182473 2.732341 0.899889
-3.161638 2.736657 0.892553
-3.145788 2.748603 0.888685
-3.125807 2.754102 0.881896
-3.094173 2.740999 0.866809
-3.075364 2.748000 0.860755
-3.053255 2.749594 0.852315
-3.017326 2.728329 0.833879
-2.993088 2.725799 0.823757
-2.968629 2.722646 0.813414
-2.941156 2.714108 0.800804
-2.895154 2.673364 0.774490
-2.875098 2.676558 0.767111
-2.857968 2.684773 0.761869
-2.842944 2.696729 0.758189
-2.819994 2.694520 0.748568
-2.793264 2.685185 0.736036
-2.768001 2.678131 0.724527
-2.748276 2.681016 0.717163
-2.725965 2.678889 0.707782
-2.702188 2.673701 0.697212
-2.679278 2.669837 0.687241
-2.657337 2.667543 0.677961
-2.631609 2.657457 0.665646
-2.607572 2.650254 0.654568
-2.586480 2.648578 0.645745
-2.563946 2.643615 0.635707
-2.553096 2.662511 0.634994
-2.529539 2.654822 0.624025
-2.503823 2.641995 0.611199
-2.488816 2.651588 0.607033
-2.473998 2.661446 0.603004
-2.453857 2.659354 0.594533
-2.434658 2.658868 0.586766
-2.419300 2.666612 0.582157
-2.396348 2.656568 0.571066
-2.371295 2.640821 0.558046
-2.357386 2.650380 0.554436
-2.342333 2.656833 0.549791
-2.320058 2.645311 0.538782
-2.306514 2.654207 0.535274
-2.289157 2.653139 0.528332
-2.274253 2.657452 0.523453
-2.250862 2.639473 0.510864
-3.914471 -0.381606 0.479317
-3.878973 -0.372211 0.468501
-3.880713 -0.359125 0.471992
-3.890518 -0.344947 0.478673
-3.880873 -0.332608 0.477956
-3.872047 -0.320057 0.477616
-3.877937 -0.305631 0.483038
-3.870525 -0.292616 0.483372
-3.859092 -0.280016 0.482188
-3.863590 -0.265227 0.487272
-3.859789 -0.251394 0.489168
-3.865932 -0.236024 0.495022
-3.867033 -0.221211 0.498949
-3.857654 -0.207883 0.498774
-3.849681 -0.194315 0.499174
-3.850965 -0.179207 0.503277
-3.842126 -0.165712 0.503369
-3.834024 -0.152096 0.503762
-3.940707 -0.117823 0.550321
-4.018498 0.092541 0.629191
-3.999088 0.120792 0.628999
-3.992189 0.135530 0.630045
-3.974235 0.147279 0.626394
-3.979882 0.165264 0.632706
-3.980788 0.182025 0.637011
-3.954840 0.191243 0.629854
-3.968403 0.211575 0.639541
-3.972160 0.229211 0.645050
-3.967007 0.244256 0.646728
-3.969757 0.261682 0.651803
-3.945445 0.270788 0.645158
-3.936366 0.284464 0.645067
-3.940872 0.302436 0.650873
-3.944807 0.320309 0.656439
-3.938982 0.335026 0.657735
-3.911909 0.342547 0.649673
-3.886282 0.350305 0.642179
-3.852528 0.354985 0.631024
-3.847529 0.369524 0.632538
-3.813722 0.373682 0.621226
-3.806273 0.387147 0.621588
-3.795327 0.399280 0.620368
-3.791090 0.413871 0.622134
-3.779912 0.425813 0.620770
-3.773701 0.439612 0.621621
-3.776324 0.456883 0.626460
-3.778174 0.473935 0.630960
-3.776313 0.489564 0.633781
-3.773363 0.504789 0.636107
-3.772121 0.520758 0.639214
-3.770495 0.536619 0.642148
-3.771311 0.553579 0.646211
-3.770071 0.569726 0.649335
-3.768723 0.585885 0.652415
-3.763853 0.600529 0.653865
-3.754831 0.613310 0.653380
-3.747791 0.626972 0.653806
-3.746392 0.643255 0.656867
-3.744753 0.659492 0.659824
-3.742719 0.675606 0.662603
-3.739958 0.691429 0.665045
-3.740934 0.709138 0.669264
-3.740748 0.726373 0.672947
-3.740324 0.743579 0.676530
-3.736452 0.759120 0.678481
-3.729749 0.773250 0.679079
-3.730878 0.791476 0.683439
-3.728975 0.808216 0.686357
-3.721607 0.822115 0.686646
-3.716845 0.837430 0.688194
-3.713476 0.853550 0.690425
-3.705948 0.867429 0.690636
-3.699852 0.882120 0.691546
-3.706530 0.904083 0.698721
-3.703439 0.920643 0.701132
-3.695609 0.934525 0.701216
-3.688410 0.948787 0.701611
-3.683828 0.964621 0.703303
-3.681406 0.981809 0.706080
-3.697783 1.010508 0.718254
-3.698129 1.029702 0.722474
-3.698717 1.049176 0.726840
-3.697629 1.067731 0.730387
-3.692349 1.083734 0.731838
-3.684156 1.097919 0.731822
-3.680835 1.115286 0.734282
-3.680169 1.134481 0.738109
-3.684616 1.157199 0.744574
-3.684135 1.176808 0.748553
-3.683123 1.196188 0.752283
-3.679476 1.213886 0.754679
-3.673959 1.230374 0.756123
-3.669789 1.247868 0.758276
-3.668097 1.267201 0.761734
-3.668206 1.287948 0.766157
-3.666348 1.307420 0.769578
-3.662035 1.325219 0.771734
-3.657594 1.343010 0.773837
-3.656485 1.363378 0.777719
-3.659538 1.387030 0.783835
-3.651389 1.402337 0.784032
-3.644803 1.418882 0.785067
-3.645760 1.441364 0.790151
-3.635462 1.455162 0.789226
-3.640503 1.481167 0.796564
-3.629989 1.494915 0.795543
-3.624075 1.512398 0.797013
-3.627604 1.537708 0.803636
-3.636265 1.567511 0.813107
-3.638556 1.592304 0.819155
