ply
format ascii 1.0
comment ---
element vertex 1594
property float x
property float y
property float z
element face 0
property list uchar uint vertex_indices
end_header
-4.731053 -5.233635 -1.190964
-4.733570 -5.215866 -1.184770
-4.742970 -5.202806 -1.181667
-4.771104 -5.202179 -1.186829
-4.820433 -5.176148 -1.186527
-4.767564 -5.085846 -1.142484
-4.778371 -5.074031 -1.140121
-4.777342 -5.055048 -1.132793
-4.788217 -5.043416 -1.130506
-4.796763 -5.030446 -1.127265
-4.796093 -5.012149 -1.120250
-4.803555 -4.998801 -1.116648
-4.807232 -4.983405 -1.111543
-4.803288 -4.963868 -1.103413
-4.800746 -4.945416 -1.095952
-4.802323 -4.929545 -1.090239
-4.796079 -4.909627 -1.081496
-4.794785 -4.892756 -1.074836
-4.811507 -4.885888 -1.075373
-4.840889 -4.885869 -1.080894
-4.845044 -4.872543 -1.076569
-2.014716 -6.069148 -1.039591
-2.026105 -6.082099 -1.046760
-2.037964 -6.086617 -1.050653
-2.050070 -6.090080 -1.054156
-2.062416 -6.090714 -1.056565
-2.074966 -6.085339 -1.056615
-2.087628 -6.081583 -1.057312
-2.100436 -6.083745 -1.060366
-2.113451 -6.090567 -1.065292
-2.126571 -6.091542 -1.067909
-2.139873 -6.095263 -1.071636
-2.153254 -6.096547 -1.074402
-2.166859 -6.101719 -1.078740
-2.221429 -6.403209 -1.207353
-2.232456 -6.318649 -1.175681
-2.246913 -6.310403 -1.174823
-2.268850 -6.425840 -1.224229
-2.284841 -6.432510 -1.229535
-2.301368 -6.445313 -1.237361
-2.317939 -6.456614 -1.244600
-2.333495 -6.453780 -1.246068
-2.361723 -6.417224 -1.236288
-2.379413 -6.438528 -1.247684
-2.394393 -6.431135 -1.247259
-2.413629 -6.463972 -1.263490
-2.424144 -6.416448 -1.246422
-2.441103 -6.427697 -1.253726
-2.460588 -6.458496 -1.269203
-2.477795 -6.469048 -1.276280
-2.491437 -6.452118 -1.271876
-2.505430 -6.438973 -1.269034
-2.520512 -6.434333 -1.269750
-2.537671 -6.443921 -1.276457
-2.553340 -6.443208 -1.278837
-2.564969 -6.417222 -1.270530
-2.578084 -6.401869 -1.266690
-2.611692 -6.415863 -1.277977
-2.627925 -6.419020 -1.282012
-2.639655 -6.397723 -1.275603
-2.657711 -6.410636 -1.283821
-2.672895 -6.408164 -1.285463
-2.685432 -6.392615 -1.281483
-2.702897 -6.401598 -1.288059
-2.715733 -6.388224 -1.285001
-2.728624 -6.375657 -1.282276
-2.742437 -6.367726 -1.281547
-2.758240 -6.368791 -1.284725
-2.775428 -6.375637 -1.290434
-2.783007 -6.341774 -1.278388
-2.798320 -6.340983 -1.280761
-2.813375 -6.339068 -1.282650
-2.824985 -6.323565 -1.278573
-2.841987 -6.329322 -1.283842
-2.874148 -6.332933 -1.290948
-2.904840 -6.330475 -1.295416
-2.926229 -6.350172 -1.306980
-2.951451 -6.327941 -1.302704
-2.964492 -6.318604 -1.301349
-2.981001 -6.320680 -1.305114
-2.995697 -6.316741 -1.306188
-3.006312 -6.299997 -1.301493
-3.028700 -6.271188 -1.294160
-3.034973 -6.242603 -1.284033
-3.069357 -6.250557 -1.293347
-3.076046 -6.224328 -1.284230
-3.080047 -6.191251 -1.271938
-3.115455 -6.245245 -1.299565
-3.119986 -6.213946 -1.288073
-3.116930 -6.163227 -1.267576
-3.072823 -6.006237 -1.197870
-3.071197 -5.963461 -1.180759
-3.085558 -5.962455 -1.182965
-3.098737 -5.958351 -1.183741
-3.113436 -5.957953 -1.186252
-3.128119 -5.957360 -1.188684
-3.143995 -5.959484 -1.192402
-3.159851 -5.961332 -1.196012
-3.169879 -5.949356 -1.193131
-3.182956 -5.944559 -1.193627
-3.199049 -5.946575 -1.197350
-3.214217 -5.946296 -1.200004
-3.228936 -5.944862 -1.202124
-3.247013 -5.950619 -1.207681
-3.261635 -5.948620 -1.209565
-3.273489 -5.940629 -1.208593
-3.286799 -5.935724 -1.209098
-3.302073 -5.934842 -1.211543
-3.317404 -5.933928 -1.213987
-3.330272 -5.927902 -1.213976
-3.346024 -5.927601 -1.216740
-3.359794 -5.923243 -1.217550
-3.376930 -5.925359 -1.221517
-3.392133 -5.923547 -1.223591
-3.404852 -5.916906 -1.223316
-3.419342 -5.913572 -1.224664
-3.442404 -5.925992 -1.233762
-3.460320 -5.928549 -1.238050
-3.474933 -5.924920 -1.239307
-3.487932 -5.918329 -1.239108
-3.501569 -5.912849 -1.239463
-3.516230 -5.909112 -1.240690
-3.527087 -5.898751 -1.238622
-3.547712 -5.905073 -1.244888
-3.566651 -5.908250 -1.249613
-3.581203 -5.903894 -1.250580
-3.595365 -5.898831 -1.251200
-3.617929 -5.907361 -1.258690
-3.637013 -5.909944 -1.263212
-3.648719 -5.900586 -1.261700
-3.660125 -5.890796 -1.259964
-3.677124 -5.889743 -1.262681
-3.694881 -5.889709 -1.265936
-3.716666 -5.895624 -1.272266
-3.717247 -5.869394 -1.262102
-3.736160 -5.870803 -1.266139
-3.752142 -5.867707 -1.267873
-3.773300 -5.872036 -1.273468
-3.795482 -5.877575 -1.279728
-3.818620 -5.884191 -1.286587
-3.832345 -5.877244 -1.286402
-3.848358 -5.873464 -1.287879
-3.868365 -5.875095 -1.292213
-3.889951 -5.878676 -1.297602
-3.900274 -5.866815 -1.294871
-3.900529 -5.841588 -1.285053
-3.936845 -5.839000 -1.290760
-4.008135 -5.855357 -1.310359
-4.023489 -5.849691 -1.310992
-4.044669 -5.851198 -1.315510
-4.060884 -5.846392 -1.316643
-4.076586 -5.840881 -1.317407
-4.094114 -5.837500 -1.319344
-4.112315 -5.834809 -1.321677
-4.132205 -5.833982 -1.325054
-4.150532 -5.831161 -1.327365
-4.167346 -5.826460 -1.328663
-4.183838 -5.821299 -1.329725
-4.206850 -5.823443 -1.334852
-4.224104 -5.818891 -1.336298
-4.244351 -5.817564 -1.339562
-4.271534 -5.823699 -1.347031
-4.286722 -5.816451 -1.347049
-4.304821 -5.812287 -1.348817
-4.324017 -5.809175 -1.351201
-4.345034 -5.807848 -1.354625
-4.374755 -5.815457 -1.363159
-4.389975 -5.807673 -1.362992
-4.401135 -5.795666 -1.360424
-4.414460 -5.785881 -1.359130
-4.430045 -5.778348 -1.359141
-4.458846 -5.783917 -1.366727
-4.481245 -5.782839 -1.370534
-4.495107 -5.773218 -1.369421
-4.512824 -5.767290 -1.370471
-4.532819 -5.763430 -1.372759
-4.565545 -5.771492 -1.382074
-4.584704 -5.766418 -1.383742
-4.587523 -5.746003 -1.376383
-4.586810 -5.722494 -1.367162
-4.596219 -5.708433 -1.363520
-4.589046 -5.679430 -1.350959
-4.595667 -5.663082 -1.345913
-4.620161 -5.662628 -1.350409
-4.623090 -5.643028 -1.343416
-4.574117 -5.578517 -1.309214
-4.576607 -5.559245 -1.302273
-4.570666 -5.532927 -1.291013
-4.567000 -5.508791 -1.281033
-4.566470 -5.487492 -1.272750
-4.560491 -5.461860 -1.261762
-4.557525 -5.438941 -1.252401
-4.558022 -5.419022 -1.244861
-4.560642 -5.400937 -1.238438
-4.560536 -5.380789 -1.230705
-4.557709 -5.358646 -1.221688
-4.557917 -5.339038 -1.214232
-4.559709 -5.320776 -1.207603
-4.555885 -5.298342 -1.198298
-4.545208 -5.270933 -1.185770
-4.544559 -5.251287 -1.178154
-4.549146 -5.235631 -1.173082
-4.570202 -5.232043 -1.175814
-4.615547 -5.245787 -1.189876
-4.658162 -5.257011 -1.202452
-4.682349 -5.254681 -1.206286
-4.726988 -5.246713 -1.211980
-4.743397 -5.238370 -1.212023
-4.721226 -5.203784 -1.194568
-4.737062 -5.195110 -1.194380
-4.762166 -5.192475 -1.198297
-4.764769 -5.080337 -1.156327
-4.765915 -5.062605 -1.149832
-4.776780 -5.050925 -1.147530
-4.785825 -5.038190 -1.144468
-4.798672 -5.027781 -1.143027
-4.810259 -5.016668 -1.141067
-4.805930 -4.996389 -1.132509
-4.784792 -4.966754 -1.117106
-4.791026 -4.953149 -1.113129
-4.802186 -4.942475 -1.111217
-4.798577 -4.923733 -1.103346
-4.788535 -4.901777 -1.092985
-4.813587 -4.899266 -1.096849
-4.818825 -4.886119 -1.092791
-4.840375 -4.881879 -1.095284
-4.883821 -4.889215 -1.106429
-2.011151 -6.124852 -1.075125
-2.023835 -6.092215 -1.064316
-2.035765 -6.095084 -1.067610
-2.047803 -6.105905 -1.074099
-2.060315 -6.097144 -1.072792
-2.072956 -6.080871 -1.068477
-2.085604 -6.069938 -1.066293
-2.098380 -6.076178 -1.071010
-2.111364 -6.083511 -1.076192
-2.124500 -6.087436 -1.080019
-2.137685 -6.085870 -1.081641
-2.151036 -6.087394 -1.084523
-2.164370 -6.084624 -1.085670
-2.218163 -6.378495 -1.212742
-2.231094 -6.333126 -1.196695
-2.246300 -6.336693 -1.200678
-2.266712 -6.425541 -1.239781
-2.298036 -6.427682 -1.245888
-2.316271 -6.461979 -1.262717
-2.332233 -6.463497 -1.266002
-2.345747 -6.436193 -1.257304
-2.362654 -6.449043 -1.265302
-2.378794 -6.452457 -1.269385
-2.394073 -6.446985 -1.269758
-2.409094 -6.439597 -1.269322
-2.424895 -6.439809 -1.272073
-2.435546 -6.396136 -1.256340
-2.453135 -6.412745 -1.265984
-2.472374 -6.440902 -1.280549
-2.487654 -6.437089 -1.281615
-2.500434 -6.415495 -1.275124
-2.515732 -6.413003 -1.276733
-2.531756 -6.415558 -1.280497
-2.546465 -6.409383 -1.280539
-2.558777 -6.388541 -1.274292
-2.572566 -6.377973 -1.272425
-2.593367 -6.409358 -1.288594
-2.610603 -6.418437 -1.295211
-2.626883 -6.421635 -1.299310
-2.642104 -6.418889 -1.300850
-2.683584 -6.390330 -1.296631
-2.698415 -6.386489 -1.297687
-2.715940 -6.395484 -1.304359
-2.728116 -6.379291 -1.300014
-2.739029 -6.358084 -1.293445
-2.754516 -6.357861 -1.296086
-2.768030 -6.349065 -1.294953
-2.781854 -6.341848 -1.294511
-2.795342 -6.333443 -1.293540
-2.817989 -6.362100 -1.309022
-2.829034 -6.343756 -1.303653
-2.838601 -6.320339 -1.295997
-2.856804 -6.330345 -1.303245
-2.873996 -6.336074 -1.308608
-2.876045 -6.286473 -1.289159
-2.903019 -6.327350 -1.310325
-2.926489 -6.354298 -1.325302
-2.939560 -6.344448 -1.323721
-2.959918 -6.306226 -1.312135
-2.978272 -6.314415 -1.318719
-2.995357 -6.318109 -1.323284
-3.017632 -6.287989 -1.315308
-3.021137 -6.250326 -1.300925
-3.031335 -6.233669 -1.296139
-3.063852 -6.236374 -1.303139
-3.066353 -6.198400 -1.288463
-3.085773 -6.208659 -1.296098
-3.094810 -6.189902 -1.290278
-3.102476 -6.167842 -1.282895
-3.073133 -6.008025 -1.213881
-3.075078 -5.974363 -1.200837
-3.086599 -5.965898 -1.199583
-3.099058 -5.959866 -1.199472
-3.111761 -5.954446 -1.199652
-3.128618 -5.959135 -1.204620
-3.144448 -5.961056 -1.208300
-3.159928 -5.961926 -1.211499
-3.170546 -5.951251 -1.209212
-3.181683 -5.941897 -1.207548
-3.194977 -5.937529 -1.208267
-3.209753 -5.936430 -1.210560
-3.227097 -5.940867 -1.215531
-3.245085 -5.946418 -1.221065
-3.260134 -5.945333 -1.223419
-3.271674 -5.936653 -1.222107
-3.285015 -5.931806 -1.222653
-3.300798 -5.931963 -1.225641
-3.314695 -5.928098 -1.226683
-3.328665 -5.924308 -1.227769
-3.344404 -5.923965 -1.230554
-3.360091 -5.923359 -1.233226
-3.373912 -5.918977 -1.234054
-3.390390 -5.919628 -1.237374
-3.406984 -5.920314 -1.240731
-3.425560 -5.924520 -1.245855
-3.440853 -5.922391 -1.247855
-3.455764 -5.919447 -1.249461
-3.474889 -5.924003 -1.254829
-3.490084 -5.921279 -1.256578
-3.502094 -5.912841 -1.255466
-3.514095 -5.904418 -1.254360
-3.532603 -5.907215 -1.258919
-3.552529 -5.912189 -1.264608
-3.567292 -5.908205 -1.265780
-3.597663 -5.930069 -1.280118
-3.609644 -5.921067 -1.278783
-3.620926 -5.910968 -1.276884
-3.636704 -5.908143 -1.278709
-3.649445 -5.900392 -1.278015
-3.661438 -5.891473 -1.276719
-3.681043 -5.894397 -1.281542
-3.694682 -5.887931 -1.281529
-3.705991 -5.877905 -1.279669
-3.719754 -5.871614 -1.279750
-3.729050 -5.858659 -1.276355
-3.751613 -5.865304 -1.283211
-3.772789 -5.869621 -1.288887
-3.794780 -5.874851 -1.295078
-3.813623 -5.875324 -1.298796
-3.830266 -5.872522 -1.300806
-3.845661 -5.867874 -1.301852
-3.868736 -5.873726 -1.308497
-3.886340 -5.871833 -1.311051
-3.899814 -5.864241 -1.310575
-3.912116 -5.855071 -1.309257
-3.926540 -5.848721 -1.309454
-3.987678 -5.852283 -1.322362
-4.002949 -5.846605 -1.322992
-4.024906 -5.849247 -1.328173
-4.044777 -5.849071 -1.331848
-4.063065 -5.846774 -1.334389
-4.076821 -5.838837 -1.333848
-4.088877 -5.828834 -1.332173
-4.109787 -5.829395 -1.336345
-4.133215 -5.832731 -1.342091
-4.150980 -5.829206 -1.344060
-4.167096 -5.823659 -1.344922
-4.185742 -5.820930 -1.347378
-4.209659 -5.824035 -1.353136
-4.228646 -5.821360 -1.355683
-4.247468 -5.818361 -1.358074
-4.266016 -5.814927 -1.360245
-4.293691 -5.821293 -1.368015
-4.309440 -5.814487 -1.368331
-4.327852 -5.810454 -1.370252
-4.349224 -5.809423 -1.373920
-4.371007 -5.808636 -1.377767
-4.394175 -5.809090 -1.382368
-4.412362 -5.804217 -1.383930
-4.418119 -5.786608 -1.378116
-4.430709 -5.775997 -1.376361
-4.462865 -5.784850 -1.385999
-4.477160 -5.775706 -1.385156
-4.490841 -5.765920 -1.383947
-4.516759 -5.767921 -1.389714
-4.539366 -5.766487 -1.393504
-4.559707 -5.762701 -1.395941
-4.576898 -5.755797 -1.396557
-4.588921 -5.743990 -1.394263
-4.591902 -5.723856 -1.386973
-4.588441 -5.698008 -1.376211
-4.596463 -5.682774 -1.371820
-4.578460 -5.644357 -1.353348
-4.597497 -5.639190 -1.355030
-4.594170 -5.614299 -1.344690
-4.578780 -5.579196 -1.328032
-4.565525 -5.546363 -1.312680
-4.562187 -5.522350 -1.302696
-4.565570 -5.504210 -1.296311
-4.560876 -5.479447 -1.285783
-4.561526 -5.459325 -1.278107
-4.548594 -5.428262 -1.263533
-4.554947 -5.413136 -1.258923
-4.558471 -5.395787 -1.252902
-4.557470 -5.374941 -1.244645
-4.555431 -5.353435 -1.235934
-4.557775 -5.335494 -1.229470
-4.560316 -5.317799 -1.223144
-4.553343 -5.292965 -1.212193
-4.545711 -5.267872 -1.201017
-4.538876 -5.243615 -1.190325
-4.550864 -5.233438 -1.188788
-4.572047 -5.229892 -1.191630
-4.625562 -5.249441 -1.209772
-4.663080 -5.256887 -1.220092
-4.700381 -5.244104 -1.222617
-4.716684 -5.235855 -1.222707
-4.718996 -5.217930 -1.216304
-4.708138 -5.191196 -1.203903
-4.719869 -5.179848 -1.201904
-4.760649 -5.092547 -1.176680
-4.761109 -5.074264 -1.169781
-4.766323 -5.059048 -1.165003
-4.770854 -5.043524 -1.159967
-4.784666 -5.033674 -1.158951
-4.794584 -5.021530 -1.156275
-4.805529 -5.010060 -1.154055
-4.792053 -4.984538 -1.141572
-4.785439 -4.963343 -1.132108
-4.791306 -4.949530 -1.127950
-4.786232 -4.929773 -1.119322
-4.769880 -4.904099 -1.106167
-4.785058 -4.896149 -1.106075
-4.801451 -4.888957 -1.106502
-4.812056 -4.878767 -1.104610
-4.805278 -4.859555 -1.095780
-4.833800 -4.859231 -1.101203
-2.010090 -6.089085 -1.074528
-2.021562 -6.101207 -1.081566
-2.033470 -6.107104 -1.086130
-2.045679 -6.109549 -1.089325
-2.058234 -6.098917 -1.087243
-2.070913 -6.079897 -1.081756
-2.083565 -6.073016 -1.081184
-2.096325 -6.071877 -1.082952
-2.109286 -6.078889 -1.088057
-2.122404 -6.082842 -1.091934
-2.135595 -6.082265 -1.093968
-2.148826 -6.079104 -1.094949
-2.162433 -6.086853 -1.100424
-2.198547 -6.319299 -1.201127
-2.215356 -6.364094 -1.222198
-2.229981 -6.353726 -1.220452
-2.247008 -6.388644 -1.237534
-2.264606 -6.426312 -1.255829
-2.280729 -6.434476 -1.261868
-2.296729 -6.439177 -1.266478
-2.314569 -6.467424 -1.280979
-2.329978 -6.461405 -1.281129
-2.344108 -6.440944 -1.275188
-2.360102 -6.443253 -1.278829
-2.377454 -6.459378 -1.288323
-2.392036 -6.446367 -1.285499
-2.406956 -6.437760 -1.284527
-2.422717 -6.437467 -1.287084
-2.433869 -6.397713 -1.272812
-2.446663 -6.374825 -1.265684
-2.464773 -6.395583 -1.277217
-2.480369 -6.395718 -1.279941
-2.495625 -6.393374 -1.281604
-2.509557 -6.381926 -1.279343
-2.525707 -6.386251 -1.283882
-2.541412 -6.387364 -1.287045
-2.557717 -6.392159 -1.291814
-2.578885 -6.426293 -1.309352
-2.590541 -6.402048 -1.301528
-2.607214 -6.407983 -1.306842
-2.624493 -6.416901 -1.313480
-2.638397 -6.407000 -1.311892
-2.647716 -6.373468 -1.299915
-2.661126 -6.362617 -1.297867
-2.675196 -6.355543 -1.297475
-2.695502 -6.379036 -1.310591
-2.711148 -6.379206 -1.313428
-2.737277 -6.355957 -1.308637
-2.749447 -6.341053 -1.304763
-2.764566 -6.339409 -1.306794
-2.772181 -6.306153 -1.294679
-2.795996 -6.340894 -1.313020
-2.812931 -6.346322 -1.318258
-2.822644 -6.322921 -1.310529
-2.831175 -6.295794 -1.301082
-2.852243 -6.317042 -1.313486
-2.855318 -6.270610 -1.295251
-2.885767 -6.325327 -1.322905
-2.895913 -6.305435 -1.316699
-2.914690 -6.316320 -1.324514
-2.932735 -6.324133 -1.330958
-2.943217 -6.306030 -1.325550
-2.954563 -6.291279 -1.321660
-2.975430 -6.307811 -1.332156
-2.992729 -6.312215 -1.337104
-3.005857 -6.303219 -1.335877
-3.014314 -6.279968 -1.328040
-3.023701 -6.260147 -1.321762
-3.037995 -6.255432 -1.322490
-3.050746 -6.246175 -1.321105
-3.052661 -6.205807 -1.305167
-3.063632 -6.192246 -1.301723
-3.070733 -6.002721 -1.226607
-3.075807 -5.977139 -1.217239
-3.087548 -5.969122 -1.216193
-3.098717 -5.959739 -1.214493
-3.111489 -5.954421 -1.214731
-3.128049 -5.958319 -1.219392
-3.144763 -5.962307 -1.224118
-3.156748 -5.954818 -1.223343
-3.169157 -5.948356 -1.223061
-3.181628 -5.942049 -1.222856
-3.195030 -5.937858 -1.223678
-3.210026 -5.937182 -1.226216
-3.227702 -5.942277 -1.231581
-3.244195 -5.944489 -1.235565
-3.259274 -5.943429 -1.237969
-3.270869 -5.934830 -1.236688
-3.284042 -5.929590 -1.237056
-3.299714 -5.929485 -1.239960
-3.319067 -5.936729 -1.246514
-3.333196 -5.933086 -1.247708
-3.346486 -5.927696 -1.248043
-3.359288 -5.921314 -1.247889
-3.375351 -5.921248 -1.250889
-3.389215 -5.916801 -1.251716
-3.407529 -5.920717 -1.256743
-3.425968 -5.924601 -1.261783
-3.439750 -5.919619 -1.262382
-3.455188 -5.917610 -1.264490
-3.474196 -5.921916 -1.269810
-3.488431 -5.917447 -1.270704
-3.501859 -5.911495 -1.270852
-3.519455 -5.912762 -1.274687
-3.539706 -5.918396 -1.280780
-3.552458 -5.910989 -1.280218
-3.574276 -5.918809 -1.287487
-3.593603 -5.922146 -1.292486
-3.609877 -5.920227 -1.294798
-3.621083 -5.909956 -1.292798
-3.634554 -5.903384 -1.292712
-3.650800 -5.901192 -1.294912
-3.670687 -5.904588 -1.300046
-3.689167 -5.905560 -1.303941
-3.700883 -5.895966 -1.302315
-3.713373 -5.887589 -1.301325
-3.728906 -5.883791 -1.302752
-3.740726 -5.874398 -1.301229
-3.756638 -5.871045 -1.302908
-3.773947 -5.869625 -1.305629
-3.794273 -5.872399 -1.310606
-3.809221 -5.867303 -1.311407
-3.826168 -5.864957 -1.313692
-3.849902 -5.871928 -1.321004
-3.867385 -5.869980 -1.323554
-3.884250 -5.867060 -1.325597
-3.899182 -5.861425 -1.326187
-3.910106 -5.850395 -1.323853
-3.981636 -5.842403 -1.334314
-4.004431 -5.846290 -1.340228
-4.022476 -5.843972 -1.342753
-4.043442 -5.845143 -1.347236
-4.061546 -5.842601 -1.349687
-4.078828 -5.838932 -1.351533
-4.095284 -5.834163 -1.352784
-4.111234 -5.828703 -1.353664
-4.130723 -5.827340 -1.356862
-4.149072 -5.824489 -1.359251
-4.167622 -5.821739 -1.361721
-4.187256 -5.820097 -1.364845
-4.208056 -5.819615 -1.368660
-4.229960 -5.820187 -1.373111
-4.243774 -5.811585 -1.372347
-4.261690 -5.807460 -1.374163
-4.290008 -5.814525 -1.382451
-4.309309 -5.811548 -1.384999
-4.325168 -5.804760 -1.385368
-4.348157 -5.805423 -1.390087
-4.372041 -5.806802 -1.395269
-4.411057 -5.823592 -1.409520
-4.408750 -5.797527 -1.398714
-4.421274 -5.786796 -1.396889
-4.442000 -5.784292 -1.399932
-4.468383 -5.787242 -1.406246
-4.478182 -5.773590 -1.402744
-4.508900 -5.780365 -1.411431
-4.518443 -5.766348 -1.407746
-4.532079 -5.756285 -1.406432
-4.548069 -5.748414 -1.406453
-4.561209 -5.737791 -1.404831
-4.570780 -5.723827 -1.401194
-4.583362 -5.712662 -1.399260
-4.581528 -5.688363 -1.389308
-4.587177 -5.671033 -1.383588
-4.592069 -5.653122 -1.377494
-4.592672 -5.631529 -1.369109
-4.590163 -5.607390 -1.359112
-4.580203 -5.577029 -1.345197
-4.570459 -5.547200 -1.331540
-4.561003 -5.517953 -1.318175
-4.561770 -5.497612 -1.310346
-4.566565 -5.480765 -1.304696
-4.563040 -5.457150 -1.294741
-4.559400 -5.433652 -1.284814
-4.550670 -5.406259 -1.272353
-4.557855 -5.391853 -1.268161
-4.557339 -5.371388 -1.260066
-4.556605 -5.350899 -1.251923
-4.559633 -5.333466 -1.245734
-4.563051 -5.316416 -1.239780
-4.555601 -5.291200 -1.228464
-4.543142 -5.262472 -1.214777
-4.540608 -5.241430 -1.206087
-4.539213 -5.221385 -1.198021
-4.561200 -5.218476 -1.201342
-4.620722 -5.242346 -1.222658
-4.664445 -5.254186 -1.236113
-4.681936 -5.247014 -1.236887
-4.698010 -5.238715 -1.236941
-4.705397 -5.224310 -1.232872
-4.700838 -5.201777 -1.223236
-4.702239 -5.183456 -1.216444
-4.717442 -5.155316 -1.208678
-4.755122 -5.085256 -1.189335
-4.768456 -5.074959 -1.188080
-4.771572 -5.058410 -1.182327
-4.774870 -5.042105 -1.176700
-4.781164 -5.027728 -1.172425
-4.789695 -5.014784 -1.169151
-4.790570 -4.997465 -1.162622
-4.788620 -4.978723 -1.154958
-4.798868 -4.967193 -1.152555
-4.795216 -4.947930 -1.144324
-4.769263 -4.916522 -1.126848
-4.769430 -4.900110 -1.120471
-4.785501 -4.892648 -1.120773
-4.811872 -4.890839 -1.125339
-4.806262 -4.871936 -1.116776
-4.807829 -4.857198 -1.111265
-2.007627 -6.102799 -1.093736
-2.019363 -6.106174 -1.097311
-2.031395 -6.106630 -1.099714
-2.043608 -6.108420 -1.102679
-2.056193 -6.095266 -1.099534
-2.068771 -6.091590 -1.100273
-2.081490 -6.082271 -1.098695
-2.094283 -6.075937 -1.098344
-2.107193 -6.074151 -1.099872
-2.120283 -6.077497 -1.103534
-2.133472 -6.077849 -1.105967
-2.146737 -6.076666 -1.107771
-2.160386 -6.086147 -1.114025
-2.195081 -6.285420 -1.202090
-2.212806 -6.355857 -1.234142
-2.228220 -6.362192 -1.239377
-2.245088 -6.393444 -1.255124
-2.262474 -6.427184 -1.271982
-2.277958 -6.425047 -1.273729
-2.294407 -6.436695 -1.281319
-2.311226 -6.451323 -1.290202
-2.326827 -6.448408 -1.291647
-2.341187 -6.431015 -1.286916
-2.357854 -6.441122 -1.293915
-2.374615 -6.450993 -1.300835
-2.389663 -6.442705 -1.299983
-2.404092 -6.429321 -1.296929
-2.419917 -6.429754 -1.299812
-2.436489 -6.436560 -1.305454
-2.453083 -6.442946 -1.310933
-2.460931 -6.379740 -1.286244
-2.478052 -6.391859 -1.294186
-2.493353 -6.389773 -1.295969
-2.508366 -6.385805 -1.296933
-2.522764 -6.377946 -1.296195
-2.537787 -6.374704 -1.297473
-2.549345 -6.349730 -1.289209
-2.574883 -6.411920 -1.319266
-2.591636 -6.418097 -1.324742
-2.618823 -6.393956 -1.319591
-2.633335 -6.387820 -1.319629
-2.643745 -6.360339 -1.310170
-2.650179 -6.313867 -1.292207
-2.666524 -6.319286 -1.297340
-2.686395 -6.341507 -1.310012
-2.705794 -6.360290 -1.321193
-2.717049 -6.340358 -1.315021
-2.730532 -6.331350 -1.313740
-2.744410 -6.324403 -1.313383
-2.753458 -6.296839 -1.303700
-2.773402 -6.316321 -1.315297
-2.794249 -6.338547 -1.328190
-2.805454 -6.320807 -1.322945
-2.810774 -6.280452 -1.307362
-2.826128 -6.280434 -1.310151
-2.844220 -6.290644 -1.317637
-2.860852 -6.294893 -1.322420
-2.874343 -6.287398 -1.321820
-2.894250 -6.302938 -1.331839
-2.909481 -6.301372 -1.333997
-2.959148 -6.309247 -1.346383
-2.974777 -6.308351 -1.348908
-2.992352 -6.313537 -1.354288
-3.005322 -6.303923 -1.352763
-3.020976 -6.253974 -1.335251
-3.050019 -6.245884 -1.337362
-3.070110 -6.212218 -1.327365
-3.081716 -6.200278 -1.324663
-3.119635 -6.260878 -1.356523
-3.095351 -6.151065 -1.307127
-3.073191 -6.010179 -1.245451
-3.074636 -5.975023 -1.231378
-3.088490 -5.972344 -1.232897
-3.099796 -5.963186 -1.231296
-3.111003 -5.953879 -1.229617
-3.128319 -5.959559 -1.235208
-3.144207 -5.961478 -1.238997
-3.156165 -5.953868 -1.238160
-3.167160 -5.944048 -1.236242
-3.185982 -5.952359 -1.243200
-3.200942 -5.951499 -1.245689
-3.212403 -5.942654 -1.244263
-3.225064 -5.936529 -1.244175
-3.242760 -5.941376 -1.249515
-3.259995 -5.944931 -1.254243
-3.276172 -5.945975 -1.257750
-3.290326 -5.942583 -1.259066
-3.304537 -5.939224 -1.260408
-3.319113 -5.936527 -1.262091
-3.335197 -5.936768 -1.265259
-3.349549 -5.933383 -1.266622
-3.361651 -5.925491 -1.265723
-3.373950 -5.918010 -1.265030
-3.389445 -5.916667 -1.267447
-3.407169 -5.919405 -1.271951
-3.426490 -5.924892 -1.277881
-3.442682 -5.924298 -1.280740
-3.454991 -5.916463 -1.279911
-3.472872 -5.918690 -1.284243
-3.486510 -5.913137 -1.284600
-3.501477 -5.909885 -1.286148
-3.519273 -5.911460 -1.290202
-3.533887 -5.907361 -1.291340
-3.559432 -5.921751 -1.302092
-3.572514 -5.914719 -1.301747
-3.586245 -5.908753 -1.301960
-3.598027 -5.899559 -1.300489
-3.617685 -5.903176 -1.305737
-3.632452 -5.898702 -1.306760
-3.652818 -5.903034 -1.312437
-3.672662 -5.906281 -1.317575
-3.687573 -5.901640 -1.318561
-3.698523 -5.890862 -1.316293
-3.713245 -5.885868 -1.317102
-3.732037 -5.886918 -1.321150
-3.747553 -5.882916 -1.322517
-3.760164 -5.874572 -1.321563
-3.778551 -5.874618 -1.325129
-3.793486 -5.869539 -1.325952
-3.806182 -5.861221 -1.325029
-3.829917 -5.868413 -1.332532
-3.849512 -5.869529 -1.336772
-3.869365 -5.870805 -1.341128
-3.891440 -5.874905 -1.347061
-3.902993 -5.864583 -1.345114
-3.911886 -5.850763 -1.341235
-3.959200 -5.836605 -1.344672
-3.981507 -5.840081 -1.350409
-4.004942 -5.844734 -1.356844
-4.023993 -5.843629 -1.360099
-4.038904 -5.837243 -1.360414
-4.057474 -5.835290 -1.363238
-4.078397 -5.836052 -1.367620
-4.097697 -5.834667 -1.370820
-4.116627 -5.832687 -1.373711
-4.129612 -5.823567 -1.372559
-4.148346 -5.821139 -1.375236
-4.168831 -5.820593 -1.379019
-4.184878 -5.814802 -1.379820
-4.206565 -5.815310 -1.384270
-4.222458 -5.809134 -1.384892
-4.243022 -5.808059 -1.388491
-4.257972 -5.800655 -1.388441
-4.280707 -5.801650 -1.393308
-4.298406 -5.797014 -1.394920
-4.319466 -5.795844 -1.398594
-4.349614 -5.804067 -1.407842
-4.374504 -5.806436 -1.413704
-4.379605 -5.788109 -1.407343
-4.406399 -5.792116 -1.414248
-4.421724 -5.784215 -1.414107
-4.441389 -5.780603 -1.416552
-4.469174 -5.784905 -1.423787
-4.476543 -5.768832 -1.418805
-4.517188 -5.785232 -1.433455
-4.520695 -5.765295 -1.426168
-4.515504 -5.737219 -1.413897
-4.520492 -5.719076 -1.407634
-4.544954 -5.719272 -1.412598
-4.568196 -5.718096 -1.416775
-4.576341 -5.702857 -1.412323
-4.597486 -5.699476 -1.415213
-4.580129 -5.661303 -1.396513
-4.578858 -5.637952 -1.386956
-4.583921 -5.620395 -1.380987
-4.578941 -5.594171 -1.369554
-4.583625 -5.576559 -1.363500
-4.575139 -5.547779 -1.350357
-4.566922 -5.519543 -1.337492
-4.564074 -5.496111 -1.327625
-4.564082 -5.475257 -1.319366
-4.565947 -5.456085 -1.312157
-4.554688 -5.426363 -1.298114
-4.552791 -5.404512 -1.289094
-4.552109 -5.383802 -1.280780
-4.554797 -5.365902 -1.274269
-4.555250 -5.346352 -1.266657
-4.558565 -5.329140 -1.260559
-4.560041 -5.310599 -1.253569
-4.556480 -5.288353 -1.244094
-4.545827 -5.260981 -1.231155
-4.537463 -5.235594 -1.219472
-4.541942 -5.219874 -1.214232
-4.554216 -5.209860 -1.212842
-4.617826 -5.236625 -1.236457
-4.663799 -5.250015 -1.251199
-4.689679 -5.248711 -1.256046
-4.698021 -5.215451 -1.244789
-4.703341 -5.199696 -1.239748
-4.707288 -5.183062 -1.234082
-4.709005 -5.165015 -1.227407
-4.732460 -5.161384 -1.230868
-4.756869 -5.082473 -1.205224
-4.769134 -5.071490 -1.203496
-4.774663 -5.056407 -1.198769
-4.775507 -5.038605 -1.192004
-4.783780 -5.025402 -1.188570
-4.786674 -5.009119 -1.182811
-4.791159 -4.993932 -1.177801
-4.794532 -4.978265 -1.172364
-4.799179 -4.963510 -1.167537
-4.799660 -4.946594 -1.160989
-4.788239 -4.923299 -1.149471
-4.781864 -4.903189 -1.140228
-4.800504 -4.897049 -1.141608
-4.811145 -4.886666 -1.139654
-4.824351 -4.877823 -1.138815
-4.816846 -4.858224 -1.129467
-4.869454 -4.870367 -1.144937
-2.005101 -6.117539 -1.113550
-2.017403 -6.101007 -1.108968
-2.029453 -6.099241 -1.110478
-2.041638 -6.100407 -1.113214
-2.053983 -6.104839 -1.117322
-2.066665 -6.093334 -1.114817
-2.079391 -6.087739 -1.114769
-2.092212 -6.079704 -1.113701
-2.105120 -6.074238 -1.113705
-2.118192 -6.075883 -1.116692
-2.131473 -6.081733 -1.121456
-2.144781 -6.081150 -1.123529
-2.158222 -6.082088 -1.126251
-2.172699 -6.112166 -1.141306
-2.196263 -6.375619 -1.255344
-2.210200 -6.346754 -1.245686
-2.225500 -6.351403 -1.250247
-2.241983 -6.376516 -1.263551
-2.260806 -6.436674 -1.291884
-2.276339 -6.434154 -1.293483
-2.291057 -6.419589 -1.289914
-2.307192 -6.425951 -1.295324
-2.322638 -6.422438 -1.296494
-2.338765 -6.427233 -1.301251
-2.355158 -6.434289 -1.307000
-2.372276 -6.448113 -1.315702
-2.387018 -6.436577 -1.313413
-2.401904 -6.427521 -1.312190
-2.417169 -6.422706 -1.312806
-2.434274 -6.434250 -1.320573
-2.448854 -6.423859 -1.318755
-2.464314 -6.421303 -1.320365
-2.476873 -6.396850 -1.312341
-2.493020 -6.400548 -1.316692
-2.508597 -6.399948 -1.319158
-2.523960 -6.397912 -1.320993
-2.531067 -6.341794 -1.298839
-2.551716 -6.375350 -1.316456
-2.569832 -6.391156 -1.326236
-2.586571 -6.397748 -1.331939
-2.600989 -6.390501 -1.331472
-2.610670 -6.357109 -1.319279
-2.641420 -6.355958 -1.324280
-2.649212 -6.316322 -1.309172
-2.661749 -6.302478 -1.305658
-2.680259 -6.318398 -1.315611
-2.697284 -6.326378 -1.322001
-2.713186 -6.328658 -1.325823
-2.728931 -6.330023 -1.329244
-2.742312 -6.320765 -1.327824
-2.756721 -6.316269 -1.328578
-2.773989 -6.323925 -1.334911
-2.791259 -6.331134 -1.341064
-2.801299 -6.308701 -1.333585
-2.813039 -6.293811 -1.329558
-2.827438 -6.289701 -1.330502
-2.834422 -6.257506 -1.318426
-2.852518 -6.267755 -1.326024
-2.872436 -6.284093 -1.336492
-2.889066 -6.287908 -1.341160
-2.907172 -6.296596 -1.348130
-2.926645 -6.309506 -1.357110
-2.945476 -6.319612 -1.364813
-2.958752 -6.310788 -1.363638
-2.975232 -6.312537 -1.367449
-2.986506 -6.297418 -1.363300
-3.000783 -6.292091 -1.363777
-3.009349 -6.269145 -1.355888
-3.034752 -6.249719 -1.352638
-3.068210 -6.208442 -1.341895
-3.090560 -6.226501 -1.353603
-3.116442 -6.166548 -1.333747
-3.083134 -6.037313 -1.274000
-3.075547 -5.978307 -1.248177
-3.085966 -5.966754 -1.245396
-3.096816 -5.956459 -1.243220
-3.112945 -5.959353 -1.247503
-3.130196 -5.964729 -1.253028
-3.143857 -5.961156 -1.254174
-3.157154 -5.956650 -1.254867
-3.172232 -5.956262 -1.257604
-3.187987 -5.957273 -1.261050
-3.199949 -5.949468 -1.260133
-3.210183 -5.937836 -1.257307
-3.224293 -5.934912 -1.258821
-3.244060 -5.944231 -1.266474
-3.258112 -5.940837 -1.267787
-3.278735 -5.951310 -1.276086
-3.292873 -5.947749 -1.277350
-3.304097 -5.938085 -1.275539
-3.318845 -5.935689 -1.277404
-3.334168 -5.934344 -1.279816
-3.351884 -5.937619 -1.284596
-3.365291 -5.932178 -1.284953
-3.375989 -5.921445 -1.282607
-3.390917 -5.918913 -1.284460
-3.411936 -5.927796 -1.292195
-3.432467 -5.935376 -1.299300
-3.444939 -5.927725 -1.298574
-3.459377 -5.923673 -1.299711
-3.470586 -5.913731 -1.297798
-3.488113 -5.915102 -1.301771
-3.503848 -5.913117 -1.304015
-3.517867 -5.908029 -1.304650
-3.536152 -5.910215 -1.309109
-3.554670 -5.912576 -1.313686
-3.575498 -5.918589 -1.320217
-3.586187 -5.907477 -1.317731
-3.598547 -5.899189 -1.316734
-3.609683 -5.888934 -1.314689
-3.632860 -5.898040 -1.322955
-3.654246 -5.903933 -1.329552
-3.671136 -5.902480 -1.332253
-3.683343 -5.893635 -1.331003
-3.694754 -5.883596 -1.329108
-3.708876 -5.877718 -1.329454
-3.731307 -5.884247 -1.336523
-3.749297 -5.883882 -1.339893
-3.767163 -5.883175 -1.343100
-3.781656 -5.877420 -1.343575
-3.797860 -5.874074 -1.345376
-3.820462 -5.879705 -1.352118
-3.836439 -5.875745 -1.353626
-3.848316 -5.866005 -1.351959
-3.871779 -5.872216 -1.359113
-3.891902 -5.873581 -1.363625
-3.906000 -5.866643 -1.363550
-3.920665 -5.860430 -1.363885
-3.935453 -5.854333 -1.364295
-3.944670 -5.840930 -1.360616
-3.978940 -5.834636 -1.364788
-4.007798 -5.846125 -1.375185
-4.023078 -5.840231 -1.375786
-4.038195 -5.834077 -1.376252
-4.055828 -5.830947 -1.378455
-4.075713 -5.830431 -1.382176
-4.099127 -5.833973 -1.388258
-4.121067 -5.835510 -1.393232
-4.139649 -5.832884 -1.395841
-4.153430 -5.824537 -1.395164
-4.170219 -5.819634 -1.396494
-4.190413 -5.818521 -1.400052
-4.207260 -5.813460 -1.401337
-4.230942 -5.815946 -1.407064
-4.246828 -5.809562 -1.407626
-4.269160 -5.810167 -1.412326
-4.283586 -5.801989 -1.411873
-4.294445 -5.789942 -1.409136
-4.311100 -5.784093 -1.410086
-4.347981 -5.799437 -1.423715
-4.376852 -5.805925 -1.432141
-4.397254 -5.803339 -1.435184
-4.400431 -5.782996 -1.427556
-4.426692 -5.786181 -1.434132
-4.445854 -5.781980 -1.436285
-4.460026 -5.772691 -1.435375
-4.497163 -5.785904 -1.448227
-4.508080 -5.749906 -1.435856
-4.509942 -5.728664 -1.427639
-4.531332 -5.726028 -1.430913
-4.557881 -5.728028 -1.437114
-4.579157 -5.724870 -1.440167
-4.581956 -5.704615 -1.432564
-4.584012 -5.683837 -1.424608
-4.608296 -5.683173 -1.429300
-4.582966 -5.638181 -1.406010
-4.567083 -5.602140 -1.388262
-4.573989 -5.586413 -1.383358
-4.578366 -5.568563 -1.377090
-4.581705 -5.549926 -1.370300
-4.573791 -5.521890 -1.357432
-4.565802 -5.494092 -1.344651
-4.560295 -5.468646 -1.333332
-4.557551 -5.445714 -1.323597
-4.557640 -5.425279 -1.315453
-4.548005 -5.397179 -1.302241
-4.546636 -5.375954 -1.293495
-4.546333 -5.355731 -1.285378
-4.550766 -5.339338 -1.279778
-4.551631 -5.320261 -1.272374
-4.552381 -5.301209 -1.264964
-4.550559 -5.280334 -1.256300
-4.542194 -5.254725 -1.244394
-4.542841 -5.236034 -1.237126
-4.543953 -5.217795 -1.230142
-4.598867 -5.238613 -1.249920
-4.672894 -5.252713 -1.271080
-4.695113 -5.248730 -1.274196
-4.695437 -5.229348 -1.266625
-4.693224 -5.208344 -1.257884
-4.695185 -5.190331 -1.251208
-4.704891 -5.177616 -1.248260
-4.743638 -5.145657 -1.243908
-4.758167 -5.079370 -1.220949
-4.767044 -5.066283 -1.217687
-4.771248 -5.050407 -1.212335
-4.773785 -5.033652 -1.206280
-4.780779 -5.019698 -1.202264
-4.789747 -5.007009 -1.199155
-4.788482 -4.988469 -1.191570
-4.791603 -4.972685 -1.185988
-4.791975 -4.955531 -1.179273
-4.795416 -4.940338 -1.173966
-4.800476 -4.926256 -1.169424
-4.804780 -4.911965 -1.164623
-4.796020 -4.890805 -1.154340
-4.815548 -4.885231 -1.156153
-4.820538 -4.872005 -1.151860
-4.833645 -4.863298 -1.151040
-4.839300 -4.850890 -1.147166
-2.004533 -6.067554 -1.106569
-2.015462 -6.094926 -1.120233
-2.027396 -6.096985 -1.123359
-2.039563 -6.098257 -1.126171
-2.051996 -6.094472 -1.126871
-2.064595 -6.087945 -1.126420
-2.077263 -6.092999 -1.130857
-2.090121 -6.086640 -1.130484
-2.103004 -6.071141 -1.126235
-2.116096 -6.075572 -1.130433
-2.129451 -6.086003 -1.137198
-2.142849 -6.088353 -1.140543
-2.156440 -6.093255 -1.144989
-2.169955 -6.091316 -1.146520
-2.193596 -6.364990 -1.266331
-2.209215 -6.376934 -1.274081
-2.223945 -6.365821 -1.271922
-2.240523 -6.391341 -1.285567
-2.258881 -6.442473 -1.310345
-2.288939 -6.420819 -1.306351
-2.303779 -6.409062 -1.303927
-2.320044 -6.416827 -1.310005
-2.336450 -6.425070 -1.316310
-2.353743 -6.442187 -1.326524
-2.368659 -6.431914 -1.324750
-2.385376 -6.440826 -1.331403
-2.400252 -6.431128 -1.329873
-2.415084 -6.421919 -1.328549
-2.429440 -6.409382 -1.325740
-2.447717 -6.430561 -1.337870
-2.462727 -6.423893 -1.337668
-2.476373 -6.407312 -1.333045
-2.489066 -6.384991 -1.325838
-2.507619 -6.405839 -1.337903
-2.520643 -6.387417 -1.332415
-2.533588 -6.369730 -1.327231
-2.550538 -6.378725 -1.334030
-2.567796 -6.389000 -1.341431
-2.584941 -6.397930 -1.348253
-2.599287 -6.390063 -1.347494
-2.607565 -6.348533 -1.331453
-2.619976 -6.331890 -1.326660
-2.639883 -6.355860 -1.340353
-2.654030 -6.348742 -1.339905
-2.678277 -6.315609 -1.330333
-2.694684 -6.320584 -1.335415
-2.713428 -6.336092 -1.345368
-2.730313 -6.342316 -1.351077
-2.744320 -6.335390 -1.350729
-2.766829 -6.298870 -1.339502
-2.786393 -6.316011 -1.350328
-2.806899 -6.336096 -1.362573
-2.820062 -6.326118 -1.360820
-2.829264 -6.301064 -1.352000
-2.837897 -6.274740 -1.342545
-2.850235 -6.263121 -1.339968
-2.871220 -6.283356 -1.352398
-2.904655 -6.291131 -1.361943
-2.924793 -6.306347 -1.372124
-2.942567 -6.312852 -1.378209
-2.955990 -6.304528 -1.377255
-2.960577 -6.267560 -1.362618
-2.981813 -6.284998 -1.373960
-2.992744 -6.269268 -1.369444
-3.003211 -6.252480 -1.364400
-3.015692 -6.242204 -1.362474
-3.034365 -6.250588 -1.369555
-3.052384 -6.256600 -1.375520
-3.067055 -6.252573 -1.376644
-3.068635 -6.211295 -1.359665
-3.071991 -6.176127 -1.345590
-3.085402 -6.169559 -1.345422
-3.100353 -6.167190 -1.347311
-3.109803 -6.150043 -1.341961
-3.069753 -6.003221 -1.272823
-3.070245 -5.965531 -1.257159
-3.081906 -5.957263 -1.255960
-3.096754 -5.957069 -1.258755
-3.110541 -5.954090 -1.260185
-3.128591 -5.961421 -1.266753
-3.143069 -5.959791 -1.268885
-3.157713 -5.958427 -1.271164
-3.171913 -5.955893 -1.272871
-3.187297 -5.955986 -1.275908
-3.199859 -5.949496 -1.275648
-3.208425 -5.934059 -1.270878
-3.224634 -5.935760 -1.274754
-3.246137 -5.948787 -1.284392
-3.263324 -5.952011 -1.289099
-3.275305 -5.943925 -1.288072
-3.287112 -5.935514 -1.286877
-3.303531 -5.936687 -1.290584
-3.316564 -5.930746 -1.290663
-3.332399 -5.930430 -1.293639
-3.350471 -5.934402 -1.298843
-3.366630 -5.934344 -1.301993
-3.379625 -5.927977 -1.301894
-3.400021 -5.935773 -1.309154
-3.418846 -5.940233 -1.314716
-3.433243 -5.936137 -1.315844
-3.446945 -5.930688 -1.316272
-3.459551 -5.923201 -1.315638
-3.476187 -5.922977 -1.318825
-3.493644 -5.924052 -1.322715
-3.507664 -5.918886 -1.323331
-3.520410 -5.911455 -1.322753
-3.535218 -5.907572 -1.324061
-3.554644 -5.911442 -1.329509
-3.570991 -5.909890 -1.332094
-3.589456 -5.911712 -1.336503
-3.602670 -5.904718 -1.336207
-3.614834 -5.896010 -1.334991
-3.634378 -5.899152 -1.340167
-3.653237 -5.900966 -1.344656
-3.670003 -5.899292 -1.347281
-3.684264 -5.893606 -1.347744
-3.698123 -5.887262 -1.347855
-3.712299 -5.881366 -1.348216
-3.722285 -5.869157 -1.345123
-3.751310 -5.885238 -1.357569
-3.768964 -5.884144 -1.360621
-3.780095 -5.873450 -1.358390
-3.797263 -5.871469 -1.360981
-3.818907 -5.875704 -1.367045
-3.831527 -5.867022 -1.365951
-3.850328 -5.866927 -1.369656
-3.870021 -5.867885 -1.373976
-3.891187 -5.870650 -1.379343
-3.905908 -5.864522 -1.379737
-3.915622 -5.851690 -1.376352
-3.956651 -5.829061 -1.375167
-3.984012 -5.838925 -1.384729
-4.004889 -5.840226 -1.389448
-4.021269 -5.835708 -1.390858
-4.036391 -5.829547 -1.391339
-4.053172 -5.825361 -1.392973
-4.074170 -5.826183 -1.397529
-4.097364 -5.829439 -1.403537
-4.125132 -5.837865 -1.412607
-4.143411 -5.834795 -1.415017
-4.160060 -5.829705 -1.416267
-4.176605 -5.824406 -1.417414
-4.195118 -5.821266 -1.419853
-4.217487 -5.822341 -1.424816
-4.234122 -5.816801 -1.425893
-4.262292 -5.823919 -1.434531
-4.279615 -5.818832 -1.435944
-4.308715 -5.826399 -1.444963
-4.321951 -5.816603 -1.443616
-4.360818 -5.810000 -1.448803
-4.393130 -5.796069 -1.449661
-4.436890 -5.817147 -1.467255
-4.416028 -5.772327 -1.444590
-4.436120 -5.769123 -1.447387
-4.470430 -5.779838 -1.458813
-4.487135 -5.772858 -1.459380
-4.490155 -5.752507 -1.451667
-4.492300 -5.731486 -1.443506
-4.520012 -5.734973 -1.450642
-4.548292 -5.738691 -1.457995
-4.571681 -5.737537 -1.462356
-4.586899 -5.728617 -1.461865
-4.575478 -5.695273 -1.445904
-4.570158 -5.667863 -1.433634
-4.586069 -5.659776 -1.433648
-4.580672 -5.632691 -1.421509
-4.559887 -5.592375 -1.400795
-4.565276 -5.575371 -1.395015
-4.576182 -5.563200 -1.392358
-4.578881 -5.544021 -1.385150
-4.571198 -5.516204 -1.372276
-4.559912 -5.485675 -1.357556
-4.559846 -5.464775 -1.349095
-4.555623 -5.440628 -1.338456
-4.553050 -5.418043 -1.328803
-4.541823 -5.388708 -1.314610
-4.541140 -5.368070 -1.306157
-4.543641 -5.350085 -1.299453
-4.546482 -5.332461 -1.292975
-4.547865 -5.313804 -1.285780
-4.548610 -5.294771 -1.278306
-4.545695 -5.273096 -1.269002
-4.543977 -5.252485 -1.260387
-4.542961 -5.232544 -1.252197
-4.560570 -5.226342 -1.253486
-4.646608 -5.269433 -1.289115
-4.662352 -5.261071 -1.289157
-4.690253 -5.261193 -1.295197
-4.686549 -5.238901 -1.285527
-4.677755 -5.213264 -1.273437
-4.681683 -5.196596 -1.267658
-4.706039 -5.193830 -1.271809
-4.712103 -5.178576 -1.267062
-4.732334 -5.134395 -1.253907
-4.731050 -5.114603 -1.245784
-4.755806 -5.073957 -1.235021
-4.760725 -5.058454 -1.229935
-4.764017 -5.042069 -1.224143
-4.770263 -5.027591 -1.219741
-4.779397 -5.014928 -1.216676
-4.783854 -4.999605 -1.211537
-4.787506 -4.983967 -1.206090
-4.781939 -4.963224 -1.196616
-4.779648 -4.944642 -1.188695
-4.795562 -4.936526 -1.188841
-4.807532 -4.926284 -1.187275
-4.803429 -4.907363 -1.178781
-4.796510 -4.887245 -1.169187
-4.800394 -4.873288 -1.164347
-4.822096 -4.869026 -1.167174
-4.834567 -4.859988 -1.166091
-4.852159 -4.853788 -1.167212
-2.002059 -6.080167 -1.125542
-2.013400 -6.093283 -1.133358
-2.025237 -6.098843 -1.138006
-2.037344 -6.103399 -1.142249
-2.049833 -6.097022 -1.141856
-2.062389 -6.096910 -1.144135
-2.075124 -6.094615 -1.145490
-2.087994 -6.089564 -1.145669
-2.100979 -6.087105 -1.146959
-2.114063 -6.083508 -1.147764
-2.127347 -6.087025 -1.151634
-2.140705 -6.086894 -1.153941
-2.154068 -6.083001 -1.154627
-2.167525 -6.080479 -1.155905
-2.191465 -6.369776 -1.283957
-2.207053 -6.380220 -1.291142
-2.222745 -6.389106 -1.297672
-2.239760 -6.420835 -1.314208
-2.272184 -6.439769 -1.327925
-2.286580 -6.418968 -1.321504
-2.301857 -6.412970 -1.321575
-2.317850 -6.416716 -1.325944
-2.334093 -6.422770 -1.331346
-2.348115 -6.402637 -1.325152
-2.365172 -6.417228 -1.334357
-2.381789 -6.425691 -1.340866
-2.398220 -6.431438 -1.346184
-2.413603 -6.426947 -1.346942
-2.428661 -6.420004 -1.346600
-2.443751 -6.413910 -1.346633
-2.459985 -6.417495 -1.351016
-2.472280 -6.390471 -1.341614
-2.486603 -6.380533 -1.339889
-2.502888 -6.385290 -1.344804
-2.518046 -6.381958 -1.346067
-2.531637 -6.368475 -1.342719
-2.549565 -6.383604 -1.352385
-2.566661 -6.392569 -1.359276
-2.582799 -6.395199 -1.363296
-2.599296 -6.399705 -1.368190
-2.613365 -6.390214 -1.366675
-2.625445 -6.370337 -1.360371
-2.653467 -6.353631 -1.358332
-2.665279 -6.334771 -1.352438
-2.679514 -6.328682 -1.352447
-2.691923 -6.314100 -1.348504
-2.702290 -6.290630 -1.340403
-2.724020 -6.319856 -1.356878
-2.745574 -6.278964 -1.343443
-2.762894 -6.287463 -1.350288
-2.782517 -6.305012 -1.361425
-2.805033 -6.333393 -1.377724
-2.819989 -6.330450 -1.379275
-2.828336 -6.301827 -1.368662
-2.839491 -6.284926 -1.363572
-2.849794 -6.265393 -1.357208
-2.866726 -6.270704 -1.362672
-2.885488 -6.282207 -1.371122
-2.901118 -6.282122 -1.374057
-2.916199 -6.279996 -1.376027
-2.934798 -6.289682 -1.383693
-2.949183 -6.284869 -1.384400
-2.958592 -6.263840 -1.377274
-2.986313 -6.251506 -1.377366
-3.000223 -6.245560 -1.377523
-3.032308 -6.246499 -1.384119
-3.050271 -6.252330 -1.390070
-3.055107 -6.219857 -1.377243
-3.066123 -6.205828 -1.373438
-3.060257 -6.144841 -1.346459
-3.093517 -6.107802 -1.337261
-3.080751 -6.033182 -1.303179
-3.068465 -5.961881 -1.270599
-3.080217 -5.953823 -1.269493
-3.094609 -5.952463 -1.271742
-3.110279 -5.954141 -1.275531
-3.123565 -5.949785 -1.276302
-3.143963 -5.962480 -1.285685
-3.156518 -5.956058 -1.285445
-3.170742 -5.953545 -1.287189
-3.188196 -5.958372 -1.292675
-3.202721 -5.956241 -1.294646
-3.214040 -5.946810 -1.292901
-3.226593 -5.940189 -1.292590
-3.245691 -5.947847 -1.299607
-3.260949 -5.946868 -1.302219
-3.272907 -5.938737 -1.301160
-3.285089 -5.931114 -1.300361
-3.299993 -5.929148 -1.302492
-3.315348 -5.927980 -1.305052
-3.329107 -5.923454 -1.305880
-3.347518 -5.928125 -1.311515
-3.365069 -5.930816 -1.316145
-3.379690 -5.927586 -1.317697
-3.390869 -5.917673 -1.315747
-3.416709 -5.935557 -1.328441
-3.415087 -5.901540 -1.313779
-3.442831 -5.922358 -1.328093
-3.458490 -5.920474 -1.330428
-3.475899 -5.921616 -1.334389
-3.493593 -5.923064 -1.338538
-3.508737 -5.919826 -1.340204
-3.521594 -5.912519 -1.339700
-3.535482 -5.906982 -1.340150
-3.549377 -5.901415 -1.340590
-3.566377 -5.901012 -1.343827
-3.583692 -5.900970 -1.347282
-3.601240 -5.901140 -1.350874
-3.617582 -5.899181 -1.353329
-3.632668 -5.895088 -1.354636
-3.650541 -5.895326 -1.358326
-3.667120 -5.893362 -1.360832
-3.685866 -5.894624 -1.365132
-3.701707 -5.891242 -1.366896
-3.713552 -5.881718 -1.365274
-3.729373 -5.878181 -1.366973
-3.744263 -5.873175 -1.367867
-3.754905 -5.861888 -1.365268
-3.777546 -5.868048 -1.372422
-3.792418 -5.862776 -1.373206
-3.805078 -5.854313 -1.372206
-3.826114 -5.857598 -1.377835
-3.847479 -5.861096 -1.383621
-3.868332 -5.863644 -1.388906
-3.886965 -5.862950 -1.392384
-3.902681 -5.858183 -1.393564
-3.918289 -5.827621 -1.383904
-3.963484 -5.835711 -1.396465
-3.985378 -5.838469 -1.402068
-4.008623 -5.842695 -1.408563
-4.022248 -5.834655 -1.407965
-4.035384 -5.825994 -1.407011
-4.052491 -5.822181 -1.408900
-4.076564 -5.826689 -1.415694
-4.101422 -5.831861 -1.422930
-4.124425 -5.834544 -1.428749
-4.143003 -5.831794 -1.431397
-4.166535 -5.834661 -1.437409
-4.205237 -5.830142 -1.443450
-4.220358 -5.822896 -1.443527
-4.237353 -5.817688 -1.444845
-4.264867 -5.823997 -1.453133
-4.290750 -5.828196 -1.460210
-4.317825 -5.833399 -1.467957
-4.331076 -5.823489 -1.466563
-4.354950 -5.824830 -1.472051
-4.355108 -5.801041 -1.462187
-4.359893 -5.782322 -1.455394
-4.381962 -5.781545 -1.459645
-4.426008 -5.802956 -1.477676
-4.422143 -5.775403 -1.465438
-4.438152 -5.768021 -1.465706
-4.462159 -5.768468 -1.470893
-4.485133 -5.767672 -1.475355
-4.489941 -5.749055 -1.468654
-4.491228 -5.727197 -1.459882
-4.513162 -5.725155 -1.463633
-4.547364 -5.734458 -1.474649
-4.564020 -5.726996 -1.475069
-4.580264 -5.719060 -1.475214
-4.578847 -5.694912 -1.464967
-4.570112 -5.664381 -1.450556
-4.561282 -5.634121 -1.436244
-4.571351 -5.620954 -1.432965
-4.564517 -5.592973 -1.420029
-4.559388 -5.566776 -1.408195
-4.569720 -5.554137 -1.405212
-4.572768 -5.535295 -1.398147
-4.565056 -5.507506 -1.385137
-4.557312 -5.479987 -1.372238
-4.560163 -5.461505 -1.365304
-4.563289 -5.443357 -1.358574
-4.554518 -5.415688 -1.345419
-4.548203 -5.390277 -1.333721
-4.547021 -5.369183 -1.324891
-4.548126 -5.350042 -1.317357
-4.547655 -5.329799 -1.309043
-4.546526 -5.309191 -1.300447
-4.547902 -5.290637 -1.293234
-4.544226 -5.268391 -1.283440
-4.542201 -5.247557 -1.274583
-4.543678 -5.229459 -1.267601
-4.552655 -5.216926 -1.264504
-4.628702 -5.252738 -1.295522
-4.660631 -5.256031 -1.303822
-4.680893 -5.250725 -1.306121
-4.694432 -5.240542 -1.304995
-4.653773 -5.192844 -1.276937
-4.726624 -5.184362 -1.289535
-4.742902 -5.118228 -1.266654
-4.734570 -5.094061 -1.255153
-4.755572 -5.069831 -1.250084
-4.755674 -5.051383 -1.242723
-4.762070 -5.036912 -1.238334
-4.765003 -5.020467 -1.232386
-4.772897 -5.007105 -1.228758
-4.778247 -4.992353 -1.224004
-4.783429 -4.977646 -1.219221
-4.766213 -4.950301 -1.204441
-4.775971 -4.938647 -1.201861
-4.789672 -4.929317 -1.201062
-4.807417 -4.922306 -1.202063
-4.808042 -4.905998 -1.195560
-4.800109 -4.885343 -1.185416
-4.799806 -4.869149 -1.178714
-4.814262 -4.861061 -1.178476
-4.831032 -4.854330 -1.179263
-4.855082 -4.851499 -1.183181
-1.999435 -6.096541 -1.146297
-2.011127 -6.098848 -1.149597
-2.022914 -6.107013 -1.155426
-2.035115 -6.107933 -1.158164
-2.047534 -6.107777 -1.160450
-2.060307 -6.089839 -1.155068
-2.072984 -6.091949 -1.158335
-2.085844 -6.092623 -1.160991
-2.098833 -6.087676 -1.161214
-2.111938 -6.085363 -1.162581
-2.125144 -6.082966 -1.163913
-2.138290 -6.072798 -1.161851
-2.151608 -6.069591 -1.162824
-2.165219 -6.074146 -1.167203
-2.188285 -6.345587 -1.288949
-2.204364 -6.371241 -1.302891
-2.220854 -6.398590 -1.317633
-2.233860 -6.350024 -1.298843
-2.252527 -6.411310 -1.328671
-2.268784 -6.421754 -1.336028
-2.300016 -6.418541 -1.340066
-2.315781 -6.418654 -1.342856
-2.330323 -6.403567 -1.338845
-2.345134 -6.393181 -1.336922
-2.361024 -6.395513 -1.340705
-2.377195 -6.400364 -1.345634
-2.394777 -6.418354 -1.356511
-2.412448 -6.435355 -1.366980
-2.427163 -6.424699 -1.364948
-2.440554 -6.403817 -1.358257
-2.454626 -6.390175 -1.354831
-2.468815 -6.378549 -1.352306
-2.484937 -6.382175 -1.356741
-2.501535 -6.388913 -1.362616
-2.514755 -6.371873 -1.357597
-2.529348 -6.365145 -1.357299
-2.547629 -6.382514 -1.368105
-2.564717 -6.391313 -1.374994
-2.599698 -6.411851 -1.390217
-2.616192 -6.415493 -1.394794
-2.627048 -6.387938 -1.384858
-2.634118 -6.341686 -1.366153
-2.663811 -6.334897 -1.368680
-2.676203 -6.319586 -1.364354
-2.690627 -6.314699 -1.364916
-2.695861 -6.267052 -1.345313
-2.723177 -6.322229 -1.374225
-2.733435 -6.298811 -1.366035
-2.742592 -6.271588 -1.356006
-2.759271 -6.277426 -1.361659
-2.782339 -6.309396 -1.379793
-2.800762 -6.320995 -1.388275
-2.813182 -6.308112 -1.385076
-2.840781 -6.294051 -1.384266
-2.846589 -6.257420 -1.369600
-2.861910 -6.256891 -1.372303
-2.881229 -6.270573 -1.381897
-2.899570 -6.280137 -1.389537
-2.917902 -6.289153 -1.396947
-2.930508 -6.278290 -1.394709
-2.941011 -6.260675 -1.389167
-2.952992 -6.248359 -1.386196
-2.970225 -6.253148 -1.391601
-2.983460 -6.245012 -1.390681
-2.998279 -6.241893 -1.392231
-3.012062 -6.235557 -1.392202
-3.029789 -6.241055 -1.398030
-3.050840 -6.255969 -1.408555
-3.060418 -6.237040 -1.402315
-3.050112 -6.161978 -1.368094
-3.057949 -6.139931 -1.360184
-3.068129 -6.124862 -1.355731
-3.101569 -6.173165 -1.383038
-3.091595 -6.103890 -1.351381
-3.080031 -6.032380 -1.318458
-3.069003 -5.964246 -1.287090
-3.078919 -5.951393 -1.283555
-3.094309 -5.952506 -1.287090
-3.111279 -5.957327 -1.292531
-3.128315 -5.962001 -1.297926
-3.142014 -5.958347 -1.299094
-3.155180 -5.953361 -1.299590
-3.168050 -5.947651 -1.299720
-3.185989 -5.953611 -1.305858
-3.204006 -5.959410 -1.311944
-3.215329 -5.949876 -1.310138
-3.228109 -5.943650 -1.310041
-3.243264 -5.942598 -1.312634
-3.258397 -5.941352 -1.315142
-3.271702 -5.936086 -1.315568
-3.286152 -5.933186 -1.317237
-3.301061 -5.931136 -1.319364
-3.313308 -5.923536 -1.318588
-3.329246 -5.923392 -1.321740
-3.347301 -5.927290 -1.327046
-3.363754 -5.927772 -1.330574
-3.377703 -5.923215 -1.331447
-3.390882 -5.917126 -1.331514
-3.395183 -5.894230 -1.322618
-3.424094 -5.917679 -1.338469
-3.439086 -5.914711 -1.340238
-3.455229 -5.913740 -1.343094
-3.473034 -5.915614 -1.347502
-3.488754 -5.913561 -1.349815
-3.503768 -5.910147 -1.351406
-3.519428 -5.907762 -1.353568
-3.533901 -5.903224 -1.354574
-3.548473 -5.898790 -1.355645
-3.563886 -5.895697 -1.357460
-3.581311 -5.895837 -1.361064
-3.599357 -5.896818 -1.365153
-3.617593 -5.897915 -1.369332
