ply
format ascii 1.0
comment ---
element vertex 1675
property float x
property float y
property float z
element face 0
property list uchar uint vertex_indices
end_header
0.066297 2.290925 -0.573622
0.080252 2.282032 -0.571576
0.094223 2.276938 -0.570398
0.108709 2.291067 -0.573528
0.123155 2.299769 -0.575468
0.135707 2.256526 -0.565839
0.152606 2.323745 -0.580875
0.165619 2.295832 -0.574708
0.178394 2.268153 -0.568612
0.192444 2.267150 -0.568488
0.207614 2.284177 -0.572411
0.221194 2.274623 -0.570421
0.234767 2.266015 -0.568663
0.248866 2.265165 -0.568657
0.263044 2.265157 -0.568861
0.276874 2.260847 -0.568124
0.288525 2.232609 -0.562056
0.303455 2.241505 -0.564312
0.318874 2.254236 -0.567448
0.332865 2.251928 -0.567240
0.347000 2.250916 -0.567342
0.360624 2.245296 -0.566430
0.374851 2.244993 -0.566730
0.388959 2.243547 -0.566791
0.403410 2.244685 -0.567451
0.416599 2.236077 -0.565940
0.430428 2.232514 -0.565578
0.443668 2.224886 -0.564317
0.459692 2.236412 -0.567381
0.474903 2.241713 -0.569061
0.488314 2.235103 -0.568071
0.499510 2.215096 -0.564069
0.513137 2.210641 -0.563582
0.528640 2.217191 -0.565590
0.543480 2.219511 -0.566651
0.557398 2.216528 -0.566519
0.569890 2.205975 -0.564675
0.581865 2.193175 -0.562319
0.597381 2.198931 -0.564169
0.614989 2.214710 -0.568294
0.630498 2.219531 -0.569929
0.643805 2.213695 -0.569133
0.654842 2.197632 -0.565996
0.673546 2.216896 -0.570886
0.689790 2.224480 -0.573102
0.703564 2.221105 -0.572799
0.715100 2.208467 -0.570355
0.729843 2.209717 -0.571051
0.745641 2.215306 -0.572707
0.761880 2.222551 -0.574707
0.771948 2.205563 -0.571123
0.787602 2.210790 -0.572577
0.797245 2.193392 -0.568803
0.804805 2.169124 -0.563403
0.814343 2.153121 -0.559838
0.847884 2.223593 -0.576021
0.859051 2.213445 -0.573676
0.879156 2.234778 -0.578475
0.892673 2.233356 -0.577992
0.899985 2.211557 -0.572774
0.910533 2.201426 -0.570154
0.920728 2.190811 -0.567348
0.934740 2.193078 -0.567412
0.953202 2.209679 -0.570667
0.969124 2.218318 -0.572018
0.979450 2.209975 -0.569413
0.985919 2.190602 -0.564219
0.995787 2.182290 -0.561467
1.009848 2.186969 -0.561586
1.022703 2.188443 -0.560893
1.039253 2.200934 -0.562610
1.051839 2.202291 -0.561722
1.055386 2.178651 -0.555118
1.061587 2.163341 -0.550331
1.069986 2.154824 -0.547007
1.090062 2.178649 -0.550860
-2.154886 2.571257 -0.816477
-2.119149 2.544594 -0.808763
-2.084126 2.576408 -0.815928
-2.015860 2.558383 -0.808192
-1.981610 2.565233 -0.807690
-1.914898 2.551212 -0.799473
-1.897258 2.554446 -0.798720
-1.878050 2.555132 -0.797181
-1.705416 2.846901 -0.839192
-1.695933 2.870908 -0.842940
-1.670967 2.862525 -0.838196
-1.639620 2.840062 -0.829804
-1.621835 2.846323 -0.828924
-1.615210 2.877115 -0.834409
-1.599270 2.887738 -0.834656
-1.565657 2.858533 -0.824641
-1.540029 2.846621 -0.819136
-1.514110 2.833515 -0.813365
-1.490483 2.825228 -0.808872
-1.475338 2.836692 -0.809457
-1.452409 2.829474 -0.805302
-1.431094 2.825789 -0.802083
-1.418378 2.843091 -0.804214
-1.393565 2.830263 -0.798745
-1.371392 2.823575 -0.794871
-1.350304 2.819283 -0.791641
-1.308390 2.810348 -0.785208
-1.281525 2.789420 -0.777941
-1.261673 2.786847 -0.775303
-1.244218 2.790638 -0.774284
-1.225630 2.791132 -0.772475
-1.208582 2.795830 -0.771741
-1.193475 2.806102 -0.772410
-1.174770 2.805860 -0.770513
-1.149592 2.785987 -0.763822
-1.123231 2.761669 -0.756094
-1.097427 2.738078 -0.748600
-1.062782 2.685703 -0.734127
-0.980516 2.479118 -0.682125
-0.956538 2.454910 -0.674741
-0.936617 2.443106 -0.670421
-0.916765 2.430943 -0.666052
-0.900347 2.429926 -0.664419
-0.884606 2.431052 -0.663332
-0.869958 2.435918 -0.663173
-0.852297 2.429904 -0.660415
-0.837152 2.432748 -0.659818
-0.819882 2.427561 -0.657316
-0.799221 2.409056 -0.651652
-0.781070 2.399433 -0.648152
-0.766451 2.403279 -0.647900
-0.752387 2.409360 -0.648202
-0.736966 2.409919 -0.647208
-0.720364 2.405350 -0.645017
-0.705218 2.406701 -0.644258
-0.689773 2.406630 -0.643183
-0.676920 2.418055 -0.644852
-0.663970 2.429390 -0.646513
-0.648840 2.430826 -0.645852
-0.631018 2.419199 -0.642131
-0.614973 2.415622 -0.640334
-0.599041 2.412283 -0.638616
-0.584040 2.413446 -0.637978
-0.565424 2.395294 -0.632826
-0.550409 2.395680 -0.632050
-0.532586 2.380195 -0.627578
-0.516621 2.374404 -0.625400
-0.502427 2.378612 -0.625580
-0.487060 2.375771 -0.624132
-0.473003 2.380834 -0.624546
-0.457321 2.375544 -0.622566
-0.443477 2.382046 -0.623350
-0.429767 2.389751 -0.624429
-0.414943 2.389884 -0.623765
-0.399847 2.387869 -0.622620
-0.385145 2.388574 -0.622126
-0.368431 2.373205 -0.617927
-0.352965 2.366790 -0.615824
-0.338919 2.371911 -0.616407
-0.324631 2.375143 -0.616570
-0.309827 2.373704 -0.615672
-0.294576 2.367615 -0.613719
-0.279074 2.358218 -0.611025
-0.264251 2.355047 -0.609785
-0.250954 2.368719 -0.612438
-0.236490 2.369803 -0.612211
-0.221630 2.365834 -0.610841
-0.206515 2.357795 -0.608554
-0.191557 2.350805 -0.606529
-0.176406 2.339666 -0.603572
-0.161834 2.336326 -0.602423
-0.147323 2.333409 -0.601391
-0.131636 2.306559 -0.594896
-0.116814 2.292982 -0.591464
-0.103792 2.319897 -0.597316
-0.090013 2.332859 -0.599990
-0.075651 2.331267 -0.599354
-0.061503 2.336915 -0.600391
-0.046586 2.310709 -0.594169
-0.032304 2.306306 -0.592949
-0.018051 2.301089 -0.591564
-0.003864 2.298057 -0.590696
0.010258 2.305132 -0.592154
0.024452 2.313880 -0.594013
0.038710 2.318748 -0.595006
0.052987 2.320578 -0.595325
0.067182 2.315364 -0.594058
0.081029 2.294558 -0.589256
0.095176 2.293776 -0.589041
0.109517 2.299628 -0.590358
0.123758 2.300619 -0.590588
0.138903 2.324615 -0.596085
0.152626 2.310122 -0.592825
0.165661 2.283836 -0.586897
0.180540 2.297113 -0.590012
0.193630 2.276699 -0.585464
0.207868 2.277682 -0.585817
0.221140 2.263793 -0.582797
0.234021 2.246037 -0.578915
0.248484 2.251019 -0.580243
0.263632 2.263657 -0.583341
0.278305 2.269112 -0.584822
0.292174 2.264883 -0.584110
0.307259 2.273619 -0.586384
0.322482 2.282684 -0.588755
0.335292 2.267672 -0.585637
0.348582 2.258141 -0.583792
0.362984 2.258917 -0.584325
0.375783 2.245981 -0.581735
0.390234 2.247169 -0.582399
0.404109 2.243604 -0.581992
0.418991 2.247642 -0.583346
0.431969 2.237465 -0.581452
0.447242 2.243809 -0.583370
0.460570 2.236445 -0.582150
0.473766 2.228518 -0.580812
0.488536 2.230897 -0.581859
0.503930 2.236817 -0.583734
0.515793 2.221199 -0.580650
0.530110 2.220561 -0.581029
0.545001 2.223077 -0.582143
0.560648 2.229493 -0.584164
0.574042 2.223459 -0.583308
0.584665 2.203233 -0.579160
0.599201 2.203809 -0.579827
0.617444 2.222647 -0.584727
0.632369 2.224529 -0.585687
0.647109 2.225429 -0.586410
0.659892 2.217270 -0.585011
0.672854 2.210296 -0.583869
0.690136 2.222717 -0.587220
0.705008 2.224262 -0.588017
0.713725 2.199805 -0.582722
0.727398 2.196960 -0.582433
0.744602 2.208682 -0.585507
0.759719 2.211778 -0.586531
0.772667 2.206450 -0.585544
0.784325 2.196560 -0.583442
0.799750 2.201398 -0.584732
0.805623 2.171001 -0.577730
0.821579 2.178506 -0.579531
0.839678 2.193669 -0.583061
0.858930 2.212649 -0.587418
0.876488 2.225468 -0.590266
0.883689 2.203011 -0.584798
0.894792 2.194635 -0.582550
0.907533 2.192264 -0.581629
0.916758 2.178911 -0.578069
0.927646 2.171640 -0.575853
0.945726 2.187627 -0.578976
0.963065 2.201264 -0.581464
0.977262 2.205299 -0.581631
0.984950 2.189937 -0.577210
0.991997 2.173470 -0.572460
1.006733 2.180521 -0.573082
1.023921 2.194963 -0.575325
1.038928 2.203202 -0.576044
1.056977 2.220329 -0.578722
1.069141 2.220936 -0.577510
1.046082 2.123980 -0.553850
-2.181377 2.560186 -0.829964
-2.132710 2.567985 -0.831861
-2.057285 2.565775 -0.829102
-1.992305 2.552591 -0.822539
-1.988477 2.577695 -0.828418
-1.922050 2.531386 -0.812764
-1.866245 2.535047 -0.809091
-1.708633 2.852057 -0.860084
-1.714505 2.908229 -0.872556
-1.677757 2.875327 -0.861188
-1.647649 2.855680 -0.853401
-1.621737 2.844472 -0.847893
-1.607332 2.858114 -0.848990
-1.586862 2.858405 -0.846560
-1.566992 2.859859 -0.844455
-1.544168 2.854401 -0.840554
-1.503999 2.855280 -0.835929
-1.476531 2.837861 -0.829001
-1.453776 2.831120 -0.824899
-1.435422 2.834729 -0.823519
-1.413223 2.828701 -0.819672
-1.395141 2.832623 -0.818431
-1.368627 2.814966 -0.811664
-1.343761 2.800844 -0.805859
-1.327215 2.807892 -0.805525
-1.304298 2.797998 -0.800887
-1.282515 2.790651 -0.796944
-1.262232 2.786971 -0.793975
-1.245578 2.793043 -0.793519
-1.226825 2.793166 -0.791583
-1.209895 2.798290 -0.790945
-1.194399 2.807523 -0.791371
-1.175321 2.806263 -0.789180
-1.151675 2.791059 -0.783522
-1.122800 2.759235 -0.773749
-1.095026 2.729577 -0.764583
-1.056195 2.663976 -0.746507
-0.976202 2.464420 -0.695157
-0.954702 2.448081 -0.689581
-0.934735 2.436068 -0.685122
-0.915607 2.426278 -0.681252
-0.900728 2.430502 -0.680884
-0.883380 2.426099 -0.678410
-0.866739 2.423866 -0.676501
-0.852386 2.429633 -0.676589
-0.837039 2.431784 -0.675810
-0.817891 2.419601 -0.671541
-0.800207 2.412370 -0.668519
-0.783243 2.407486 -0.666101
-0.768944 2.412819 -0.666204
-0.753026 2.411644 -0.664743
-0.737462 2.411712 -0.663608
-0.721139 2.408417 -0.661680
-0.703124 2.397525 -0.657936
-0.687561 2.396792 -0.656682
-0.675288 2.410669 -0.658984
-0.662899 2.424475 -0.661282
-0.648086 2.427352 -0.660957
-0.633418 2.430897 -0.660814
-0.598190 2.408242 -0.653438
-0.580734 2.396637 -0.649725
-0.565794 2.397653 -0.649065
-0.549143 2.389235 -0.646166
-0.531713 2.375837 -0.642101
-0.516197 2.372571 -0.640483
-0.502468 2.379549 -0.641330
-0.488354 2.384435 -0.641695
-0.474015 2.388059 -0.641776
-0.458764 2.385846 -0.640487
-0.444545 2.390238 -0.640787
-0.428890 2.384862 -0.638785
-0.414137 2.385406 -0.638208
-0.398132 2.376595 -0.635434
-0.381411 2.361505 -0.631196
-0.367160 2.364764 -0.631322
-0.353311 2.371451 -0.632275
-0.338404 2.369443 -0.631191
-0.323094 2.363514 -0.629201
-0.309111 2.369333 -0.630000
-0.295372 2.377933 -0.631471
-0.280702 2.377668 -0.630870
-0.265185 2.368114 -0.628104
-0.249825 2.359168 -0.625502
-0.236317 2.371310 -0.627873
-0.220919 2.360728 -0.624926
-0.206179 2.357574 -0.623742
-0.191498 2.354700 -0.622643
-0.176141 2.340802 -0.618981
-0.161571 2.337760 -0.617883
-0.147968 2.351606 -0.620757
-0.133835 2.357419 -0.621767
-0.117721 2.321020 -0.612924
-0.104002 2.334515 -0.615768
-0.089661 2.334282 -0.615422
-0.075146 2.328446 -0.613787
-0.060181 2.303833 -0.607788
-0.046482 2.325564 -0.612628
-0.032130 2.321785 -0.611532
-0.017775 2.315167 -0.609794
-0.003570 2.319266 -0.610576
0.010690 2.319520 -0.610480
0.024946 2.309532 -0.608018
0.039161 2.308103 -0.607570
0.053421 2.311785 -0.608334
0.067753 2.317501 -0.609592
0.081603 2.295855 -0.604496
0.095730 2.293470 -0.603908
0.110078 2.299111 -0.605211
0.124643 2.309294 -0.607592
0.138687 2.303239 -0.606212
0.153237 2.309889 -0.607813
0.166761 2.293636 -0.604098
0.179793 2.270698 -0.598846
0.194394 2.278579 -0.600797
0.208653 2.279500 -0.601148
0.222426 2.272808 -0.599745
0.235096 2.251371 -0.594922
0.249541 2.255581 -0.596102
0.264766 2.268677 -0.599378
0.279613 2.275697 -0.601259
0.293436 2.270471 -0.600300
0.307967 2.272958 -0.601164
0.323082 2.280810 -0.603303
0.336005 2.266872 -0.600369
0.349839 2.262230 -0.599625
0.365125 2.270439 -0.601909
0.379814 2.272788 -0.602841
0.390347 2.241314 -0.595865
0.405110 2.244763 -0.597087
0.418513 2.237635 -0.595846
0.436675 2.265116 -0.602744
0.450702 2.261784 -0.602426
0.461669 2.237896 -0.597288
0.474193 2.225516 -0.594863
0.488921 2.227685 -0.595870
0.504275 2.233432 -0.597731
0.519612 2.238608 -0.599467
0.531555 2.223750 -0.596485
0.548412 2.237241 -0.600196
0.564293 2.244575 -0.602460
0.578179 2.240812 -0.602101
0.591814 2.235872 -0.601462
0.604598 2.226815 -0.599840
0.618511 2.223746 -0.599627
0.634088 2.228824 -0.601335
0.647334 2.222686 -0.600370
0.661656 2.221797 -0.600632
0.674041 2.212259 -0.598818
0.695257 2.242095 -0.606343
0.707750 2.233116 -0.604612
0.715391 2.204119 -0.598081
0.728997 2.201087 -0.597695
0.745808 2.211311 -0.600428
0.761677 2.217546 -0.602170
0.772534 2.204162 -0.599188
0.786000 2.201465 -0.598704
0.795800 2.185298 -0.594953
0.812467 2.195302 -0.597389
0.825198 2.190931 -0.596334
0.839638 2.193080 -0.596771
0.857346 2.206916 -0.599929
0.879597 2.236297 -0.606721
0.885943 2.211037 -0.600413
0.895929 2.199084 -0.597204
0.905781 2.187402 -0.593986
0.915402 2.175686 -0.590686
0.930861 2.183362 -0.591919
0.937765 2.164225 -0.586701
0.962701 2.202106 -0.594935
0.974663 2.199550 -0.593487
0.978219 2.172008 -0.586046
0.980942 2.143095 -0.578217
1.001291 2.167372 -0.582873
1.037292 2.201877 -0.588585
1.058691 2.228830 -0.593573
1.085680 2.271342 -0.602101
1.044284 2.122853 -0.565891
1.046993 2.099524 -0.558933
-2.064366 2.579069 -0.849747
-2.039606 2.569517 -0.846250
-1.992013 2.523156 -0.832084
-2.003286 2.571974 -0.845093
-1.979313 2.563958 -0.841698
-1.947251 2.542527 -0.834366
-1.874919 2.517315 -0.822977
-1.847933 2.503840 -0.817567
-1.705137 2.843361 -0.877257
-1.700025 2.876389 -0.883722
-1.650105 2.859338 -0.873949
-1.596808 2.833310 -0.861830
-1.580714 2.843029 -0.861942
-1.567065 2.858323 -0.863556
-1.549903 2.865798 -0.863071
-1.531759 2.870996 -0.861989
-1.479258 2.842649 -0.849570
-1.453861 2.829639 -0.843738
-1.436027 2.834533 -0.842689
-1.419233 2.841923 -0.842322
-1.400529 2.844507 -0.840710
-1.367967 2.811675 -0.829821
-1.347068 2.807799 -0.826594
-1.310179 2.812091 -0.823395
-1.285313 2.796700 -0.817276
-1.267874 2.800944 -0.816308
-1.250654 2.805706 -0.815503
-1.232351 2.807341 -0.813917
-1.210937 2.799915 -0.810026
-1.190712 2.795496 -0.806950
-1.169508 2.787840 -0.803082
-1.148938 2.781625 -0.799625
-1.126954 2.770698 -0.795001
-1.098644 2.739639 -0.785282
-1.076683 2.727317 -0.780401
-0.977844 2.468704 -0.712926
-0.956483 2.452952 -0.707381
-0.936464 2.440913 -0.702821
-0.917046 2.430290 -0.698659
-0.902148 2.434579 -0.698299
-0.883235 2.424858 -0.694433
-0.867381 2.425449 -0.693196
-0.853312 2.432326 -0.693565
-0.836549 2.429383 -0.691492
-0.817738 2.418478 -0.687456
-0.800979 2.414812 -0.685263
-0.784957 2.413703 -0.683736
-0.770224 2.417493 -0.683456
-0.753359 2.412635 -0.681046
-0.737832 2.412939 -0.679947
-0.721353 2.409070 -0.677837
-0.705628 2.408118 -0.676476
-0.687618 2.396904 -0.672601
-0.676064 2.414076 -0.675766
-0.662471 2.422482 -0.676781
-0.636362 2.445174 -0.680308
-0.578030 2.382913 -0.662118
-0.564243 2.389768 -0.662878
-0.550359 2.396302 -0.663577
-0.534653 2.392822 -0.661848
-0.516513 2.374974 -0.656638
-0.504624 2.392990 -0.660194
-0.491282 2.403056 -0.661825
-0.475673 2.399324 -0.660118
-0.459563 2.391971 -0.657554
-0.444093 2.388272 -0.655898
-0.428414 2.382735 -0.653819
-0.410502 2.360729 -0.647774
-0.397156 2.370774 -0.649511
-0.381562 2.364183 -0.647243
-0.364288 2.343592 -0.641616
-0.352421 2.365916 -0.646369
-0.337838 2.366558 -0.645906
-0.323575 2.369980 -0.646131
-0.308626 2.367140 -0.644867
-0.294677 2.373699 -0.645882
-0.280869 2.382196 -0.647380
-0.264306 2.361682 -0.641927
-0.252079 2.388141 -0.647772
-0.234801 2.356756 -0.639755
-0.220261 2.356356 -0.639193
-0.205673 2.355112 -0.638447
-0.190384 2.343437 -0.635224
-0.175706 2.339420 -0.633855
-0.162349 2.356763 -0.637613
-0.148353 2.365324 -0.639288
-0.133238 2.353138 -0.636024
-0.118496 2.346520 -0.634111
-0.103535 2.332934 -0.630555
-0.089231 2.333839 -0.630479
-0.074527 2.322297 -0.627454
-0.060267 2.323186 -0.627414
-0.046524 2.347650 -0.633012
-0.031914 2.335763 -0.629965
-0.017419 2.324216 -0.627022
-0.003150 2.327368 -0.627600
0.011179 2.322635 -0.626320
0.025453 2.307066 -0.622482
0.039648 2.301897 -0.621141
0.053870 2.303363 -0.621400
0.067928 2.292851 -0.618829
0.081835 2.279357 -0.615569
0.096347 2.295138 -0.619296
0.110980 2.309677 -0.622749
0.124893 2.298816 -0.620180
0.139267 2.302186 -0.621017
0.153213 2.294726 -0.619299
0.166972 2.284590 -0.616965
0.180861 2.278452 -0.615604
0.195416 2.284608 -0.617190
0.209634 2.284193 -0.617233
0.223464 2.277817 -0.615879
0.237532 2.275342 -0.615474
0.251413 2.270515 -0.614530
0.266792 2.284413 -0.618069
0.279740 2.268353 -0.614488
0.293642 2.264228 -0.613773
0.307388 2.258675 -0.612736
0.321239 2.254487 -0.612043
0.335932 2.258453 -0.613318
0.350954 2.264868 -0.615198
0.366871 2.278327 -0.618783
0.381401 2.278929 -0.619314
0.391717 2.245462 -0.611708
0.411012 2.283707 -0.621285
0.423817 2.270657 -0.618596
0.437298 2.263210 -0.617262
0.451072 2.258143 -0.616511
0.464763 2.252683 -0.615677
0.479542 2.254511 -0.616604
0.490163 2.229858 -0.611174
0.505760 2.237000 -0.613395
0.520926 2.241057 -0.614882
0.537369 2.252148 -0.618070
0.552062 2.252708 -0.618726
0.566355 2.250974 -0.618829
0.581330 2.252892 -0.619811
0.594078 2.243109 -0.617962
0.608526 2.242376 -0.618291
0.625871 2.255951 -0.622073
0.632843 2.218902 -0.613587
0.651894 2.240430 -0.619267
0.662536 2.222339 -0.615328
0.675307 2.214671 -0.613890
0.694932 2.237570 -0.619843
0.707304 2.228344 -0.617970
0.716677 2.206953 -0.613105
0.731624 2.209597 -0.614041
0.747701 2.216869 -0.616061
0.760630 2.211522 -0.614968
0.772202 2.201271 -0.612632
0.782899 2.188261 -0.609572
0.796423 2.186576 -0.609211
0.812682 2.195298 -0.611323
0.830294 2.208898 -0.614560
0.843496 2.206593 -0.613859
0.855870 2.201758 -0.612475
0.872941 2.213620 -0.615079
0.892694 2.234560 -0.619812
0.895387 2.198117 -0.610527
0.902404 2.177393 -0.604990
0.920664 2.194158 -0.608471
0.942738 2.223033 -0.614799
0.958457 2.231436 -0.616076
0.970706 2.229206 -0.614695
0.976692 2.208208 -0.608701
0.984710 2.194332 -0.604355
0.994246 2.185771 -0.601216
0.996859 2.157371 -0.593235
1.015042 2.175550 -0.596370
1.031833 2.189692 -0.598442
1.055240 2.222798 -0.604954
1.078265 2.254494 -0.611020
-2.027840 2.552736 -0.858179
-1.978336 2.563818 -0.858709
-1.938346 2.529012 -0.847453
-1.901339 2.498690 -0.837417
-1.887808 2.507659 -0.838705
-1.702730 2.836955 -0.894984
-1.689235 2.852319 -0.896718
-1.679071 2.874974 -0.900451
-1.656319 2.871062 -0.896794
-1.618922 2.835105 -0.884294
-1.596440 2.830850 -0.880589
-1.578592 2.836623 -0.879657
-1.565566 2.853239 -0.881704
-1.548970 2.861944 -0.881582
-1.528559 2.861857 -0.879068
-1.497848 2.837418 -0.869950
-1.477786 2.837423 -0.867523
-1.452187 2.823893 -0.861457
-1.437390 2.836152 -0.862400
-1.419708 2.841399 -0.861466
-1.397211 2.834498 -0.857289
-1.375249 2.828550 -0.853407
-1.350836 2.815893 -0.847769
-1.330738 2.813950 -0.845038
-1.316495 2.827281 -0.846407
-1.294983 2.821201 -0.842637
-1.270403 2.806340 -0.836581
-1.254362 2.814507 -0.836665
-1.236251 2.816873 -0.835242
-1.211822 2.801034 -0.829057
-1.184747 2.776807 -0.820720
-1.162053 2.764528 -0.815575
-1.141916 2.759306 -0.812324
-1.126088 2.766818 -0.812436
-1.101584 2.747541 -0.805592
-1.082031 2.742979 -0.802628
-0.984904 2.490243 -0.735281
-0.959670 2.462334 -0.726464
-0.937562 2.443615 -0.720080
-0.919869 2.438900 -0.717358
-0.902611 2.435325 -0.714962
-0.884956 2.430059 -0.712162
-0.868357 2.428165 -0.710262
-0.853359 2.431798 -0.709806
-0.838109 2.434464 -0.709127
-0.819915 2.426026 -0.705637
-0.802642 2.420607 -0.702949
-0.785007 2.413394 -0.699835
-0.768326 2.409509 -0.697599
-0.751511 2.404753 -0.695170
-0.738200 2.414110 -0.696346
-0.722454 2.413420 -0.694998
-0.707012 2.413842 -0.693955
-0.690078 2.407550 -0.691242
-0.673917 2.404289 -0.689321
-0.575967 2.372476 -0.675255
-0.563847 2.387995 -0.678200
-0.551474 2.402792 -0.680977
-0.535283 2.396840 -0.678596
-0.518987 2.389791 -0.675967
-0.504574 2.393348 -0.676000
-0.490761 2.400621 -0.676974
-0.475691 2.400274 -0.676074
-0.459948 2.395398 -0.674073
-0.444586 2.392611 -0.672611
-0.428448 2.384118 -0.669760
-0.410051 2.358769 -0.662766
-0.399029 2.386018 -0.668791
-0.382966 2.376471 -0.665746
-0.365961 2.358553 -0.660662
-0.351854 2.363055 -0.661126
-0.338750 2.376407 -0.663785
-0.323217 2.368949 -0.661341
-0.308805 2.371199 -0.661305
-0.293991 2.369582 -0.660338
-0.277643 2.351887 -0.655447
-0.264185 2.363470 -0.657759
-0.249222 2.359035 -0.656162
-0.235156 2.364747 -0.657069
-0.220440 2.362723 -0.656102
-0.205408 2.356025 -0.654011
-0.189640 2.337601 -0.649076
-0.174237 2.322050 -0.644868
-0.162144 2.359471 -0.653613
-0.147494 2.356598 -0.652538
-0.132517 2.346544 -0.649732
-0.117790 2.339825 -0.647761
-0.102982 2.329459 -0.644922
-0.088182 2.316552 -0.641486
-0.074032 2.320363 -0.642143
-0.060387 2.344376 -0.647736
-0.046185 2.353357 -0.649688
-0.031252 2.325011 -0.642579
-0.016928 2.323875 -0.642112
-0.002608 2.322148 -0.641522
0.011693 2.322258 -0.641398
0.025982 2.310908 -0.638511
0.040189 2.302763 -0.636424
0.054407 2.302129 -0.636183
0.068615 2.300879 -0.635814
0.082626 2.290087 -0.633148
0.096824 2.290563 -0.633240
0.111546 2.308253 -0.637536
0.125506 2.298592 -0.635208
0.139435 2.290197 -0.633209
0.153378 2.283676 -0.631688
0.167091 2.273405 -0.629276
0.181289 2.273808 -0.629478
0.195632 2.276414 -0.630238
0.210566 2.287798 -0.633154
0.225431 2.296326 -0.635397
0.239276 2.289354 -0.633893
0.253321 2.285621 -0.633198
0.267413 2.282665 -0.632712
0.281588 2.280767 -0.632504
0.294642 2.266570 -0.629321
0.307936 2.256067 -0.627055
0.322168 2.255648 -0.627266
0.336241 2.253570 -0.627091
0.351897 2.265810 -0.630428
0.369113 2.290379 -0.636797
0.382643 2.282068 -0.635158
0.395564 2.269336 -0.632454
0.410842 2.275554 -0.634396
0.425019 2.272968 -0.634201
0.438779 2.267401 -0.633290
0.452000 2.258328 -0.631531
0.466836 2.260524 -0.632543
0.480834 2.257002 -0.632164
0.494296 2.250196 -0.630986
0.506843 2.238091 -0.628512
0.524430 2.256475 -0.633532
0.538969 2.256162 -0.633963
0.551188 2.242777 -0.631177
0.566032 2.244364 -0.632072
0.581176 2.247411 -0.633325
0.594809 2.242434 -0.632592
0.608018 2.235544 -0.631376
0.624149 2.243382 -0.633784
0.633125 2.216435 -0.627581
0.641901 2.189821 -0.621434
0.660704 2.210522 -0.626964
0.681014 2.237148 -0.633941
0.693704 2.229213 -0.632335
0.704700 2.214426 -0.628997
0.715612 2.200013 -0.625712
0.728282 2.193590 -0.624366
0.747923 2.215819 -0.630080
0.760055 2.207551 -0.628185
0.770444 2.193000 -0.624677
0.787484 2.204661 -0.627619
0.798860 2.194864 -0.625177
0.813958 2.199410 -0.626233
0.832444 2.216378 -0.630305
0.845919 2.215191 -0.629803
0.855913 2.202145 -0.626292
0.868796 2.199822 -0.625367
0.883183 2.203028 -0.625736
0.900526 2.216386 -0.628539
0.909468 2.202012 -0.624400
0.929424 2.224226 -0.629226
0.943334 2.226829 -0.629119
0.958454 2.233581 -0.629951
0.970701 2.231597 -0.628545
0.978268 2.215692 -0.623634
0.990641 2.215201 -0.622435
1.006807 2.226503 -0.624045
1.015662 2.216305 -0.620303
1.014218 2.176659 -0.609298
1.030465 2.189484 -0.611040
1.044819 2.197018 -0.611406
1.060121 2.207472 -0.612396
-2.078667 2.494053 -0.859039
-2.011671 2.558705 -0.875900
-2.018132 2.599648 -0.887232
-1.718371 2.867867 -0.923266
-1.691159 2.854883 -0.917020
-1.679449 2.874249 -0.919947
-1.658742 2.874677 -0.917495
-1.631134 2.859994 -0.910785
-1.608929 2.856646 -0.907287
-1.587482 2.854730 -0.904204
-1.572854 2.867956 -0.905368
-1.493994 2.780169 -0.875903
-1.491692 2.821253 -0.884873
-1.439779 2.840244 -0.882860
-1.417478 2.834151 -0.878809
-1.397014 2.832289 -0.875953
-1.376983 2.831262 -0.873358
-1.360541 2.839251 -0.873254
-1.337561 2.830149 -0.868518
-1.316067 2.824513 -0.864766
-1.300523 2.834517 -0.865293
-1.268277 2.798965 -0.853522
-1.249353 2.799078 -0.851448
-1.231252 2.801295 -0.849974
-1.209581 2.793163 -0.845751
-1.186643 2.780891 -0.840461
-1.160457 2.758447 -0.832497
-1.145228 2.767885 -0.833102
-1.125632 2.764135 -0.830216
-1.113500 2.783119 -0.833412
-1.087301 2.758331 -0.825007
-0.990952 2.508480 -0.757052
-0.959079 2.459388 -0.742450
-0.939081 2.447654 -0.737784
-0.921795 2.444438 -0.735401
-0.904149 2.439695 -0.732649
-0.886231 2.433654 -0.729589
-0.869121 2.430073 -0.727207
-0.853415 2.431248 -0.726101
-0.837378 2.431071 -0.724667
-0.820892 2.429031 -0.722776
-0.803129 2.421863 -0.719578
-0.786124 2.417187 -0.717061
-0.768556 2.409923 -0.713902
-0.751794 2.405451 -0.711498
-0.738024 2.412988 -0.712228
-0.723171 2.416101 -0.711836
-0.707120 2.414020 -0.710127
-0.690043 2.407166 -0.707214
-0.679805 2.430614 -0.712123
-0.670050 2.457176 -0.717839
-0.654121 2.455741 -0.716381
-0.634772 2.437595 -0.710667
-0.579987 2.393540 -0.696385
-0.564900 2.393893 -0.695520
-0.551901 2.405502 -0.697542
-0.536023 2.401449 -0.695597
-0.518886 2.389753 -0.691735
-0.502847 2.383744 -0.689344
-0.490162 2.397690 -0.692034
-0.474604 2.394268 -0.690340
-0.459172 2.391294 -0.688783
-0.444491 2.393003 -0.688432
-0.429368 2.391624 -0.687321
-0.413506 2.384716 -0.684836
-0.397959 2.379498 -0.682801
-0.383746 2.383990 -0.683232
-0.365653 2.357784 -0.675962
-0.351102 2.358674 -0.675532
-0.338120 2.372998 -0.678494
-0.323563 2.374270 -0.678195
-0.308325 2.369119 -0.676306
-0.292571 2.358284 -0.673015
-0.277076 2.348917 -0.670115
-0.260952 2.331662 -0.665265
-0.248614 2.355561 -0.670727
-0.234364 2.359010 -0.671093
-0.220307 2.365197 -0.672162
-0.205431 2.360926 -0.670638
-0.188590 2.327423 -0.661847
-0.174916 2.338210 -0.664123
-0.160482 2.337827 -0.663633
-0.146826 2.351450 -0.666651
-0.131652 2.337212 -0.662752
-0.116691 2.324625 -0.659287
-0.103021 2.340771 -0.662989
-0.087931 2.321556 -0.657920
-0.073974 2.332764 -0.660433
-0.059763 2.338289 -0.661553
-0.045378 2.338228 -0.661305
-0.030674 2.319597 -0.656470
-0.016388 2.320584 -0.656525
-0.002122 2.325469 -0.657569
0.012187 2.332405 -0.659142
0.026560 2.336311 -0.659983
0.040813 2.314484 -0.654465
0.055057 2.310016 -0.653273
0.069342 2.310345 -0.653293
0.083447 2.301414 -0.651038
0.097396 2.289231 -0.647998
0.111670 2.291527 -0.648570
0.126053 2.296026 -0.649709
0.139676 2.279820 -0.645737
0.153554 2.272604 -0.644014
0.167403 2.265959 -0.642455
0.181465 2.264197 -0.642128
0.195716 2.265743 -0.642642
0.210982 2.282928 -0.647060
0.227611 2.317626 -0.655847
0.242483 2.323261 -0.657444
0.253846 2.282501 -0.647542
0.268170 2.282400 -0.647756
0.281806 2.274141 -0.645962
0.296317 2.276099 -0.646728
0.310601 2.275303 -0.646829
0.324798 2.273510 -0.646701
0.338563 2.267601 -0.645568
0.354006 2.277164 -0.648304
0.371474 2.303283 -0.655186
0.386698 2.308470 -0.656873
0.397723 2.279521 -0.650064
0.410981 2.269743 -0.648047
0.426932 2.280474 -0.651163
0.438891 2.261722 -0.646928
0.454558 2.269740 -0.649391
0.468296 2.264188 -0.648474
0.481896 2.257970 -0.647396
0.495858 2.254292 -0.646960
0.509892 2.251161 -0.646665
0.523274 2.244258 -0.645425
0.540538 2.260005 -0.649870
0.550403 2.233409 -0.643684
0.565187 2.234975 -0.644563
0.581197 2.242928 -0.647043
0.595825 2.243307 -0.647610
0.610499 2.243892 -0.648217
0.618752 2.212858 -0.640844
0.630256 2.198936 -0.637757
0.647674 2.213464 -0.641820
0.665519 2.229366 -0.646208
0.682650 2.241441 -0.649606
0.694523 2.230007 -0.647037
0.700908 2.195574 -0.638618
0.713736 2.189834 -0.637406
0.730376 2.200220 -0.640227
0.744064 2.198434 -0.639924
0.764925 2.225391 -0.646840
0.780812 2.232178 -0.648602
0.793118 2.225265 -0.646841
0.806790 2.223985 -0.646443
0.818311 2.215091 -0.644055
0.832397 2.216095 -0.644104
0.847132 2.219692 -0.644737
0.859403 2.214848 -0.643164
0.871528 2.209995 -0.641516
0.884317 2.207896 -0.640487
0.898803 2.211912 -0.640921
0.928271 2.265610 -0.653785
0.930404 2.229255 -0.643885
0.937923 2.211592 -0.638620
0.945914 2.196308 -0.633880
0.960613 2.202762 -0.634516
0.973089 2.202608 -0.633411
0.986466 2.205609 -0.633013
1.007124 2.230788 -0.638064
1.052812 2.191134 -0.620873
-1.979373 2.538414 -0.885706
-1.709970 2.849182 -0.937497
-1.695494 2.906700 -0.949021
-1.635673 2.868247 -0.932788
-1.610528 2.858526 -0.927437
-1.591776 2.862613 -0.926051
-1.576634 2.874768 -0.926968
-1.496767 2.784874 -0.896390
-1.487453 2.809584 -0.900932
-1.440346 2.839868 -0.902157
-1.417117 2.831508 -0.897414
-1.392675 2.819669 -0.891735
-1.377569 2.831023 -0.892569
-1.361784 2.840736 -0.892961
-1.342355 2.840990 -0.890744
-1.294701 2.817196 -0.879685
-1.273534 2.811713 -0.875995
-1.248736 2.795789 -0.869470
-1.226784 2.787175 -0.865005
-1.210185 2.793375 -0.864641
-1.196107 2.806870 -0.866298
-1.174792 2.799250 -0.862212
-1.150428 2.782053 -0.855561
-1.131082 2.779353 -0.852901
-1.108156 2.765291 -0.847196
-1.077994 2.727837 -0.835208
-0.995038 2.520388 -0.777371
-0.962647 2.469895 -0.762097
-0.938111 2.443421 -0.753368
-0.918788 2.433351 -0.749101
-0.902060 2.431613 -0.747107
-0.886818 2.434798 -0.746462
-0.867547 2.423651 -0.742012
-0.851915 2.425035 -0.740943
-0.835499 2.423416 -0.739101
-0.820308 2.426139 -0.738443
-0.803074 2.420999 -0.735722
-0.787622 2.422415 -0.734771
-0.770057 2.415326 -0.731594
-0.751383 2.403296 -0.727144
-0.735471 2.402000 -0.725561
-0.722430 2.412594 -0.727136
-0.707454 2.415133 -0.726610
-0.690936 2.410831 -0.724311
-0.680702 2.434438 -0.729359
-0.576678 2.376579 -0.707897
-0.564008 2.389419 -0.710268
-0.551553 2.403954 -0.713093
-0.536390 2.403936 -0.712158
-0.517427 2.381863 -0.705532
-0.502917 2.384764 -0.705402
-0.488527 2.388419 -0.705488
-0.474428 2.393966 -0.706082
-0.457594 2.381978 -0.702171
-0.443356 2.386436 -0.702526
-0.429262 2.392031 -0.703193
-0.412704 2.380245 -0.699406
-0.398162 2.382402 -0.699230
-0.384156 2.388674 -0.700130
-0.364853 2.353094 -0.690311
-0.349810 2.349826 -0.688811
-0.337437 2.369154 -0.693119
-0.322858 2.370166 -0.692753
-0.307443 2.363282 -0.690387
-0.291382 2.349271 -0.686223
-0.274020 2.320362 -0.678281
-0.262108 2.347355 -0.684633
-0.247856 2.350422 -0.684895
-0.233223 2.349110 -0.684061
-0.219374 2.357531 -0.685725
-0.204714 2.355870 -0.684842
-0.190342 2.358041 -0.684954
-0.173936 2.328648 -0.677061
-0.160397 2.342800 -0.680261
-0.145536 2.335060 -0.677918
-0.130316 2.318589 -0.673381
-0.117644 2.354908 -0.682264
-0.102409 2.336328 -0.677234
-0.088466 2.348834 -0.680111
-0.073483 2.331685 -0.675489
-0.059304 2.338753 -0.677029
-0.044692 2.328975 -0.674320
-0.030292 2.326331 -0.673441
-0.015963 2.327477 -0.673543
-0.001638 2.330839 -0.674227
0.012711 2.337818 -0.675847
0.027120 2.338759 -0.675961
0.041541 2.339517 -0.676049
0.055516 2.299224 -0.665775
0.069957 2.311695 -0.668871
0.084102 2.303749 -0.666824
0.097927 2.285755 -0.662257
0.112189 2.287683 -0.662751
0.126392 2.287064 -0.662623
0.140624 2.287065 -0.662673
0.154190 2.271737 -0.658867
0.168679 2.277959 -0.660535
0.182364 2.267865 -0.658095
0.196463 2.266234 -0.657818
0.211889 2.285634 -0.662887
0.227261 2.301280 -0.667029
0.241819 2.303442 -0.667779
0.257185 2.315557 -0.671072
0.269373 2.287376 -0.664175
0.282884 2.277286 -0.661880
0.298152 2.287184 -0.664673
0.313272 2.294350 -0.666795
0.326603 2.282998 -0.664236
0.339266 2.266185 -0.660307
0.354428 2.273153 -0.662433
0.370917 2.290828 -0.667300
0.385137 2.288094 -0.666998
0.399332 2.285206 -0.666671
0.413266 2.280368 -0.665861
0.424625 2.256664 -0.660256
0.440789 2.268780 -0.663787
0.452450 2.248867 -0.659163
0.468654 2.260463 -0.662583
0.482296 2.254642 -0.661566
0.497139 2.256606 -0.662541
0.512476 2.261364 -0.664236
0.527206 2.262182 -0.664925
0.531629 2.203683 -0.650428
0.552973 2.242870 -0.660932
0.567712 2.244009 -0.661690
0.583773 2.252065 -0.664214
0.600134 2.261259 -0.667021
0.611589 2.245302 -0.663358
0.620659 2.218415 -0.656864
0.632979 2.208431 -0.654687
0.650164 2.221783 -0.658485
0.668185 2.238450 -0.663110
0.684894 2.248603 -0.666031
0.698460 2.244647 -0.665286
0.700563 2.191741 -0.651893
0.717123 2.202005 -0.654725
0.734929 2.217172 -0.658776
0.747779 2.211898 -0.657510
0.764306 2.221633 -0.660059
0.785148 2.248043 -0.666848
0.800361 2.252224 -0.667848
0.810474 2.237369 -0.663878
0.819862 2.220645 -0.659362
0.831590 2.213283 -0.657190
0.843696 2.207833 -0.655440
0.857915 2.210309 -0.655656
0.874586 2.221525 -0.658042
0.888503 2.223384 -0.657942
0.938432 2.257449 -0.664450
0.937390 2.212204 -0.651964
0.944254 2.193618 -0.646235
0.951180 2.176129 -0.640717
0.965143 2.181183 -0.640873
0.984155 2.201873 -0.644920
1.006876 2.233588 -0.651667
1.028503 2.226153 -0.646913
1.049127 2.251608 -0.651785
1.059188 2.246637 -0.648893
-2.014537 2.567802 -0.911906
-1.902584 2.536277 -0.897903
-1.699333 2.825960 -0.950174
-1.703572 2.878043 -0.963029
-1.661924 2.878445 -0.958031
-1.632742 2.860339 -0.950162
-1.601958 2.838115 -0.941114
-1.588687 2.854099 -0.943229
-1.554155 2.868601 -0.942347
-1.522987 2.843757 -0.932626
-1.466576 2.805572 -0.916645
-1.450232 2.813945 -0.916606
-1.437246 2.830535 -0.918930
-1.396601 2.827746 -0.913329
-1.380821 2.837528 -0.913749
-1.343300 2.841727 -0.910283
-1.318437 2.827420 -0.903958
-1.294771 2.815704 -0.898411
-1.273329 2.809500 -0.894460
-1.253257 2.806693 -0.891501
-1.229212 2.792417 -0.885368
-1.196516 2.806523 -0.885141
-1.171068 2.786791 -0.877614
-1.144065 2.761571 -0.868619
-1.121586 2.749083 -0.863213
-1.101759 2.744173 -0.859949
-1.078777 2.728988 -0.853888
-0.997170 2.526005 -0.796148
-0.963630 2.471954 -0.779597
-0.937183 2.439279 -0.768997
-0.916047 2.423116 -0.762982
-0.900832 2.426430 -0.762338
-0.887533 2.436341 -0.763520
-0.869905 2.431104 -0.760595
-0.852036 2.424625 -0.757365
-0.835641 2.423135 -0.755524
-0.818609 2.419029 -0.753003
-0.801786 2.415387 -0.750639
-0.787183 2.420056 -0.750551
-0.771173 2.419157 -0.748984
-0.752521 2.407358 -0.744509
-0.736525 2.405869 -0.742842
-0.721410 2.407863 -0.742138
-0.705950 2.408282 -0.741036
-0.690541 2.408781 -0.739981
-0.675983 2.412960 -0.739935
-0.661178 2.416023 -0.739612
-0.645093 2.413042 -0.737700
-0.628519 2.407393 -0.735104
-0.613397 2.408479 -0.734328
-0.594432 2.390018 -0.728381
-0.577971 2.383447 -0.725625
-0.564182 2.390585 -0.726530
-0.553139 2.412938 -0.731483
-0.536480 2.404852 -0.728395
-0.519913 2.396688 -0.725313
-0.502950 2.385548 -0.721474
-0.489658 2.396007 -0.723357
-0.472830 2.384705 -0.719527
-0.458049 2.385822 -0.718991
-0.442589 2.382313 -0.717261
-0.426074 2.371122 -0.713537
-0.412300 2.378618 -0.714741
-0.397332 2.377657 -0.713748
-0.380786 2.364355 -0.709545
-0.365243 2.357894 -0.707159
-0.349618 2.350102 -0.704448
-0.335846 2.357495 -0.705728
-0.321523 2.360424 -0.705861
-0.306819 2.359900 -0.705113
-0.291700 2.355097 -0.703271
-0.276932 2.353314 -0.702237
-0.260525 2.333439 -0.696518
-0.248347 2.359601 -0.702798
-0.235735 2.383361 -0.708465
-0.218071 2.345173 -0.698056
-0.204481 2.357482 -0.700788
-0.189213 2.346904 -0.697599
-0.174196 2.338562 -0.695014
-0.159393 2.332407 -0.693019
-0.144373 2.321079 -0.689706
-0.131242 2.345439 -0.695657
-0.117666 2.364935 -0.700364
-0.103188 2.366529 -0.700457
-0.088124 2.352051 -0.696416
-0.072803 2.324806 -0.689097
-0.058904 2.341929 -0.693271
-0.045020 2.367165 -0.699559
-0.029986 2.338321 -0.691898
-0.015531 2.334973 -0.690846
-0.001084 2.328769 -0.689078
0.013299 2.325394 -0.688063
0.027665 2.326607 -0.688254
0.041946 2.312718 -0.684570
0.056148 2.302881 -0.681954
0.071038 2.341116 -0.691763
0.085103 2.321996 -0.686796
0.099060 2.305398 -0.682502
0.113108 2.296648 -0.680255
0.127544 2.301084 -0.681432
0.141750 2.298373 -0.680787
0.156913 2.317527 -0.685806
0.169831 2.287049 -0.678038
0.183317 2.272223 -0.674331
0.198104 2.281736 -0.676928
0.213291 2.295897 -0.680746
0.228161 2.303191 -0.682815
0.242799 2.306129 -0.683780
0.255428 2.282616 -0.677931
0.270319 2.289042 -0.679837
0.285455 2.297364 -0.682256
0.300258 2.300987 -0.683480
0.314457 2.297826 -0.682968
0.327268 2.281108 -0.678965
0.340314 2.267913 -0.675888
0.354216 2.263373 -0.675068
0.367580 2.254400 -0.673114
0.380428 2.241714 -0.670209
0.401153 2.292490 -0.683785
0.414128 2.279999 -0.680960
0.427692 2.272601 -0.679467
0.439361 2.252080 -0.674571
0.453785 2.251783 -0.674937
0.467798 2.248661 -0.674576
0.482177 2.247988 -0.674857
0.497104 2.250696 -0.676022
0.513314 2.260961 -0.679160
0.527472 2.258459 -0.678969
0.540923 2.251997 -0.677741
0.558426 2.268449 -0.682490
0.571841 2.261800 -0.681198
0.583978 2.248730 -0.678215
0.597740 2.244708 -0.677580
0.613215 2.249521 -0.679239
0.624893 2.235507 -0.675949
0.635403 2.216610 -0.671352
0.651909 2.226743 -0.674333
0.669036 2.239366 -0.677937
0.677888 2.214481 -0.671671
0.684413 2.180582 -0.662998
0.702021 2.195833 -0.667178
0.726071 2.237740 -0.678311
0.736616 2.222489 -0.674393
0.746455 2.205183 -0.669884
0.764280 2.220444 -0.673867
0.781248 2.232052 -0.676832
0.801259 2.255137 -0.682745
0.813158 2.247226 -0.680457
0.820448 2.222872 -0.673788
0.830665 2.210277 -0.670137
0.840682 2.197711 -0.666423
0.850578 2.185466 -0.662722
0.867938 2.199752 -0.665891
0.886072 2.216597 -0.669644
0.892373 2.193633 -0.662914
0.900977 2.179332 -0.658374
0.915114 2.183842 -0.658664
0.939930 2.222905 -0.667863
0.945916 2.201665 -0.661280
0.953952 2.187800 -0.656545
0.986667 2.213016 -0.660563
1.010826 2.249227 -0.668529
1.024479 2.253751 -0.668215
-1.894369 2.555706 -0.919602
-1.672796 2.855895 -0.973562
-1.585358 2.845092 -0.960180
-1.578379 2.875341 -0.966595
-1.446244 2.802598 -0.932647
-1.425907 2.801136 -0.929784
-1.378961 2.831026 -0.931277
-1.360208 2.833157 -0.929534
-1.338096 2.826371 -0.925242
-1.283174 2.782809 -0.908159
-1.272330 2.805083 -0.912329
-1.259789 2.823118 -0.915289
-1.237641 2.814478 -0.910648
-1.217407 2.810827 -0.907470
-1.198410 2.810436 -0.905255
-1.169101 2.779467 -0.894404
-1.144034 2.759992 -0.886873
-1.098054 2.731329 -0.874876
-1.072636 2.708359 -0.866521
-1.005873 2.552528 -0.820920
-0.960209 2.459680 -0.793166
-0.936639 2.436358 -0.784988
-0.916664 2.424109 -0.779954
-0.900163 2.423109 -0.778098
-0.887088 2.433799 -0.779525
-0.872921 2.440831 -0.779954
-0.855738 2.437070 -0.777413
-0.839803 2.437568 -0.776083
-0.820689 2.426015 -0.771450
-0.798972 2.403907 -0.763944
-0.786291 2.415893 -0.765877
-0.771472 2.419699 -0.765577
-0.754581 2.415108 -0.762995
-0.738173 2.412144 -0.760890
-0.722348 2.411345 -0.759406
-0.706697 2.411086 -0.758098
-0.690174 2.406811 -0.755718
-0.674344 2.405296 -0.754121
-0.656233 2.393051 -0.749629
-0.640387 2.390731 -0.747869
-0.625241 2.391512 -0.746978
-0.610097 2.392173 -0.746078
-0.595960 2.397802 -0.746548
-0.581511 2.401929 -0.746631
-0.570290 2.423283 -0.751392
-0.555263 2.424829 -0.750816
-0.538328 2.415600 -0.747358
-0.519956 2.397405 -0.741514
-0.504196 2.393501 -0.739549
-0.488424 2.389143 -0.737487
-0.473522 2.389828 -0.736804
-0.457949 2.386053 -0.734946
-0.441537 2.376270 -0.731504
-0.429541 2.396231 -0.736050
-0.416055 2.406747 -0.738082
-0.395494 2.365437 -0.726286
-0.381268 2.369609 -0.726672
-0.366260 2.367713 -0.725458
-0.349371 2.349930 -0.720034
-0.334060 2.344156 -0.717836
-0.320906 2.357155 -0.720657
-0.307167 2.365668 -0.722301
-0.293143 2.372035 -0.723393
-0.277964 2.366973 -0.721470
-0.262359 2.356623 -0.718167
-0.247626 2.354994 -0.717202
-0.234178 2.368582 -0.720290
-0.219139 2.363273 -0.718390
-0.204146 2.357787 -0.716468
-0.188945 2.348391 -0.713534
-0.173293 2.330414 -0.708356
-0.158242 2.319620 -0.705101
-0.145123 2.342370 -0.710730
-0.130603 2.341121 -0.710039
-0.116978 2.359425 -0.714529
-0.102349 2.356984 -0.713566
-0.087504 2.347744 -0.710832
-0.073856 2.374455 -0.717596
-0.058539 2.346863 -0.710071
-0.044534 2.368404 -0.715513
-0.029764 2.356337 -0.712124
-0.015041 2.338857 -0.707334
-0.000534 2.328679 -0.704490
0.013880 2.319124 -0.701833
0.028218 2.314526 -0.700504
0.042506 2.308197 -0.698741
0.056974 2.321983 -0.702293
0.071554 2.334279 -0.705474
0.086250 2.346186 -0.708575
0.100381 2.331427 -0.704684
0.114327 2.314871 -0.700342
0.128519 2.309472 -0.698958
0.142894 2.309642 -0.699060
0.158058 2.327178 -0.703754
0.171966 2.315647 -0.700822
0.184805 2.286180 -0.693191
0.199538 2.293351 -0.695223
0.214875 2.308717 -0.699434
0.229634 2.313259 -0.700819
0.243792 2.308783 -0.699849
0.256275 2.283135 -0.693321
0.270953 2.286776 -0.694528
0.287363 2.309603 -0.700815
0.300469 2.294070 -0.697007
0.314930 2.293830 -0.697250
0.328288 2.282605 -0.694611
0.341545 2.271261 -0.691955
0.355913 2.270682 -0.692157
0.368801 2.257267 -0.688981
0.384529 2.268198 -0.692254
0.400558 2.280525 -0.695913
0.416169 2.288607 -0.698463
0.428642 2.272862 -0.694715
0.442010 2.264442 -0.692913
0.456776 2.266087 -0.693784
0.470618 2.261376 -0.692975
0.483622 2.251464 -0.690788
0.497603 2.248193 -0.690363
0.512471 2.250422 -0.691398
0.526761 2.249063 -0.691477
0.538324 2.232137 -0.687408
0.564946 2.299973 -0.705889
0.577383 2.287296 -0.702935
0.583903 2.244037 -0.691815
0.596704 2.235313 -0.689873
0.612641 2.242810 -0.692235
0.629577 2.254907 -0.695803
0.635950 2.215935 -0.685714
0.654809 2.237265 -0.691690
0.665304 2.219484 -0.687188
0.676880 2.207445 -0.684181
0.684041 2.176726 -0.676140
0.694217 2.160384 -0.671894
0.732937 2.264893 -0.699905
0.744719 2.254459 -0.697141
0.745685 2.200939 -0.682803
0.758704 2.197479 -0.681790
0.782418 2.236040 -0.691945
0.801094 2.254232 -0.696589
0.813865 2.249897 -0.695145
0.819744 2.220579 -0.686963
0.831948 2.215529 -0.685191
0.838364 2.190313 -0.677969
0.850327 2.185737 -0.676179
0.865867 2.194031 -0.677741
0.893102 2.198061 -0.677277
0.904112 2.191935 -0.674763
0.912766 2.178688 -0.670284
0.927370 2.185328 -0.670998
0.951859 2.223521 -0.679966
0.987559 2.219457 -0.674985
-1.687773 2.799829 -0.980933
-1.663495 2.791885 -0.976071
-1.581566 2.880881 -0.988018
-1.532476 2.862252 -0.977313
-1.430450 2.810436 -0.951860
-1.411995 2.813529 -0.950342
-1.371267 2.809710 -0.944406
-1.332714 2.810545 -0.939946
-1.304740 2.787640 -0.930915
-1.282226 2.778535 -0.925980
-1.270742 2.799036 -0.929730
-1.260309 2.822849 -0.934450
-1.241340 2.823195 -0.932348
-1.218227 2.811518 -0.926789
-1.199893 2.813114 -0.925119
-1.150067 2.776493 -0.910390
-1.129770 2.770999 -0.906795
-1.104879 2.750944 -0.899057
-1.066983 2.689232 -0.879432
-0.955626 2.443599 -0.805582
-0.935409 2.431131 -0.800355
-0.917070 2.424348 -0.796788
-0.902504 2.430022 -0.796795
-0.887310 2.433530 -0.796213
-0.873634 2.442358 -0.797162
-0.857385 2.442057 -0.795551
-0.843395 2.449852 -0.796254
-0.824980 2.441217 -0.792352
-0.802116 2.415102 -0.783571
-0.785991 2.413985 -0.781860
-0.773014 2.425125 -0.783612
-0.756725 2.423148 -0.781711
-0.738456 2.412738 -0.777483
-0.722476 2.411364 -0.775813
-0.707142 2.412544 -0.774881
-0.690887 2.409556 -0.772815
-0.671402 2.391732 -0.766657
-0.655691 2.390291 -0.765083
-0.638604 2.382145 -0.761677
-0.624844 2.389469 -0.762584
-0.610625 2.394727 -0.762940
-0.595638 2.396195 -0.762271
-0.584710 2.418616 -0.767402
-0.569393 2.418694 -0.766391
-0.553489 2.415414 -0.764479
-0.537183 2.409537 -0.761881
-0.520008 2.398156 -0.757800
-0.502574 2.384432 -0.753107
-0.488838 2.392318 -0.754363
-0.472903 2.386694 -0.751942
-0.456861 2.379869 -0.749219
-0.442733 2.385266 -0.749859
-0.426435 2.375857 -0.746481
-0.410540 2.368538 -0.743700
-0.396318 2.372938 -0.744136
-0.383072 2.385027 -0.746683
-0.368990 2.391206 -0.747640
-0.348641 2.345763 -0.734599
-0.334330 2.348568 -0.734692
-0.320853 2.358972 -0.736865
-0.306646 2.363305 -0.737411
-0.292204 2.365583 -0.737421
-0.278473 2.375296 -0.739464
-0.262886 2.365714 -0.736308
-0.248027 2.363289 -0.735111
-0.233801 2.368103 -0.735891
-0.219814 2.376464 -0.737649
-0.204293 2.364794 -0.734024
-0.189334 2.359590 -0.732167
-0.173477 2.339405 -0.726297
-0.158610 2.332663 -0.724075
-0.143515 2.320436 -0.720399
-0.130858 2.354999 -0.729337
-0.118163 2.395896 -0.739993
-0.101330 2.343130 -0.725483
-0.087832 2.370482 -0.732535
-0.073299 2.372451 -0.732786
-0.058344 2.358816 -0.728868
-0.043291 2.334536 -0.722117
-0.029031 2.344462 -0.724573
-0.014527 2.341758 -0.723660
-0.000009 2.333900 -0.721388
0.014447 2.322211 -0.718111
0.028829 2.323705 -0.718394
0.043156 2.314747 -0.715895
0.057475 2.311813 -0.715035
0.072123 2.330015 -0.719865
0.086798 2.341044 -0.722793
0.100416 2.306993 -0.713657
0.114256 2.290393 -0.709222
0.129046 2.304717 -0.713101
0.144164 2.323581 -0.718220
0.158559 2.322077 -0.717900
0.173183 2.325227 -0.718850
0.186544 2.304370 -0.713381
0.200393 2.294863 -0.710978
0.215335 2.303650 -0.713505
0.229864 2.304966 -0.714047
0.243323 2.291348 -0.710601
0.259299 2.311337 -0.716200
0.273086 2.302448 -0.714062
0.286925 2.294924 -0.712310
0.301936 2.300646 -0.714135
0.314884 2.284438 -0.710082
0.328955 2.280553 -0.709358
0.343311 2.279515 -0.709415
0.358496 2.285816 -0.711464
0.373120 2.286629 -0.712050
0.386870 2.280034 -0.710653
0.404108 2.301410 -0.716809
0.417841 2.294355 -0.715310
0.427710 2.259281 -0.706255
0.444037 2.272352 -0.710201
0.459063 2.275519 -0.711479
0.472559 2.268238 -0.709938
0.487203 2.268718 -0.710495
0.497784 2.243769 -0.704170
0.513606 2.251959 -0.706808
0.528116 2.251926 -0.707216
0.546197 2.272291 -0.713144
0.559648 2.265795 -0.711783
0.573206 2.260229 -0.710658
0.587277 2.257674 -0.710333
0.600494 2.250906 -0.708844
0.614321 2.247582 -0.708265
0.624944 2.228800 -0.703458
0.640066 2.232512 -0.704733
0.652332 2.222811 -0.702329
0.669785 2.237380 -0.706487
0.688340 2.256400 -0.711819
0.688583 2.194603 -0.695117
0.715093 2.248184 -0.709761
0.730096 2.251454 -0.710665
0.748593 2.269217 -0.715458
0.750170 2.218168 -0.701469
0.751191 2.167084 -0.687415
0.802417 2.259263 -0.711972
0.802165 2.206219 -0.697196
0.819430 2.219981 -0.700507
0.835217 2.228247 -0.702248
0.847681 2.224718 -0.700710
0.858806 2.216947 -0.697948
0.873727 2.222917 -0.698831
0.894605 2.205340 -0.692372
0.920623 2.207053 -0.690811
0.933324 2.207467 -0.689789
0.947722 2.213656 -0.690238
0.975736 2.262731 -0.702104
0.978913 2.161174 -0.670575
0.996927 2.180274 -0.674079
-1.639445 2.826245 -1.001039
-1.628021 2.845786 -1.004594
-1.434943 2.868376 -0.986310
-1.395914 2.820674 -0.969465
-1.372039 2.809882 -0.963806
-1.345958 2.792917 -0.956332
-1.326241 2.791874 -0.953672
-1.274503 2.807547 -0.951450
-1.260450 2.821508 -0.953346
-1.236211 2.807080 -0.946846
-1.196453 2.801496 -0.940856
-1.173909 2.790424 -0.935475
-1.152490 2.782152 -0.930963
-1.128269 2.764902 -0.923861
-1.103740 2.745933 -0.916308
-0.957445 2.448239 -0.823917
-0.935598 2.430542 -0.817077
-0.916644 2.421750 -0.812866
-0.901580 2.425740 -0.812392
-0.884376 2.422252 -0.809783
-0.868832 2.424331 -0.808813
-0.853627 2.427524 -0.808191
-0.842215 2.444576 -0.811577
-0.823968 2.436536 -0.807777
-0.804092 2.421797 -0.802095
-0.786342 2.414565 -0.798601
-0.771950 2.420177 -0.798810
-0.755121 2.415981 -0.796245
-0.737697 2.408986 -0.792915
-0.723194 2.413833 -0.792984
-0.707874 2.415200 -0.792089
-0.690630 2.407987 -0.788787
-0.673142 2.399188 -0.785069
-0.655010 2.386857 -0.780386
-0.641360 2.394881 -0.781484
-0.621649 2.373917 -0.774429
-0.613474 2.408697 -0.783112
-0.596191 2.398978 -0.779281
-0.579796 2.393207 -0.776591
-0.566683 2.404436 -0.778698
-0.551733 2.406067 -0.778134
-0.533094 2.386930 -0.771780
-0.515483 2.372489 -0.766775
-0.501963 2.381330 -0.768306
-0.490031 2.400236 -0.772663
-0.472275 2.383482 -0.767095
-0.456283 2.376976 -0.764412
-0.443221 2.389521 -0.767057
-0.425979 2.373814 -0.761866
-0.409598 2.363036 -0.758075
-0.396116 2.372845 -0.760023
-0.383003 2.386065 -0.762935
-0.366455 2.372722 -0.758508
-0.349554 2.355240 -0.752964
-0.335988 2.364998 -0.754981
-0.322641 2.377415 -0.757752
-0.305924 2.359076 -0.752049
-0.290912 2.355680 -0.750498
-0.278122 2.374787 -0.755175
-0.263704 2.378031 -0.755496
-0.248907 2.377143 -0.754701
-0.235184 2.389038 -0.757446
-0.219742 2.380147 -0.754494
-0.203956 2.365262 -0.749920
-0.188932 2.359354 -0.747839
-0.174808 2.366599 -0.749392
-0.158947 2.345371 -0.743154
-0.144251 2.341857 -0.741801
-0.128869 2.323690 -0.736454
-0.115593 2.348744 -0.742978
-0.100381 2.331151 -0.737837
-0.086346 2.342208 -0.740566
-0.072235 2.354123 -0.743551
-0.057112 2.331143 -0.737007
-0.042392 2.316966 -0.732898
-0.028349 2.336137 -0.737934
-0.013920 2.337808 -0.738205
0.000584 2.331287 -0.736259
0.015008 2.334756 -0.737067
0.029460 2.334853 -0.736976
0.043835 2.323366 -0.733742
0.058140 2.314541 -0.731258
0.072435 2.309774 -0.729906
0.086899 2.314590 -0.731195
0.101115 2.307840 -0.729347
0.115526 2.309186 -0.729733
0.129960 2.310540 -0.730143
0.144573 2.315723 -0.731622
0.159460 2.325626 -0.734413
0.173242 2.311239 -0.730587
0.186763 2.294353 -0.726098
0.200976 2.291586 -0.725490
0.215469 2.293355 -0.726143
0.230932 2.308735 -0.730540
0.245793 2.313751 -0.732123
0.260435 2.315144 -0.732736
0.274020 2.303500 -0.729799
0.288426 2.302246 -0.729723
0.302935 2.302051 -0.729955
0.316144 2.288389 -0.726515
0.329907 2.281237 -0.724872
0.344781 2.284915 -0.726213
0.360524 2.295875 -0.729567
0.378648 2.326144 -0.738237
0.390017 2.298406 -0.730996
0.405721 2.306887 -0.733710
0.421093 2.312102 -0.735538
0.429201 2.263558 -0.722590
