ply
format ascii 1.0
comment ---
element vertex 1594
property float x
property float y
property float z
element face 0
property list uchar uint vertex_indices
end_header
-3.806086 -5.859379 -1.372246
-3.830595 -5.866817 -1.380797
-3.850932 -5.868355 -1.385857
-3.865242 -5.861732 -1.386022
-3.882287 -5.858608 -1.388353
-3.897186 -5.852581 -1.388960
-4.007412 -5.839949 -1.408069
-4.018769 -5.828859 -1.405845
-4.037703 -5.826761 -1.409272
-4.048568 -5.815021 -1.406702
-4.142813 -5.874941 -1.454347
-4.227103 -5.845221 -1.461513
-4.260655 -5.832395 -1.464088
-4.279951 -5.828496 -1.467071
-4.317364 -5.819020 -1.472091
-4.345587 -5.823851 -1.480956
-4.344512 -5.798577 -1.470061
-4.374053 -5.804388 -1.479677
-4.384775 -5.791116 -1.476707
-4.415274 -5.797385 -1.486761
-4.438827 -5.796530 -1.492133
-4.450298 -5.783805 -1.489580
-4.480128 -5.788680 -1.498881
-4.469702 -5.755146 -1.482250
-4.469871 -5.732013 -1.472553
-4.481069 -5.719381 -1.469935
-4.501583 -5.715372 -1.473184
-4.507450 -5.697951 -1.467216
-4.516543 -5.683612 -1.463300
-4.559784 -5.677420 -1.470903
-4.577390 -5.670694 -1.472143
-4.558564 -5.632463 -1.451259
-4.569846 -5.620646 -1.448733
-4.634686 -5.611752 -1.459474
-4.599231 -5.561739 -1.429345
-4.580389 -5.526176 -1.409252
-4.575617 -5.502612 -1.397537
-4.576022 -5.483601 -1.388914
-4.571053 -5.460664 -1.377274
-4.570619 -5.441706 -1.368324
-4.575346 -5.427116 -1.362371
-4.553453 -5.392268 -1.341444
-4.566692 -5.384932 -1.340419
-4.579856 -5.360758 -1.330927
-4.577659 -5.326282 -1.313113
-4.571578 -5.290413 -1.293483
-4.565763 -5.256225 -1.274330
-1.849469 -6.141414 -1.227275
-1.893666 -6.092475 -1.214395
-1.913258 -6.137519 -1.241642
-1.923961 -6.149975 -1.250280
-1.935550 -6.144108 -1.249835
-1.959864 -6.100354 -1.232866
-1.971605 -6.096203 -1.233023
-1.983466 -6.091655 -1.232913
-1.995233 -6.104298 -1.241288
-2.019618 -6.098959 -1.242623
-2.031936 -6.076199 -1.233152
-2.044361 -6.081696 -1.237734
-2.056848 -6.077244 -1.237281
-2.069474 -6.076783 -1.238771
-2.082511 -6.090598 -1.247382
-2.095995 -6.112296 -1.259927
-2.108646 -6.096931 -1.253781
-2.121759 -6.096010 -1.254857
-2.134682 -6.088440 -1.252533
-2.149183 -6.115079 -1.267454
-2.160824 -6.078785 -1.250525
-2.172238 -6.043715 -1.234147
-2.428803 -6.323239 -1.397906
-2.634910 -6.348484 -1.430768
-2.682357 -6.280831 -1.402292
-2.711936 -6.275112 -1.402840
-2.727947 -6.277201 -1.405750
-2.758957 -6.276851 -1.409278
-2.783009 -6.250224 -1.399045
-2.836227 -6.329168 -1.444740
-2.846537 -6.309175 -1.436192
-2.847139 -6.256528 -1.410313
-2.875938 -6.247778 -1.409801
-2.945149 -6.217798 -1.404567
-3.021309 -6.253605 -1.432986
-3.045500 -6.275799 -1.447357
-3.067202 -6.245798 -1.435986
-3.047968 -6.110122 -1.367170
-3.067142 -5.965402 -1.300117
-3.079512 -5.958890 -1.298952
-3.094176 -5.957824 -1.300800
-3.108593 -5.956068 -1.302294
-3.119946 -5.947196 -1.299883
-3.132145 -5.940332 -1.298594
-3.147500 -5.940541 -1.301242
-3.164639 -5.944519 -1.306011
-3.178107 -5.940279 -1.306247
-3.191630 -5.936120 -1.306548
-3.210196 -5.942570 -1.312796
-3.218365 -5.927031 -1.306785
-3.238285 -5.935920 -1.314465
-3.261065 -5.950237 -1.325245
-3.267115 -5.930488 -1.316916
-3.288918 -5.942274 -1.326357
-3.308717 -5.949694 -1.333391
-3.325834 -5.951591 -1.337348
-3.337564 -5.943014 -1.335399
-3.351609 -5.938848 -1.335972
-3.365553 -5.934436 -1.336429
-3.377894 -5.927023 -1.335198
-3.390348 -5.919834 -1.334110
-3.409376 -5.924453 -1.339812
-3.436609 -5.943351 -1.353767
-3.453275 -5.943123 -1.356792
-3.466916 -5.937496 -1.356737
-3.482997 -5.936011 -1.359101
-3.500091 -5.936105 -1.362417
-3.505419 -5.916348 -1.354237
-3.503295 -5.884552 -1.339031
-3.538450 -5.914251 -1.359682
-3.542754 -5.893245 -1.350782
-3.554223 -5.883990 -1.348760
-3.577308 -5.893125 -1.357567
-3.598936 -5.899605 -1.364879
-3.616122 -5.898905 -1.368011
-3.635170 -5.900886 -1.372774
-3.643996 -5.887197 -1.368285
-3.650825 -5.870644 -1.362096
-3.672246 -5.875842 -1.368886
-3.695392 -5.883269 -1.377074
-3.714722 -5.884830 -1.381816
-3.725628 -5.874118 -1.379230
-3.736949 -5.864035 -1.377042
-3.760276 -5.870792 -1.385056
-3.770081 -5.858481 -1.381583
-3.790440 -5.860704 -1.386961
-3.810241 -5.861931 -1.391794
-3.834981 -5.869564 -1.400604
-3.852529 -5.867289 -1.403422
-3.868476 -5.862756 -1.404902
-3.883219 -5.856552 -1.405395
-3.901671 -5.855043 -1.408830
-4.018888 -5.850251 -1.433328
-4.034842 -5.819738 -1.423665
-4.036240 -5.796916 -1.414031
-4.176902 -5.835158 -1.463957
-4.214319 -5.827286 -1.469567
-4.240229 -5.830894 -1.477381
-4.248691 -5.815568 -1.472865
-4.263268 -5.806787 -1.472654
-4.288957 -5.809579 -1.480115
-4.313158 -5.810546 -1.486446
-4.321278 -5.794782 -1.481715
-4.342036 -5.791935 -1.485597
-4.407553 -5.809608 -1.509223
-4.442225 -5.819731 -1.522058
-4.435666 -5.789271 -1.507489
-4.460298 -5.789287 -1.513551
-4.471266 -5.776054 -1.510610
-4.464040 -5.745695 -1.495896
-4.476310 -5.733986 -1.493898
-4.505665 -5.715133 -1.492969
-4.511466 -5.697672 -1.486867
-4.524184 -5.686612 -1.485158
-4.557432 -5.649586 -1.476960
-4.569246 -5.638103 -1.474682
-4.564106 -5.612238 -1.462073
-4.578791 -5.603562 -1.461583
-4.612585 -5.549450 -1.444600
-4.589195 -5.510741 -1.421693
-4.577654 -5.482203 -1.405939
-4.571024 -5.458069 -1.393187
-4.570490 -5.439162 -1.384066
-4.554851 -5.408859 -1.366355
-4.604531 -5.411783 -1.377323
-4.615757 -5.402952 -1.374988
-4.574509 -5.338504 -1.334841
-4.568150 -5.286627 -1.306483
-1.882438 -6.111816 -1.234402
-1.893253 -6.105587 -1.234061
-1.913848 -6.125957 -1.249472
-1.935541 -6.143166 -1.263143
-1.947524 -6.125106 -1.256590
-1.971188 -6.103942 -1.250693
-1.982563 -6.126943 -1.264483
-1.994584 -6.125405 -1.265907
-2.006832 -6.111090 -1.260829
-2.019115 -6.087879 -1.251179
-2.031353 -6.081881 -1.250129
-2.043697 -6.080599 -1.251397
-2.055939 -6.060122 -1.242881
-2.068328 -6.053482 -1.241300
-2.081496 -6.081769 -1.257400
-2.094806 -6.100666 -1.268710
-2.107320 -6.084088 -1.261928
-2.120175 -6.078916 -1.260895
-2.132762 -6.066127 -1.255924
-2.146804 -6.086160 -1.267672
-2.160328 -6.090363 -1.271307
-2.171936 -6.057976 -1.256172
-2.368608 -6.341816 -1.418956
-2.400467 -6.350718 -1.426396
-2.412747 -6.327084 -1.415539
-2.455909 -6.307473 -1.409624
-2.477028 -6.344905 -1.430603
-2.506560 -6.335586 -1.428726
-2.528638 -6.284742 -1.405161
-2.557087 -6.357021 -1.444589
-2.564871 -6.314801 -1.424029
-2.600964 -6.340452 -1.440737
-2.614079 -6.327876 -1.435775
-2.619168 -6.277460 -1.410881
-2.634328 -6.276430 -1.412011
-2.649988 -6.277611 -1.414335
-2.677733 -6.263997 -1.410608
-2.690578 -6.253140 -1.406626
-2.744756 -6.284612 -1.428836
-2.778057 -6.292139 -1.436678
-2.810837 -6.296671 -1.443055
-2.889634 -6.241953 -1.426143
-2.913843 -6.268787 -1.442795
-2.946519 -6.222255 -1.424285
-3.034722 -6.245645 -1.448698
-3.054938 -6.169519 -1.414294
-3.098721 -6.158548 -1.415714
-3.062081 -5.952295 -1.309010
-3.082366 -5.964803 -1.318396
-3.095782 -5.960639 -1.318555
-3.101837 -5.939353 -1.309186
-3.119186 -5.944369 -1.314499
-3.133623 -5.942528 -1.316013
-3.152176 -5.949756 -1.322639
-3.171408 -5.958131 -1.329955
-3.179236 -5.941414 -1.323195
-3.196787 -5.945786 -1.328324
-3.204755 -5.929664 -1.321913
-3.227673 -5.944955 -1.333283
-3.244364 -5.946895 -1.337144
-3.258098 -5.942631 -1.337515
-3.275928 -5.946529 -1.342558
-3.288863 -5.940487 -1.341971
-3.308037 -5.946630 -1.348370
-3.322327 -5.943042 -1.349241
-3.338399 -5.942779 -1.352048
-3.353670 -5.940855 -1.353933
-3.364547 -5.930649 -1.351074
-3.376999 -5.923421 -1.349946
-3.392012 -5.920855 -1.351535
-3.410444 -5.924320 -1.356654
-3.425507 -5.921569 -1.358204
-3.448557 -5.932705 -1.367877
-3.465868 -5.933484 -1.371569
-3.477057 -5.923608 -1.369064
-3.493292 -5.922322 -1.371614
-3.517832 -5.934773 -1.382278
-3.521144 -5.911706 -1.372082
-3.532072 -5.901428 -1.369419
-3.544773 -5.894073 -1.368502
-3.557136 -5.886174 -1.367283
-3.576145 -5.888768 -1.372330
-3.594243 -5.889708 -1.376442
-3.615230 -5.894911 -1.383151
-3.632718 -5.894478 -1.386543
-3.642448 -5.882165 -1.382841
-3.660006 -5.881627 -1.386244
-3.675289 -5.877561 -1.387563
-3.698503 -5.884984 -1.395877
-3.714261 -5.881288 -1.397513
-3.727103 -5.873316 -1.396586
-3.746026 -5.873924 -1.400923
-3.759793 -5.867117 -1.400776
-3.775492 -5.862937 -1.402274
-3.787644 -5.853796 -1.400759
-3.812339 -5.861647 -1.409755
-3.838871 -5.871593 -1.420134
-3.856698 -5.869588 -1.423189
-3.876449 -5.869947 -1.427767
-3.891687 -5.864236 -1.428617
-3.947224 -5.884416 -1.450287
-4.043622 -5.801874 -1.436053
-4.143058 -5.842591 -1.477749
-4.159097 -5.835968 -1.478726
-4.170415 -5.824008 -1.476250
-4.188115 -5.819080 -1.478411
-4.227888 -5.813556 -1.485742
-4.277099 -5.793093 -1.489011
-4.312047 -5.805269 -1.502923
-4.354314 -5.824461 -1.521685
-4.333211 -5.778860 -1.496783
-4.368676 -5.790671 -1.510688
-4.392743 -5.790715 -1.516690
-4.439143 -5.788479 -1.527260
-4.438790 -5.740970 -1.506672
-4.441452 -5.720312 -1.498400
-4.463589 -5.718067 -1.502885
-4.493352 -5.722737 -1.512224
-4.510856 -5.715923 -1.513541
-4.516915 -5.698713 -1.507505
-4.530225 -5.688192 -1.506119
-4.539157 -5.673846 -1.501958
-4.548269 -5.659807 -1.497932
-4.572300 -5.658906 -1.503220
-4.563164 -5.629318 -1.487869
-4.550032 -5.596793 -1.470211
-4.556694 -5.560926 -1.455455
-4.556037 -5.540096 -1.445748
-4.572259 -5.494333 -1.427903
-4.571960 -5.475037 -1.418656
-4.574745 -5.458529 -1.411291
-4.570728 -5.436994 -1.400011
-4.584656 -5.429802 -1.399227
-4.595099 -5.420081 -1.396408
-4.577381 -5.389076 -1.377460
-4.562172 -5.360556 -1.360128
-4.573946 -5.304914 -1.332852
-4.564194 -5.282551 -1.319135
-4.560617 -5.265074 -1.308941
-1.882385 -6.119738 -1.251511
-1.893032 -6.116099 -1.252524
-1.959403 -6.106495 -1.263395
-1.971189 -6.094534 -1.259733
-1.982453 -6.117261 -1.273584
-1.994272 -6.123085 -1.278821
-2.006563 -6.092425 -1.265434
-2.018654 -6.084033 -1.263286
-2.030809 -6.077944 -1.262240
-2.043000 -6.065480 -1.257864
-2.067538 -6.048800 -1.253114
-2.081193 -6.104970 -1.283763
-2.093638 -6.087764 -1.276708
-2.106169 -6.075327 -1.272035
-2.118798 -6.066230 -1.269020
-2.131820 -6.066782 -1.270927
-2.144729 -6.062709 -1.270402
-2.158883 -6.082579 -1.282218
-2.172191 -6.082043 -1.283455
-2.260473 -6.336603 -1.423093
-2.274978 -6.330461 -1.421385
-2.288470 -6.313349 -1.413934
-2.306219 -6.341706 -1.430190
-2.322327 -6.350581 -1.436284
-2.337770 -6.351976 -1.438468
-2.351141 -6.334456 -1.430747
-2.364439 -6.317588 -1.423349
-2.380471 -6.324157 -1.428229
-2.399648 -6.354481 -1.445593
-2.413149 -6.339654 -1.439263
-2.422786 -6.297929 -1.418777
-2.442345 -6.327956 -1.436041
-2.456569 -6.319984 -1.433320
-2.465405 -6.277606 -1.412451
-2.486109 -6.312017 -1.432108
-2.502638 -6.318841 -1.437234
-2.506577 -6.251460 -1.403115
-2.527011 -6.281614 -1.420613
-2.545653 -6.300007 -1.431926
-2.561683 -6.303257 -1.435242
-2.577091 -6.302980 -1.436710
-2.596910 -6.324895 -1.450008
-2.612024 -6.322389 -1.450350
-2.620608 -6.288625 -1.434048
-2.633757 -6.277767 -1.429958
-2.652395 -6.292326 -1.439462
-2.684117 -6.228802 -1.410759
-2.696248 -6.215769 -1.405564
-2.714388 -6.227522 -1.413702
-2.739712 -6.267093 -1.436856
-2.849325 -6.266497 -1.450529
-2.862091 -6.203928 -1.420716
-2.883677 -6.223474 -1.433508
-2.914682 -6.222010 -1.437088
-2.931663 -6.225655 -1.441320
-2.946229 -6.221735 -1.441438
-2.954832 -6.200096 -1.431843
-2.966281 -6.187350 -1.427136
-2.988303 -6.205245 -1.439327
-3.010118 -6.221829 -1.450856
-3.008425 -6.172379 -1.425934
-3.041382 -6.219148 -1.454239
-3.049358 -6.154304 -1.423203
-3.075145 -5.983116 -1.342490
-3.084776 -5.969661 -1.337427
-3.099818 -5.969175 -1.339673
-3.112273 -5.962556 -1.338487
-3.121195 -5.947887 -1.332768
-3.136551 -5.947995 -1.335417
-3.155230 -5.955348 -1.342207
-3.168303 -5.950046 -1.341851
-3.181457 -5.944910 -1.341609
-3.188337 -5.926348 -1.333728
-3.208131 -5.935365 -1.341603
-3.230747 -5.949874 -1.352675
-3.249038 -5.954962 -1.358407
-3.261327 -5.947592 -1.357019
-3.273737 -5.940499 -1.355808
-3.289443 -5.939943 -1.358387
-3.300171 -5.929528 -1.355297
-3.310409 -5.918269 -1.351727
-3.336744 -5.937783 -1.366040
-3.353544 -5.938727 -1.369626
-3.365397 -5.930297 -1.367783
-3.375458 -5.918618 -1.364056
-3.390510 -5.916111 -1.365710
-3.403260 -5.909378 -1.364913
-3.422085 -5.913395 -1.370463
-3.439417 -5.914542 -1.374369
-3.453125 -5.909231 -1.374500
-3.469991 -5.909274 -1.377829
-3.480693 -5.898738 -1.374917
-3.505845 -5.912401 -1.386417
-3.526947 -5.918896 -1.393723
-3.532233 -5.899268 -1.385470
-3.540833 -5.885256 -1.380571
-3.562035 -5.891487 -1.387837
-3.573824 -5.882559 -1.386036
-3.592533 -5.884446 -1.390783
-3.612428 -5.887941 -1.396555
-3.626472 -5.882261 -1.396819
-3.640749 -5.876877 -1.397292
-3.663015 -5.883343 -1.405025
-3.692368 -5.899940 -1.419021
-3.697390 -5.880490 -1.411025
-3.718823 -5.884960 -1.417719
-3.732902 -5.878645 -1.417835
-3.747730 -5.873334 -1.418603
-3.757199 -5.860458 -1.414721
-3.772907 -5.856288 -1.416260
-3.792948 -5.857936 -1.421465
-3.858011 -5.893980 -1.452583
-3.883470 -5.901766 -1.461897
-4.051134 -5.856549 -1.480497
-4.070825 -5.854821 -1.484443
-4.079571 -5.840127 -1.479997
-4.054383 -5.786293 -1.449952
-4.145102 -5.791974 -1.474641
-4.198490 -5.802052 -1.492271
-4.203170 -5.782931 -1.485036
-4.228857 -5.786331 -1.492922
-4.244418 -5.778773 -1.493495
-4.278475 -5.790430 -1.507112
-4.354394 -5.796145 -1.528651
-4.358012 -5.775836 -1.520695
-4.363132 -5.757212 -1.513853
-4.372293 -5.742718 -1.509826
-4.392457 -5.738995 -1.513257
-4.388694 -5.689253 -1.490554
-4.409319 -5.686039 -1.494286
-4.439866 -5.691961 -1.504475
-4.490982 -5.693835 -1.517916
-4.494159 -5.674267 -1.510020
-4.507188 -5.663763 -1.508515
-4.513092 -5.647011 -1.502455
-4.558616 -5.621935 -1.501940
-4.615717 -5.451762 -1.433190
-4.553730 -5.369174 -1.379277
-4.544971 -5.329492 -1.356935
-4.545733 -5.298398 -1.340362
-4.557683 -5.276718 -1.330297
-4.528900 -5.199418 -1.281774
-1.873093 -6.110881 -1.257253
-1.893172 -6.120675 -1.268060
-1.934781 -6.168985 -1.303730
-1.946981 -6.142235 -1.292765
-1.959577 -6.097206 -1.272350
-1.971189 -6.088267 -1.270252
-1.982609 -6.095437 -1.276332
-1.994258 -6.101284 -1.281681
-2.018253 -6.080189 -1.275331
-2.030336 -6.081779 -1.278298
-2.042466 -6.066826 -1.272659
-2.054712 -6.063461 -1.272934
-2.067674 -6.100220 -1.293939
-2.080169 -6.090744 -1.290947
-2.092850 -6.087686 -1.291222
-2.105231 -6.071887 -1.284811
-2.117929 -6.066613 -1.283812
-2.130443 -6.055500 -1.279712
-2.144005 -6.068191 -1.287987
-2.157394 -6.073078 -1.292156
-2.171909 -6.096066 -1.305767
-2.259560 -6.341235 -1.442284
-2.288589 -6.328989 -1.438917
-2.304417 -6.336699 -1.444501
-2.321567 -6.356203 -1.456314
-2.334314 -6.332036 -1.445039
-2.380549 -6.335437 -1.451303
-2.396502 -6.340075 -1.455253
-2.409295 -6.320349 -1.446264
-2.420219 -6.288437 -1.430777
-2.438440 -6.309472 -1.443464
-2.452138 -6.298481 -1.439109
-2.461755 -6.261656 -1.420971
-2.483747 -6.304608 -1.445421
-2.494837 -6.278615 -1.433067
-2.507905 -6.265724 -1.427716
-2.531995 -6.316144 -1.456289
-2.546463 -6.310373 -1.454801
-2.558617 -6.292415 -1.446783
-2.576470 -6.305015 -1.455192
-2.594263 -6.316502 -1.463040
-2.607946 -6.307010 -1.459624
-2.620873 -6.294274 -1.454472
-2.635584 -6.290405 -1.454117
-2.651580 -6.292478 -1.456995
-2.663809 -6.277572 -1.450714
-2.679078 -6.210523 -1.417980
-2.697047 -6.221950 -1.425999
-2.712395 -6.222126 -1.427944
-2.727278 -6.220331 -1.428845
-2.738537 -6.204436 -1.422085
-2.756994 -6.216419 -1.430548
-2.783389 -6.257303 -1.454849
-2.808990 -6.236735 -1.447646
-2.826693 -6.244024 -1.453708
-2.831496 -6.206613 -1.435251
-2.843644 -6.195220 -1.431084
-2.860069 -6.198258 -1.434879
-2.872284 -6.187393 -1.431039
-2.888670 -6.190072 -1.434694
-2.906435 -6.196834 -1.440644
-2.942605 -6.211184 -1.453126
-2.953338 -6.195940 -1.446971
-2.969235 -6.196150 -1.449423
-2.988389 -6.205560 -1.457036
-2.998266 -6.188308 -1.449809
-3.001056 -6.151767 -1.431796
-3.050165 -6.198885 -1.463106
-3.054441 -6.125520 -1.426894
-3.071911 -6.129686 -1.431766
-3.079086 -5.991831 -1.363925
-3.090647 -5.982779 -1.361325
-3.100217 -5.969154 -1.356133
-3.112241 -5.961459 -1.354328
-3.126198 -5.958250 -1.355104
-3.139810 -5.954203 -1.355424
-3.153368 -5.949998 -1.355676
-3.166376 -5.944551 -1.355238
-3.176837 -5.933585 -1.351640
-3.190849 -5.930347 -1.352511
-3.210551 -5.939038 -1.360305
-3.233742 -5.954611 -1.372139
-3.253198 -5.961955 -1.379265
-3.265673 -5.954803 -1.378009
-3.271961 -5.935293 -1.369568
-3.285680 -5.930806 -1.369891
-3.301991 -5.931332 -1.373170
-3.315480 -5.926248 -1.373198
-3.337499 -5.937365 -1.382769
-3.349098 -5.928464 -1.380615
-3.363690 -5.925177 -1.381788
-3.374440 -5.914762 -1.378776
-3.382951 -5.900379 -1.373422
-3.397799 -5.897521 -1.374916
-3.420387 -5.908259 -1.384535
-3.437663 -5.909294 -1.388432
-3.453932 -5.908401 -1.391219
-3.467302 -5.902412 -1.390990
-3.489477 -5.911250 -1.399693
-3.488227 -5.880646 -1.384714
-3.516412 -5.899103 -1.399302
-3.536672 -5.904051 -1.405813
-3.551039 -5.899217 -1.406451
-3.555845 -5.879087 -1.397821
-3.576653 -5.884439 -1.404705
-3.594892 -5.885496 -1.409028
-3.615043 -5.889295 -1.415081
-3.617308 -5.865587 -1.404306
-3.633212 -5.862767 -1.406363
-3.671926 -5.893806 -1.429355
-3.693227 -5.898326 -1.436090
-3.702088 -5.884433 -1.431469
-3.750046 -5.873564 -1.436918
-3.758275 -5.858891 -1.431890
-3.804950 -5.871166 -1.448098
-3.886215 -5.876040 -1.468938
-4.066978 -5.846482 -1.498427
-4.070936 -5.826231 -1.490266
-4.081569 -5.813879 -1.487319
-4.090041 -5.799089 -1.482767
-4.124149 -5.788956 -1.486683
-4.147748 -5.766842 -1.482709
-4.164432 -5.761088 -1.484331
-4.186392 -5.760897 -1.489768
-4.270010 -5.801610 -1.528919
-4.264411 -5.771679 -1.514249
-4.293355 -5.777719 -1.524254
-4.327229 -5.788447 -1.537588
-4.318832 -5.756083 -1.521149
-4.340115 -5.753812 -1.525545
-4.352829 -5.742908 -1.523948
-4.378605 -5.675707 -1.500681
-4.391239 -5.665106 -1.499136
-4.413383 -5.663395 -1.503911
-4.427016 -5.653717 -1.502976
-4.430516 -5.634836 -1.495372
-4.463495 -5.642799 -1.507071
-4.485227 -5.640413 -1.511302
-4.497467 -5.629546 -1.509332
-4.514109 -5.539242 -1.471498
-4.521546 -5.505644 -1.457236
-4.609044 -5.462533 -1.454405
-4.626760 -5.440468 -1.446466
-4.576095 -5.384448 -1.407702
-4.546999 -5.313629 -1.364538
-4.556987 -5.305431 -1.361663
-4.558469 -5.291230 -1.353961
-4.568721 -5.268991 -1.342824
-1.875957 -6.070636 -1.249834
-1.883160 -6.122645 -1.279272
-1.927302 -6.074845 -1.266437
-1.937672 -6.087399 -1.275613
-1.946085 -6.175390 -1.323591
-1.959068 -6.117599 -1.296487
-1.970610 -6.112720 -1.296550
-1.981969 -6.125623 -1.305748
-1.994156 -6.092344 -1.290954
-2.017886 -6.085384 -1.292013
-2.029939 -6.098445 -1.301062
-2.042225 -6.107635 -1.308050
-2.054680 -6.112114 -1.312527
-2.079723 -6.102259 -1.311460
-2.092427 -6.100193 -1.312333
-2.104347 -6.068556 -1.297597
-2.116864 -6.059927 -1.294881
-2.129778 -6.060933 -1.297183
-2.142960 -6.065570 -1.301358
-2.156548 -6.075603 -1.308347
-2.170771 -6.093892 -1.319677
-2.214187 -6.349900 -1.458674
-2.304849 -6.354858 -1.471162
-2.319300 -6.346812 -1.468436
-2.345280 -6.305482 -1.449412
-2.357521 -6.280663 -1.437631
-2.403427 -6.285752 -1.444881
-2.418094 -6.282108 -1.444435
-2.451991 -6.305728 -1.460215
-2.465749 -6.295318 -1.456148
-2.478438 -6.278741 -1.448752
-2.514594 -6.311638 -1.469703
-2.534614 -6.337427 -1.485293
-2.548381 -6.326983 -1.481277
-2.573742 -6.296157 -1.467869
-2.588187 -6.290776 -1.466630
-2.600600 -6.275541 -1.460039
-2.620438 -6.296664 -1.473284
-2.637661 -6.304342 -1.479238
-2.646108 -6.271451 -1.463051
-2.658117 -6.255912 -1.456345
-2.676100 -6.266972 -1.464219
-2.685584 -6.241304 -1.451987
-2.696241 -6.221557 -1.443002
-2.713798 -6.230567 -1.449830
-2.729425 -6.231400 -1.452197
-2.745457 -6.233645 -1.455374
-2.760842 -6.233218 -1.457106
-2.777544 -6.237582 -1.461516
-2.788957 -6.222361 -1.455122
-2.803291 -6.218056 -1.454786
-2.816119 -6.208515 -1.451567
-2.825852 -6.188578 -1.442587
-2.842978 -6.194178 -1.447817
-2.864416 -6.213700 -1.460844
-2.877735 -6.206014 -1.458749
-2.939637 -6.202649 -1.465924
-2.955326 -6.202166 -1.467994
-2.984791 -6.195329 -1.468915
-2.995619 -6.180830 -1.463157
-3.014834 -6.146104 -1.448412
-3.041259 -6.174614 -1.467073
-3.052930 -6.162987 -1.463004
-3.054758 -6.125883 -1.444440
-3.077729 -5.987723 -1.378219
-3.088947 -5.977833 -1.375112
-3.098718 -5.964674 -1.370132
-3.111230 -5.958095 -1.368956
-3.129339 -5.964350 -1.375220
-3.139424 -5.952189 -1.370859
-3.152025 -5.945807 -1.369859
-3.163331 -5.936606 -1.367238
-3.174336 -5.926855 -1.364309
-3.189622 -5.926352 -1.366790
-3.215487 -5.948002 -1.382263
-3.236182 -5.958180 -1.391095
-3.254778 -5.963632 -1.397209
-3.267069 -5.956014 -1.395680
-3.272824 -5.935361 -1.386483
-3.281518 -5.920878 -1.380918
-3.305097 -5.935623 -1.392657
-3.322423 -5.937805 -1.397015
-3.333106 -5.927140 -1.393778
-3.354565 -5.936815 -1.402669
-3.358268 -5.913154 -1.391720
-3.377986 -5.919252 -1.398554
-3.384651 -5.901410 -1.391087
-3.407701 -5.913140 -1.401384
-3.417437 -5.900896 -1.397313
-3.436833 -5.905645 -1.403507
-3.459776 -5.916239 -1.413291
-3.475490 -5.914085 -1.415417
-3.480690 -5.894088 -1.406733
-3.495636 -5.890623 -1.408107
-3.522881 -5.907324 -1.421830
-3.543615 -5.912869 -1.428818
-3.556324 -5.905194 -1.427755
-3.567329 -5.894805 -1.425047
-3.575114 -5.879407 -1.419265
-3.602774 -5.895099 -1.432702
-3.640522 -5.870988 -1.429263
-3.733279 -5.873155 -1.450769
-3.782635 -5.837516 -1.445146
-3.803303 -5.839831 -1.450990
-3.817915 -5.833815 -1.451554
-4.066669 -5.817422 -1.503843
-4.068579 -5.770743 -1.483114
-4.085711 -5.766048 -1.485280
-4.121493 -5.782056 -1.501519
-4.144728 -5.759575 -1.497249
-4.188661 -5.759316 -1.508297
-4.226521 -5.775720 -1.525317
-4.278691 -5.734892 -1.520366
-4.301497 -5.734513 -1.526040
-4.314725 -5.701210 -1.514505
-4.332422 -5.672793 -1.506272
-4.368754 -5.685049 -1.521027
-4.370691 -5.664284 -1.512163
-4.370241 -5.641525 -1.501773
-4.381723 -5.630143 -1.499508
-4.400558 -5.625593 -1.502154
-4.489448 -5.576569 -1.501227
-4.527442 -5.588476 -1.515786
-4.512877 -5.535175 -1.487069
-4.530165 -5.529677 -1.488340
-4.582686 -5.404794 -1.436153
-4.598455 -5.399789 -1.436379
-4.578654 -5.368085 -1.415673
-4.624825 -5.338607 -1.406844
-4.541761 -5.207371 -1.317292
-1.904455 -6.122174 -1.298245
-1.936553 -6.127201 -1.309616
-1.947611 -6.128389 -1.313043
-1.958599 -6.139091 -1.321367
-1.969826 -6.150167 -1.329846
-1.981419 -6.154303 -1.334655
-2.005651 -6.101259 -1.311925
-2.029581 -6.098248 -1.315094
-2.041829 -6.113161 -1.325241
-2.054308 -6.124029 -1.333214
-2.066726 -6.115413 -1.330836
-2.079412 -6.117932 -1.334284
-2.115983 -6.057022 -1.307878
-2.130804 -6.108407 -1.337110
-2.143585 -6.099753 -1.334332
-2.154964 -6.062294 -1.316109
-2.168289 -6.066060 -1.319842
-2.287607 -6.346512 -1.482126
-2.303972 -6.359241 -1.490640
-2.317089 -6.337731 -1.480655
-2.346668 -6.329635 -1.479479
-2.366415 -6.240569 -1.434334
-2.382674 -6.251518 -1.441808
-2.405728 -6.312737 -1.476617
-2.432554 -6.285748 -1.465067
-2.447904 -6.286469 -1.467030
-2.461866 -6.277919 -1.463943
-2.475019 -6.264683 -1.458298
-2.511801 -6.301975 -1.481909
-2.526242 -6.296128 -1.480348
-2.531725 -6.240876 -1.451698
-2.558020 -6.300612 -1.486146
-2.567196 -6.267398 -1.469587
-2.582096 -6.264965 -1.469950
-2.598333 -6.269151 -1.473979
-2.613575 -6.268205 -1.475206
-2.632912 -6.286389 -1.487019
-2.646422 -6.276901 -1.483583
-2.656313 -6.251615 -1.471417
-2.673623 -6.259711 -1.477742
-2.686365 -6.247895 -1.473058
-2.694468 -6.217226 -1.457912
-2.708469 -6.211764 -1.456772
-2.728289 -6.229522 -1.468583
-2.741666 -6.221362 -1.465997
-2.757471 -6.222658 -1.468706
-2.774252 -6.227407 -1.473378
-2.792068 -6.235607 -1.480018
-2.795216 -6.190916 -1.457056
-2.806621 -6.176791 -1.451212
-2.826327 -6.191614 -1.461645
-2.844512 -6.200612 -1.468852
-2.866923 -6.223117 -1.483719
-2.882418 -6.222202 -1.485433
-2.903590 -6.189316 -1.471375
-2.918977 -6.188302 -1.473097
-2.936941 -6.194972 -1.479213
-2.953427 -6.196883 -1.482666
-2.978274 -6.176743 -1.476012
-3.002469 -6.155521 -1.468797
-2.995966 -6.094326 -1.436223
-3.028880 -6.141022 -1.465493
-3.038339 -6.123962 -1.458229
-3.056896 -6.131018 -1.464853
-3.065048 -6.110973 -1.455891
-3.089449 -6.053349 -1.430420
-3.073225 -5.976010 -1.388154
-3.079638 -5.954748 -1.378391
-3.098116 -5.962311 -1.385417
-3.114290 -5.964176 -1.389166
-3.127937 -5.960063 -1.389453
-3.138642 -5.949283 -1.385856
-3.150309 -5.940788 -1.383611
-3.163866 -5.936520 -1.383867
-3.171272 -5.918908 -1.376283
-3.185097 -5.915315 -1.376971
-3.213578 -5.942531 -1.395915
-3.234803 -5.953800 -1.405502
-3.251409 -5.955147 -1.409256
-3.261245 -5.942595 -1.404777
-3.269825 -5.927695 -1.398902
-3.286874 -5.929731 -1.403150
-3.306534 -5.936643 -1.410360
-3.322897 -5.936882 -1.413619
-3.337833 -5.934240 -1.415185
-3.342892 -5.912969 -1.405554
-3.375257 -5.942667 -1.426692
-3.389212 -5.937775 -1.427009
-3.399275 -5.925796 -1.423054
-3.406567 -5.908984 -1.416169
-3.416863 -5.897714 -1.412657
-3.439106 -5.907389 -1.421947
-3.465355 -5.923576 -1.435291
-3.471394 -5.904776 -1.427258
-3.500705 -5.896655 -1.429335
-3.571885 -5.899443 -1.445731
-3.604469 -5.895029 -1.450595
-3.617743 -5.887989 -1.450060
-3.626786 -5.874493 -1.445494
-3.652937 -5.886822 -1.457213
-3.680784 -5.901214 -1.470328
-3.680534 -5.847173 -1.444247
-3.698291 -5.846463 -1.447910
-3.770481 -5.843507 -1.463023
-3.784005 -5.836167 -1.462676
-3.798030 -5.804004 -1.450723
-3.986253 -5.817387 -1.502467
-4.149248 -5.784647 -1.528465
-4.144322 -5.755154 -1.513754
-4.247028 -5.721919 -1.525137
-4.277822 -5.706636 -1.526167
-4.292447 -5.698160 -1.526098
-4.316618 -5.676196 -1.522346
-4.340819 -5.632147 -1.508445
-4.351391 -5.620064 -1.505593
-4.423330 -5.642793 -1.534195
-4.443717 -5.639446 -1.537735
-4.452429 -5.625527 -1.533420
-4.487308 -5.613550 -1.536341
-4.478707 -5.584831 -1.520692
-4.498105 -5.580799 -1.523401
-4.603061 -5.587522 -1.550901
-4.594820 -5.395440 -1.449790
-4.615308 -5.361811 -1.434501
-4.622103 -5.320546 -1.411561
-4.540701 -5.247335 -1.356131
-1.937137 -6.118160 -1.318391
-1.947940 -6.124400 -1.324557
-1.970130 -6.138859 -1.337791
-1.981367 -6.157046 -1.350124
-1.993191 -6.152828 -1.350575
-2.017359 -6.091486 -1.323171
-2.053686 -6.105592 -1.337805
-2.066333 -6.122486 -1.349093
-2.078906 -6.120901 -1.350455
-2.090726 -6.083877 -1.332757
-2.104402 -6.118609 -1.353469
-2.117700 -6.128973 -1.361078
-2.130456 -6.119937 -1.358204
-2.142899 -6.103342 -1.351189
-2.154326 -6.067211 -1.333555
-2.166850 -6.056448 -1.329540
-2.216785 -6.205678 -1.415639
-2.264034 -6.260524 -1.450613
-2.298570 -6.315641 -1.484026
-2.331712 -6.344325 -1.503039
-2.345995 -6.335207 -1.499709
-2.359543 -6.320151 -1.493106
-2.403912 -6.308609 -1.491638
-2.417777 -6.298057 -1.487450
-2.440550 -6.245003 -1.461438
-2.454742 -6.239285 -1.459880
-2.473158 -6.260414 -1.473154
-2.489947 -6.270047 -1.480107
-2.506639 -6.278336 -1.486340
-2.519975 -6.266743 -1.481582
-2.549955 -6.262997 -1.482870
-2.561176 -6.241351 -1.472547
-2.577618 -6.247342 -1.477598
-2.593618 -6.250691 -1.481207
-2.612277 -6.266554 -1.491822
-2.628678 -6.270876 -1.496037
-2.641192 -6.257056 -1.490138
-2.655119 -6.250104 -1.488092
-2.669296 -6.244448 -1.486789
-2.685608 -6.248027 -1.490686
-2.694648 -6.221074 -1.477464
-2.705802 -6.203809 -1.469682
-2.719421 -6.196980 -1.467781
-2.751000 -6.200344 -1.473644
-2.770066 -6.213942 -1.483360
-2.775812 -6.178234 -1.465215
-2.781040 -6.141978 -1.446736
-2.826399 -6.193319 -1.480094
-2.847287 -6.211283 -1.492492
-2.864959 -6.217794 -1.498424
-2.883404 -6.226440 -1.505615
-2.893327 -6.157928 -1.471021
-2.910097 -6.161610 -1.475434
-2.918701 -6.140333 -1.465556
-2.965267 -6.185287 -1.496179
-2.986974 -6.112406 -1.461474
-3.011619 -6.136993 -1.478211
-3.021763 -6.121624 -1.471832
-3.030881 -6.103868 -1.464069
-3.031432 -6.064165 -1.443523
-3.052369 -6.077893 -1.454104
-3.061340 -6.060784 -1.446724
-3.078048 -6.063321 -1.450844
-3.087909 -6.010738 -1.425329
-3.078224 -5.950510 -1.392569
-3.096270 -5.957033 -1.399067
-3.115527 -5.966030 -1.407074
-3.130384 -5.964575 -1.408949
-3.144825 -5.962072 -1.410233
-3.155186 -5.950423 -1.406115
-3.163474 -5.934394 -1.399398
-3.185304 -5.947927 -1.410304
-3.195066 -5.935202 -1.405590
-3.202206 -5.917145 -1.397691
-3.229536 -5.941340 -1.415122
-3.244054 -5.938490 -1.416397
-3.256179 -5.930714 -1.414735
-3.270793 -5.927952 -1.416116
-3.287802 -5.929826 -1.420330
-3.306360 -5.934508 -1.426287
-3.324135 -5.937410 -1.431213
-3.338744 -5.934065 -1.432386
-3.357884 -5.939138 -1.438721
-3.365624 -5.922809 -1.432033
-3.382708 -5.923809 -1.435953
-3.394788 -5.915576 -1.434251
-3.500527 -5.893918 -1.445309
-3.574419 -5.929094 -1.478513
-3.574673 -5.901226 -1.464817
-3.575620 -5.874895 -1.452055
-3.623032 -5.893326 -1.471532
-3.661244 -5.896413 -1.481550
-3.686276 -5.906422 -1.492060
-3.699262 -5.898339 -1.491060
-3.695277 -5.865602 -1.474238
-3.701895 -5.848613 -1.467510
-3.716154 -5.842658 -1.467910
-3.780126 -5.827638 -1.475627
-3.795377 -5.822598 -1.476829
-3.804890 -5.809832 -1.472992
-3.818736 -5.802840 -1.472976
-3.871621 -5.821177 -1.494490
-3.959400 -5.781164 -1.497290
-3.979940 -5.781327 -1.502524
-4.053515 -5.769994 -1.515911
-4.069183 -5.763677 -1.516993
-4.118912 -5.723465 -1.511238
-4.151700 -5.735356 -1.525232
-4.172832 -5.710817 -1.519441
-4.306504 -5.662414 -1.532000
-4.320502 -5.631177 -1.521166
-4.355864 -5.620513 -1.525260
-4.358010 -5.600738 -1.516569
-4.445108 -5.637079 -1.555534
-4.562116 -5.698119 -1.613419
-4.579545 -5.487864 -1.513085
-1.905265 -6.127321 -1.327347
-1.927938 -6.085680 -1.311633
-1.937667 -6.112718 -1.328935
-1.970500 -6.127670 -1.345640
-2.005143 -6.136291 -1.358503
-2.041465 -6.166750 -1.382599
-2.078530 -6.127324 -1.368499
-2.090184 -6.084472 -1.347540
-2.104340 -6.138119 -1.378796
-2.117056 -6.130270 -1.376675
-2.129625 -6.117627 -1.371880
-2.153791 -6.073298 -1.351687
-2.165845 -6.053973 -1.343020
-2.247746 -6.252987 -1.461162
-2.385022 -6.289964 -1.496942
-2.434063 -6.209184 -1.458554
-2.455588 -6.252635 -1.484415
-2.486660 -6.257112 -1.490233
-2.502770 -6.262267 -1.494795
-2.533859 -6.264880 -1.499664
-2.546132 -6.248183 -1.492016
-2.556430 -6.221945 -1.479003
-2.569723 -6.212292 -1.475310
-2.589697 -6.236172 -1.490516
-2.606874 -6.245149 -1.497369
-2.623020 -6.248684 -1.501184
-2.634198 -6.229135 -1.491977
-2.647240 -6.218760 -1.487962
-2.666264 -6.234868 -1.498964
-2.694804 -6.224902 -1.497155
-2.700942 -6.186981 -1.477548
-2.731933 -6.188549 -1.482391
-2.753366 -6.211713 -1.497636
-2.750288 -6.142367 -1.460058
-2.767751 -6.150774 -1.466914
-2.778677 -6.135315 -1.460132
-2.809077 -6.188675 -1.492856
-2.824629 -6.188742 -1.495064
-2.868006 -6.229108 -1.522763
-2.878691 -6.212210 -1.515306
-2.891078 -6.151673 -1.484926
-2.893632 -6.111598 -1.464021
-2.912699 -6.122722 -1.472806
-2.940125 -6.158167 -1.495784
-2.960545 -6.171801 -1.506157
-2.981089 -6.139949 -1.492536
-2.988423 -6.116416 -1.481280
-3.025378 -6.131135 -1.495006
-3.030798 -6.103335 -1.481266
-3.042131 -6.091674 -1.477011
-3.065530 -6.070812 -1.469988
-3.071116 -6.045396 -1.457624
-3.059822 -5.942003 -1.401613
-3.081762 -5.958085 -1.413834
-3.098223 -5.960688 -1.418087
-3.113045 -5.959273 -1.419980
-3.134671 -5.973286 -1.431136
-3.150794 -5.974367 -1.434604
-3.163195 -5.967000 -1.433035
-3.176327 -5.961284 -1.432479
-3.194158 -5.965720 -1.438067
-3.206027 -5.957176 -1.435858
-3.204566 -5.920664 -1.416736
-3.215295 -5.910261 -1.413399
-3.237822 -5.924144 -1.424834
-3.280633 -5.913950 -1.427866
-3.452196 -5.925665 -1.468521
-3.467278 -5.922230 -1.469952
-3.492041 -5.935169 -1.481699
-3.501005 -5.921077 -1.476519
-3.503370 -5.896173 -1.464523
-3.521429 -5.897440 -1.469048
-3.546466 -5.909830 -1.480675
-3.563284 -5.908571 -1.483717
-3.557134 -5.870726 -1.463496
-3.591505 -5.869418 -1.470467
-3.681101 -5.895761 -1.503741
-3.696488 -5.837793 -1.478820
-3.719415 -5.844177 -1.487301
-3.730166 -5.833145 -1.484443
-3.742177 -5.823905 -1.482781
-3.756060 -5.817243 -1.482844
-3.772899 -5.814541 -1.485561
-3.792984 -5.816061 -1.491130
-3.821484 -5.803065 -1.491773
-3.831148 -5.790505 -1.488093
-3.890273 -5.766404 -1.491211
-3.935768 -5.773337 -1.505955
-3.945237 -5.760343 -1.502190
-3.954922 -5.747670 -1.498654
-4.033992 -5.767898 -1.528477
-4.057502 -5.722641 -1.513331
-4.100607 -5.699593 -1.513825
-4.199013 -5.687704 -1.534168
-4.242849 -5.709583 -1.555899
-4.238564 -5.682104 -1.541971
-4.247689 -5.645798 -1.527436
-4.294841 -5.647193 -1.540413
-4.347192 -5.652815 -1.556640
-4.334741 -5.575624 -1.516945
-4.386066 -5.601392 -1.542207
-4.437526 -5.626648 -1.567211
-4.422817 -5.570878 -1.536667
-4.527775 -5.600102 -1.576278
-4.554170 -5.314424 -1.428568
-2.017026 -6.119242 -1.366035
-2.028971 -6.162732 -1.392276
-2.041189 -6.158237 -1.392462
-2.053046 -6.107470 -1.367386
-2.091542 -6.161774 -1.404265
-2.116636 -6.136436 -1.394935
-2.153007 -6.073157 -1.366439
-2.232411 -6.254941 -1.476719
-2.321528 -6.270765 -1.496469
-2.349454 -6.254288 -1.490721
-2.398881 -6.289390 -1.515535
-2.412354 -6.276566 -1.510034
-2.427927 -6.279267 -1.513256
-2.469333 -6.251191 -1.502530
-2.483707 -6.246167 -1.501396
-2.495162 -6.223961 -1.490543
-2.513961 -6.245179 -1.504273
-2.550008 -6.275005 -1.524698
-2.570494 -6.221429 -1.497811
-2.579197 -6.188965 -1.481112
-2.618565 -6.232154 -1.509378
-2.644605 -6.210876 -1.500958
-2.677372 -6.155496 -1.474930
-2.690467 -6.147306 -1.472161
-2.763665 -6.194494 -1.507456
-2.771016 -6.164737 -1.492345
-2.776527 -6.129465 -1.474020
-2.799312 -6.156110 -1.491608
-2.815187 -6.105691 -1.466642
-2.887125 -6.189584 -1.522357
-2.885818 -6.136017 -1.493361
-2.895041 -6.116627 -1.484340
-2.907348 -6.107107 -1.481113
-2.944899 -6.126423 -1.497295
-2.981884 -6.098249 -1.488134
-3.008249 -6.127559 -1.508049
-3.024447 -6.086223 -1.488716
-3.033327 -6.068329 -1.480692
-3.063262 -6.104904 -1.505165
-3.075294 -6.055162 -1.480864
-3.063725 -5.988019 -1.443334
-3.079835 -5.952640 -1.427483
-3.095416 -5.953166 -1.430535
-3.177167 -5.961840 -1.450019
-3.198205 -5.973110 -1.459850
-3.210655 -5.965624 -1.458285
-3.205565 -5.921310 -1.434192
-3.263286 -5.941798 -1.455986
-3.259739 -5.902513 -1.434901
-3.303942 -5.958096 -1.472426
-3.317367 -5.952274 -1.472079
-3.313155 -5.912581 -1.450720
-3.322717 -5.899827 -1.446063
-3.342620 -5.906584 -1.453584
-3.371825 -5.930213 -1.471711
-3.394096 -5.940435 -1.481544
-3.429589 -5.913488 -1.475142
-3.441886 -5.905409 -1.473616
-3.452953 -5.895233 -1.470784
-3.499817 -5.916609 -1.491731
-3.520762 -5.893794 -1.484729
-3.537139 -5.892089 -1.487470
-3.545810 -5.877894 -1.482225
-3.578097 -5.873345 -1.487153
-3.584099 -5.855169 -1.479383
-3.594071 -5.843301 -1.475702
-3.615530 -5.848908 -1.483411
-3.640105 -5.858874 -1.494039
-3.691402 -5.827418 -1.490394
-3.706688 -5.822999 -1.491834
-3.722025 -5.818555 -1.493300
-3.761361 -5.821252 -1.504092
-3.770570 -5.808080 -1.499868
-3.804862 -5.803055 -1.505805
-3.836722 -5.794291 -1.509422
-3.887432 -5.759270 -1.505221
-3.916923 -5.771173 -1.518452
-3.942665 -5.778051 -1.528333
-3.948317 -5.760345 -1.521293
-3.958449 -5.724030 -1.506542
-4.000134 -5.748916 -1.529237
-4.030016 -5.759426 -1.542030
-4.050333 -5.758562 -1.546931
-4.047003 -5.730724 -1.532842
-4.046778 -5.683275 -1.510302
-4.151170 -5.703274 -1.547398
-4.244357 -5.638633 -1.541585
-4.344480 -5.581096 -1.540114
-4.362550 -5.576412 -1.542424
-4.482620 -5.498657 -1.532432
-4.456846 -5.439479 -1.495864
-2.005578 -6.087412 -1.359854
-2.040985 -6.149541 -1.402092
-2.066352 -6.199539 -1.434868
-2.089953 -6.113360 -1.392337
-2.103298 -6.138959 -1.408877
-2.114980 -6.103542 -1.391583
-2.128567 -6.123986 -1.405180
-2.140932 -6.108689 -1.398886
-2.199861 -6.205819 -1.461469
-2.341234 -6.192953 -1.472914
-2.358681 -6.217013 -1.488277
-2.395816 -6.275317 -1.524844
-2.409354 -6.263476 -1.519874
-2.452395 -6.247339 -1.515919
-2.477553 -6.215488 -1.501212
-2.511429 -6.237094 -1.517074
-2.530869 -6.260623 -1.532339
-2.547610 -6.267958 -1.538353
-2.545532 -6.175627 -1.487123
-2.569732 -6.222798 -1.516041
-2.584868 -6.222127 -1.517487
-2.594032 -6.192424 -1.502211
-2.611367 -6.202678 -1.509982
-2.643071 -6.207964 -1.516827
-2.666276 -6.175930 -1.502136
-2.667984 -6.119546 -1.471350
-2.680239 -6.108610 -1.466938
-2.697944 -6.119765 -1.475397
-2.736046 -6.150544 -1.497392
-2.755177 -6.165072 -1.507964
-2.797952 -6.153082 -1.507382
-2.838697 -6.134575 -1.503177
-2.853852 -6.133717 -1.504952
-2.866609 -6.125100 -1.502172
-2.886747 -6.091818 -1.487151
-2.925424 -6.115407 -1.505956
-2.947901 -6.135566 -1.520423
-2.940150 -6.068043 -1.482661
-2.938878 -6.020926 -1.456997
-2.967499 -6.058296 -1.481829
-3.005940 -6.121173 -1.522055
-3.012339 -6.095676 -1.509386
-3.016881 -6.065912 -1.494135
-3.031995 -6.064494 -1.495933
-3.050848 -6.072571 -1.503490
-3.073870 -6.050987 -1.495914
-3.076227 -5.943201 -1.438745
-3.119991 -5.937633 -1.443740
-3.141048 -5.950140 -1.454275
-3.195019 -5.964875 -1.472223
-3.208640 -5.959912 -1.472203
-3.195349 -5.898386 -1.437186
-3.209809 -5.895860 -1.438659
-3.272563 -5.926377 -1.467049
-3.293878 -5.936497 -1.476610
-3.310126 -5.936355 -1.479807
-3.319798 -5.923443 -1.475021
-3.323934 -5.900201 -1.463742
-3.342731 -5.904799 -1.470003
-3.368168 -5.921388 -1.483900
-3.407571 -5.962890 -1.513674
-3.430615 -5.973725 -1.524133
-3.424552 -5.932293 -1.501400
-3.433336 -5.917805 -1.495781
-3.430804 -5.883820 -1.477699
-3.441209 -5.872693 -1.474212
-3.506478 -5.896300 -1.500616
-3.513237 -5.878883 -1.493201
-3.524237 -5.868561 -1.490383
-3.562242 -5.873425 -1.501425
-3.566849 -5.852978 -1.492083
-3.579659 -5.845505 -1.491226
-3.589149 -5.832939 -1.487051
-3.633604 -5.819459 -1.490625
-3.658998 -5.830264 -1.502052
-3.686973 -5.817969 -1.502562
-3.720946 -5.813845 -1.508700
-3.744981 -5.821318 -1.518267
-3.762901 -5.820061 -1.522028
-3.828158 -5.804929 -1.530749
-3.841713 -5.797268 -1.530394
-3.852359 -5.785834 -1.527477
-3.840632 -5.721601 -1.493081
-3.880044 -5.746468 -1.515313
-3.910558 -5.759666 -1.529596
-3.928725 -5.757357 -1.533176
-4.044376 -5.700163 -1.536027
-4.107972 -5.676438 -1.541655
-4.133641 -5.680691 -1.550560
-4.145724 -5.670379 -1.548869
-4.155940 -5.658139 -1.545755
-4.179401 -5.659601 -1.552733
-4.179483 -5.637017 -1.541952
-4.186910 -5.622122 -1.536803
-4.248974 -5.639373 -1.561584
-4.463988 -5.519361 -1.556390
-4.582860 -5.414171 -1.523766
-2.028847 -6.131647 -1.403689
-2.101486 -6.090158 -1.396362
-2.114559 -6.105566 -1.407379
-2.140025 -6.101736 -1.409870
-2.200597 -6.231221 -1.491632
-2.341944 -6.209247 -1.498788
-2.432704 -6.224144 -1.518084
-2.445961 -6.212655 -1.513241
-2.492823 -6.223565 -1.524889
-2.510911 -6.240596 -1.536550
-2.551566 -6.212950 -1.525998
-2.581162 -6.208690 -1.527230
-2.594388 -6.198876 -1.523390
-2.606789 -6.185529 -1.517494
-2.653671 -6.190996 -1.526483
-2.676944 -6.098181 -1.477933
-2.728960 -6.125966 -1.500382
-2.745176 -6.129999 -1.504858
-2.787349 -6.172128 -1.534104
-2.794019 -6.141055 -1.517886
-2.824611 -6.140414 -1.521986
-2.836348 -6.128111 -1.516943
-2.841025 -6.093158 -1.498394
-2.876041 -6.059600 -1.485309
-2.893313 -6.065876 -1.491455
-2.958858 -6.077552 -1.508373
-2.979941 -6.092938 -1.520245
-2.993623 -6.087442 -1.519526
-3.006926 -6.080959 -1.518232
-3.019814 -6.073432 -1.516325
-3.030740 -6.060877 -1.511376
-3.051216 -6.073074 -1.521537
-3.057637 -6.049224 -1.509730
-3.061646 -6.019936 -1.494579
-3.074432 -6.012896 -1.493045
-3.115596 -5.962179 -1.473182
-3.153162 -5.941099 -1.468901
-3.186308 -5.910961 -1.459146
-3.215173 -5.905456 -1.461862
-3.245905 -5.935906 -1.484141
-3.261382 -5.934619 -1.486545
-3.288319 -5.956032 -1.503316
-3.279015 -5.905478 -1.474659
-3.294862 -5.904868 -1.477570
-3.315166 -5.912657 -1.485855
-3.323544 -5.897516 -1.479606
-3.328292 -5.875802 -1.469165
-3.354326 -5.893755 -1.484069
-3.396184 -5.939955 -1.517171
-3.417439 -5.917376 -1.509890
-3.422929 -5.897207 -1.500540
-3.437461 -5.863889 -1.486348
-3.453918 -5.863149 -1.489590
-3.485896 -5.888263 -1.509720
-3.503117 -5.888177 -1.513522
-3.488078 -5.835109 -1.482695
-3.508785 -5.840927 -1.490386
-3.541134 -5.865055 -1.510190
-3.557757 -5.863589 -1.513248
-3.541468 -5.810534 -1.482246
-3.598227 -5.843954 -1.512584
-3.608193 -5.832015 -1.508832
-3.609420 -5.807104 -1.496427
-3.625722 -5.804828 -1.499151
-3.657524 -5.825059 -1.517042
-3.679444 -5.830379 -1.525021
-3.686290 -5.813858 -1.518326
-3.693584 -5.798138 -1.512171
-3.715048 -5.802373 -1.519570
-3.757262 -5.809015 -1.533352
-3.789674 -5.801482 -1.537693
-3.818952 -5.789373 -1.539066
-3.844308 -5.797093 -1.549361
-3.884553 -5.748434 -1.535691
-3.907371 -5.727687 -1.531459
-3.918504 -5.717002 -1.529149
-3.942317 -5.697511 -1.525915
-3.965203 -5.700552 -1.533480
-4.009027 -5.703617 -1.546671
-4.113373 -5.655280 -1.551327
-4.128848 -5.648762 -1.552349
-4.152367 -5.627926 -1.548596
-4.380444 -5.564998 -1.577367
-2.113966 -6.100241 -1.419004
-2.215066 -6.250527 -1.520836
-2.327069 -6.216770 -1.517899
-2.338649 -6.190127 -1.504411
-2.411763 -6.189796 -1.513440
-2.468968 -6.176568 -1.512981
-2.509048 -6.236314 -1.551579
-2.540763 -6.161430 -1.513246
-2.557667 -6.171477 -1.521009
-2.574850 -6.182202 -1.529200
-2.586020 -6.162968 -1.519769
-2.650876 -6.182540 -1.539121
-2.651901 -6.121452 -1.504914
-2.659865 -6.092115 -1.489489
-2.678500 -6.107601 -1.500686
-2.690047 -6.093937 -1.494586
-2.705537 -6.096156 -1.497954
-2.722965 -6.105561 -1.505642
-2.742858 -6.123662 -1.518569
-2.782327 -6.156123 -1.542355
-2.843573 -6.102654 -1.521613
-2.853040 -6.083849 -1.512604
-2.861230 -6.061587 -1.501501
-2.881153 -6.076136 -1.512700
-2.887881 -6.050092 -1.499320
-2.906214 -6.059334 -1.507375
-2.976925 -6.084635 -1.532972
-2.987488 -6.070640 -1.527038
-3.003540 -6.071718 -1.530362
-3.019307 -6.071858 -1.533147
-3.068449 -6.036273 -1.522278
-3.069845 -6.000966 -1.503226
-3.081552 -5.991458 -1.500160
-3.091792 -5.941914 -1.475040
-3.111535 -5.951794 -1.484096
-3.122232 -5.940623 -1.480037
-3.133442 -5.930765 -1.476814
-3.149977 -5.932831 -1.481096
-3.203145 -5.945370 -1.498207
-3.216981 -5.940861 -1.498509
-3.225310 -5.924911 -1.491581
-3.254572 -5.951997 -1.512012
-3.275878 -5.962171 -1.521780
-3.267498 -5.881061 -1.476619
-3.274680 -5.863871 -1.468916
-3.300006 -5.881707 -1.483710
-3.312971 -5.875557 -1.483154
-3.333334 -5.852961 -1.475458
-3.363909 -5.878983 -1.495818
-3.388737 -5.893866 -1.509060
-3.407409 -5.897275 -1.514923
-3.421299 -5.892035 -1.515199
-3.429844 -5.877476 -1.509409
-3.453301 -5.859660 -1.505267
-3.482943 -5.880797 -1.523021
-3.487832 -5.860310 -1.513404
-3.487942 -5.804607 -1.484345
-3.520307 -5.829068 -1.504560
-3.531168 -5.818833 -1.501766
-3.526817 -5.784905 -1.483144
-3.566712 -5.819860 -1.510644
-3.578493 -5.810942 -1.508826
-3.599279 -5.815629 -1.516202
-3.618849 -5.818213 -1.522230
-3.627691 -5.804728 -1.517434
-3.650807 -5.812179 -1.526872
-3.676063 -5.796101 -1.524839
-3.691341 -5.791780 -1.526413
-3.723240 -5.784701 -1.530769
-3.740785 -5.783167 -1.534404
-3.759900 -5.758269 -1.526666
-3.810154 -5.774362 -1.547643
-3.864896 -5.744863 -1.547108
-3.945803 -5.697851 -1.545261
-4.098269 -5.658266 -1.567085
-4.105299 -5.642870 -1.561446
-4.388991 -5.633440 -1.632430
-4.432434 -5.526492 -1.587965
-2.396685 -6.195585 -1.531870
-2.439065 -6.182092 -1.529585
-2.513338 -6.180807 -1.538195
-2.531770 -6.119281 -1.505471
-2.558260 -6.104189 -1.500252
-2.642023 -6.147474 -1.535809
-2.636131 -6.057357 -1.483822
-2.700943 -6.080902 -1.506071
-2.738084 -6.108152 -1.526757
-2.761851 -6.139793 -1.548072
-2.774451 -6.129884 -1.544303
-2.791277 -6.135114 -1.549730
-2.865346 -6.075453 -1.527445
-2.906477 -6.060682 -1.525755
-2.928193 -6.079227 -1.539688
-2.947262 -6.089393 -1.548524
-2.947415 -6.045614 -1.524103
-2.969479 -6.064040 -1.538105
-2.987947 -6.029653 -1.522119
-3.012834 -6.054506 -1.540264
-3.024784 -6.044714 -1.536923
-3.033033 -6.025580 -1.527772
-3.049083 -6.026594 -1.531204
-3.081750 -5.991181 -1.517584
-3.092042 -5.978348 -1.512418
-3.092433 -5.942513 -1.492758
-3.104495 -5.934534 -1.490648
-3.118876 -5.931915 -1.491947
-3.120220 -5.899927 -1.474658
-3.145325 -5.921319 -1.491238
-3.160332 -5.919905 -1.493396
-3.183064 -5.935022 -1.506129
-3.218833 -5.943251 -1.517744
-3.234233 -5.941822 -1.520072
-3.241194 -5.923041 -1.511282
-3.262749 -5.934000 -1.521643
-3.269394 -5.914858 -1.512643
-3.269689 -5.883578 -1.495782
-3.278219 -5.868898 -1.489639
-3.283432 -5.848081 -1.479511
-3.334521 -5.883401 -1.509423
-3.335748 -5.855346 -1.494624
-3.342285 -5.837483 -1.486469
-3.375696 -5.868206 -1.510226
-3.398479 -5.879139 -1.521089
-3.420229 -5.887829 -1.530553
-3.398240 -5.820323 -1.489684
-3.418790 -5.827112 -1.497919
-3.468666 -5.883197 -1.538991
-3.467627 -5.824342 -1.507593
-3.455969 -5.777487 -1.480155
-3.480640 -5.790194 -1.492594
-3.524008 -5.804793 -1.510462
-3.546992 -5.813607 -1.520536
-3.554434 -5.771381 -1.500243
-3.564799 -5.760723 -1.497193
-3.616382 -5.811534 -1.536182
-3.630218 -5.805414 -1.536390
-3.631616 -5.781122 -1.524143
-3.650960 -5.783037 -1.529926
-3.658353 -5.767693 -1.523844
-3.681243 -5.774333 -1.533003
-3.732054 -5.767913 -1.542584
-3.806643 -5.741297 -1.548331
-3.823325 -5.737981 -1.551032
-3.867550 -5.720060 -1.553702
-3.883836 -5.691766 -1.543841
-3.889908 -5.675284 -1.537211
-3.926751 -5.695429 -1.557237
-3.946505 -5.694904 -1.562320
-4.044840 -5.642637 -1.563129
-2.210285 -6.201420 -1.524429
-2.235107 -6.163492 -1.506940
-2.251462 -6.194544 -1.527354
-2.269804 -6.243816 -1.558456
-2.310723 -6.219154 -1.550503
-2.331713 -6.147444 -1.512374
-2.343342 -6.125129 -1.501191
-2.396164 -6.199907 -1.551348
-2.461564 -6.144313 -1.527954
-2.522011 -6.151953 -1.540175
-2.535657 -6.145307 -1.538122
-2.566261 -6.076064 -1.502294
-2.594139 -6.139050 -1.542197
-2.635881 -6.124263 -1.539301
-2.652580 -6.131479 -1.545720
-2.716409 -6.085563 -1.528349
-2.745058 -6.136701 -1.561742
-2.769082 -6.112652 -1.551523
-2.830723 -6.063302 -1.532783
-2.830794 -6.014925 -1.505297
-2.933807 -6.096120 -1.568041
-2.939837 -6.024430 -1.528566
-2.955636 -6.025682 -1.531971
-2.969017 -6.020141 -1.531159
-3.003505 -5.988964 -1.519707
-3.027528 -6.011065 -1.536408
-3.038368 -5.999038 -1.531635
-3.078650 -5.982950 -1.530077
-3.078324 -5.944884 -1.508801
-3.096124 -5.950266 -1.515170
-3.117141 -5.962776 -1.526141
-3.107330 -5.904559 -1.491928
-3.122084 -5.902995 -1.493930
-3.134109 -5.895279 -1.492015
-3.160372 -5.918715 -1.510168
-3.157094 -5.877730 -1.486882
-3.199663 -5.935109 -1.527082
-3.221206 -5.913309 -1.519467
-3.237460 -5.913792 -1.523079
-3.250058 -5.906738 -1.521824
-3.255088 -5.884666 -1.510790
-3.272793 -5.887868 -1.516272
-3.292775 -5.895240 -1.524538
-3.309034 -5.895141 -1.527962
-3.324555 -5.893486 -1.530406
-3.333765 -5.879941 -1.525044
-3.346905 -5.873805 -1.524587
-3.375840 -5.866250 -1.526894
-3.389270 -5.860519 -1.526799
-3.391058 -5.834352 -1.513095
-3.404491 -5.828808 -1.513155
-3.417427 -5.822377 -1.512650
-3.460724 -5.867254 -1.546666
-3.476159 -5.864352 -1.548681
-3.443989 -5.782753 -1.497575
-3.454531 -5.772573 -1.494613
-3.472372 -5.774226 -1.499703
-3.496746 -5.786080 -1.511793
-3.489377 -5.695057 -1.461801
-3.525614 -5.724638 -1.486239
-3.599186 -5.809564 -1.549008
-3.619620 -5.813326 -1.556024
-3.634398 -5.808496 -1.557154
-3.646256 -5.799337 -1.555316
-3.677150 -5.765347 -1.545381
-3.698853 -5.770007 -1.553343
-3.725872 -5.781689 -1.566339
-3.731316 -5.738280 -1.545294
-3.835030 -5.724646 -1.565660
-3.868506 -5.693410 -1.558752
-3.879789 -5.659494 -1.544601
-3.923664 -5.688026 -1.571011
-3.943898 -5.688076 -1.576566
-4.110859 -5.664006 -1.610410
-4.217452 -5.593598 -1.603854
-4.245584 -5.577666 -1.603202
-4.303278 -5.547544 -1.602639
-2.208781 -6.188385 -1.532527
-2.306410 -6.186179 -1.547470
-2.383478 -6.113023 -1.516261
-2.517928 -6.135253 -1.547310
-2.529568 -6.118338 -1.539031
-2.547008 -6.132158 -1.549394
-2.583490 -6.092861 -1.531477
-2.610384 -6.080787 -1.528140
-2.717997 -6.094242 -1.551160
-2.809640 -6.045034 -1.536636
-2.823748 -6.041851 -1.537029
-2.828222 -6.007823 -1.518192
-2.870011 -6.044326 -1.545899
-2.894118 -6.025108 -1.538878
-2.907400 -6.019381 -1.537832
-2.940398 -5.983462 -1.522988
