ply
format ascii 1.0
comment ---
element vertex 1649
property float x
property float y
property float z
element face 0
property list uchar uint vertex_indices
end_header
-3.113790 -5.948360 0.595537
-3.144227 -5.952222 0.602579
-3.180511 -5.967626 0.612761
-3.207156 -5.963024 0.617581
-3.244625 -5.979764 0.628220
-3.275760 -5.983403 0.635339
-3.309692 -5.992107 0.643882
-3.324686 -5.963995 0.642311
-3.345343 -5.946977 0.643769
-3.364748 -5.927706 0.644583
-3.400806 -5.939453 0.654049
-3.448736 -5.972405 0.669531
-3.454061 -5.927085 0.663032
-3.475477 -5.911315 0.664825
-3.508727 -5.916567 0.672594
-3.546016 -5.928478 0.682312
-3.567899 -5.913097 0.684249
-3.594200 -5.905315 0.688371
-3.624980 -5.904984 0.694668
-3.659179 -5.910081 0.702579
-3.683829 -5.898887 0.705770
-3.707843 -5.886559 0.708635
-3.739947 -5.887320 0.715368
-3.799905 -5.881043 0.726630
-3.840190 -5.893739 0.737047
-3.871255 -5.891462 0.743036
-3.901488 -5.887609 0.748583
-3.912221 -5.853732 0.745047
-4.038168 -5.892922 0.777470
-4.068500 -5.887700 0.782787
-4.104375 -5.890269 0.790555
-4.174268 -5.891557 0.805049
-4.182298 -5.853801 0.800275
-4.211187 -5.845480 0.804755
-4.230726 -5.824082 0.805103
-4.253715 -5.807461 0.806963
-4.318079 -5.846692 0.826753
-4.392416 -5.849741 0.842413
-4.428833 -5.849688 0.849818
-4.469005 -5.854139 0.858752
-4.499118 -5.845209 0.863357
-4.525370 -5.831170 0.866304
-4.550537 -5.815668 0.868779
-4.571492 -5.794843 0.869488
-4.566916 -5.742521 0.859635
-4.595738 -5.731691 0.863644
-4.562379 -5.645402 0.842145
-4.566379 -5.605224 0.836100
-4.565537 -5.559711 0.828159
-4.575692 -5.527648 0.824745
-4.586733 -5.496875 0.821729
-4.513358 -5.203799 0.756756
-4.510871 -5.160876 0.748909
-4.482771 -5.090566 0.731186
-4.516101 -5.087451 0.737402
-4.447108 -4.862481 0.684905
-4.478148 -4.857651 0.690354
-4.486336 -4.829343 0.687155
-4.478923 -4.785531 0.678141
-4.448398 -4.719169 0.660585
-4.470718 -4.705952 0.662824
-4.456647 -4.657052 0.651585
-4.439662 -4.605932 0.639374
-4.411791 -4.545013 0.623279
-4.420691 -4.519890 0.620754
-4.354540 -3.910511 0.502110
-4.347754 -3.877163 0.494947
-4.331978 -3.837096 0.484811
-4.313143 -3.795113 0.473727
-4.304430 -3.761399 0.466101
-4.309472 -3.738479 0.463097
-4.319843 -3.719695 0.461874
-4.313980 -3.688848 0.455301
-4.312069 -3.661195 0.450070
-4.308368 -3.632447 0.444285
-4.305973 -3.604880 0.438961
-4.297382 -3.573088 0.431659
-4.280422 -3.535655 0.421698
-4.283065 -3.512396 0.418115
-4.285904 -3.489400 0.414611
-4.277405 -3.458723 0.407500
-4.268631 -3.428135 0.400345
-4.276097 -3.408765 0.398379
-4.282224 -3.388546 0.395992
-4.265405 -3.353238 0.386392
-4.267414 -3.330602 0.382750
-4.289060 -3.320773 0.385250
-4.293417 -3.299721 0.382339
-4.265402 -3.258243 0.369409
-4.251156 -3.225891 0.360809
-4.251187 -3.202700 0.356645
-4.235974 -3.170277 0.347829
-4.243191 -3.151776 0.345902
-4.252770 -3.134709 0.344688
-4.261199 -3.116941 0.343115
-4.247580 -3.086224 0.334890
-4.209379 -3.041509 0.319327
-4.213425 -3.021644 0.316498
-4.227448 -3.007486 0.316641
-4.221789 -2.982191 0.310921
-4.215405 -2.956655 0.305009
-4.218566 -2.936524 0.301931
-4.208668 -2.909353 0.295024
-4.212053 -2.889512 0.292028
-4.212882 -2.868353 0.288287
-4.208160 -2.844357 0.282945
-4.203378 -2.820465 0.277603
-4.201962 -2.798431 0.273248
-4.198658 -2.775535 0.268363
-4.196544 -2.753350 0.263833
-4.199965 -2.733993 0.260888
-4.194534 -2.710361 0.255439
-4.194312 -2.689375 0.251480
-4.191997 -2.667476 0.246944
-4.193726 -2.647581 0.243554
-4.189459 -2.624972 0.238502
-4.180813 -2.600500 0.232260
-4.175095 -2.577540 0.226859
-4.174225 -2.556898 0.222820
-4.165498 -2.532916 0.216648
-4.168510 -2.514225 0.213719
-4.174123 -2.496723 0.211512
-4.163922 -2.472609 0.205036
-4.147764 -2.446265 0.197003
-4.160523 -2.432099 0.196800
-4.178237 -2.419939 0.197927
-4.178044 -2.400598 0.194283
-4.178826 -2.381814 0.190938
-4.186184 -2.365753 0.189374
-4.170257 -2.340911 0.181710
-4.163448 -2.319887 0.176521
-4.146577 -2.295422 0.168770
-4.133820 -2.272877 0.162182
-4.137162 -2.256523 0.159857
-4.127987 -2.235941 0.154355
-4.133142 -2.220752 0.152631
-4.143108 -2.207459 0.152205
-4.172074 -2.200842 0.156698
-1.794431 -6.151297 0.317608
-1.816913 -6.144630 0.321309
-1.839127 -6.135485 0.324586
-1.881055 -6.103157 0.328450
-1.911427 -6.127749 0.338904
-1.939922 -6.142159 0.347358
-1.963828 -6.135643 0.351522
-1.983213 -6.109863 0.351670
-2.009808 -6.113587 0.358063
-2.038147 -6.123411 0.365810
-2.062361 -6.116198 0.369974
-2.085351 -6.104067 0.373100
-2.108550 -6.092712 0.376399
-2.135168 -6.093915 0.382429
-2.165858 -6.109354 0.391598
-2.618099 -6.319427 0.523459
-2.872226 -6.164654 0.553167
-2.957730 -6.164002 0.571133
-3.051629 -6.180298 0.593499
-3.096702 -5.965579 0.568208
-3.124254 -5.963559 0.573609
-3.158279 -5.974638 0.582470
-3.181911 -5.964081 0.585654
-3.215922 -5.974343 0.594361
-3.245081 -5.974472 0.600410
-3.280020 -5.985657 0.609442
-3.320611 -5.950309 0.612042
-3.334742 -5.921134 0.610186
-3.370161 -5.932202 0.619268
-3.399020 -5.930584 0.624923
-3.417091 -5.908952 0.625086
-3.468756 -5.948338 0.642109
-3.515921 -5.924143 0.647779
-3.541152 -5.914868 0.651404
-3.632516 -5.912960 0.669693
-3.661605 -5.909431 0.675023
-3.694244 -5.911545 0.681999
-3.723243 -5.907314 0.687185
-3.747848 -5.895710 0.690259
-3.771971 -5.883244 0.693089
-3.806613 -5.887439 0.700793
-3.854483 -5.912030 0.714536
-3.888240 -5.913795 0.721650
-3.896369 -5.875688 0.716992
-3.940770 -5.843281 0.720588
-3.988836 -5.865706 0.733991
-4.001225 -5.834576 0.731330
-4.073749 -5.891746 0.755409
-4.100562 -5.881184 0.759053
-4.135917 -5.882733 0.766422
-4.158604 -5.865914 0.768192
-4.193546 -5.866300 0.775277
-4.208701 -5.838796 0.773753
-4.225110 -5.813214 0.772797
-4.256025 -5.807561 0.778061
-4.312459 -5.836106 0.794128
-4.364835 -5.858300 0.808322
-4.394595 -5.849768 0.812867
-4.421643 -5.837487 0.816242
-4.455971 -5.834524 0.822625
-4.487647 -5.827845 0.827855
-4.521029 -5.823096 0.833745
-4.548322 -5.810405 0.837091
-4.556703 -5.774013 0.832700
-4.560177 -5.731905 0.826373
-4.552738 -5.676908 0.815712
-4.569588 -5.652014 0.814925
-4.568438 -5.561211 0.799537
-4.569260 -5.518222 0.792522
-4.574077 -5.480356 0.787157
-4.560532 -5.421694 0.774652
-4.520051 -5.333057 0.751760
-4.525846 -5.298092 0.747069
-4.524021 -5.214251 0.732681
-4.522582 -5.172435 0.725396
-4.506865 -5.115550 0.712743
-4.503043 -5.072222 0.704726
-4.520732 -5.052332 0.704916
-4.510098 -5.002558 0.694459
-4.467947 -4.883191 0.666060
-4.476644 -4.855272 0.663107
-4.482501 -4.824667 0.659135
-4.476515 -4.782389 0.650848
-4.478171 -4.748208 0.645437
-4.443723 -4.678685 0.626915
-4.351468 -3.908409 0.478424
-4.342056 -3.873039 0.470538
-4.334157 -3.839218 0.463209
-4.324037 -3.804008 0.455202
-4.319279 -3.773278 0.449007
-4.323667 -3.749779 0.445835
-4.326672 -3.725372 0.442232
-4.323438 -3.696462 0.436631
-4.312527 -3.662121 0.428591
-4.310009 -3.634263 0.423299
-4.315748 -3.612597 0.420678
-4.306814 -3.580512 0.413394
-4.279464 -3.535664 0.400314
-4.277690 -3.509335 0.395407
-4.291565 -3.494073 0.395451
-4.273555 -3.456833 0.385485
-4.270315 -3.430062 0.380197
-4.261648 -3.399827 0.373247
-4.253767 -3.370384 0.366581
-4.257351 -3.348765 0.363491
-4.273108 -3.335192 0.364153
-4.287609 -3.320728 0.364408
-4.284029 -3.294626 0.359129
-4.261329 -3.256591 0.348061
-4.266870 -3.236684 0.345612
-4.249590 -3.202672 0.336281
-4.243360 -3.175786 0.330323
-4.213964 -3.135035 0.317460
-4.250169 -3.134166 0.324233
-4.258861 -3.116591 0.322763
-4.246354 -3.086556 0.315013
-4.222046 -3.049926 0.303825
-4.212710 -3.022309 0.297096
-4.240984 -3.016274 0.301393
-4.199843 -2.970974 0.285420
-4.206089 -2.952605 0.283294
-4.233416 -2.945822 0.287253
-4.195703 -2.903471 0.272440
-4.209893 -2.889526 0.272597
-4.224471 -2.875690 0.272840
-4.198493 -2.840495 0.261524
-4.196384 -2.818061 0.257034
-4.197608 -2.797437 0.253496
-4.196782 -2.775836 0.249386
-4.192143 -2.752415 0.244219
-4.192592 -2.731637 0.240488
-4.190769 -2.709823 0.236133
-4.195562 -2.691290 0.233620
-4.195037 -2.670251 0.229641
-4.197211 -2.650564 0.226414
-4.191262 -2.627172 0.220975
-4.169955 -2.596916 0.211383
-4.170384 -2.576811 0.207742
-4.172704 -2.557637 0.204626
-4.175920 -2.538929 0.201764
-4.178254 -2.519906 0.198678
-4.181290 -2.501268 0.195796
-4.146909 -2.466930 0.182997
-4.163990 -2.454533 0.183908
-4.151467 -2.429929 0.177015
-4.168353 -2.417518 0.177897
-4.170829 -2.399326 0.175016
-4.167761 -2.379095 0.170727
-4.172822 -2.362237 0.168595
-4.176650 -2.345050 0.166183
-4.152870 -2.317618 0.156712
-4.145744 -2.296856 0.151611
-4.139081 -2.276576 0.146701
-4.139721 -2.259254 0.143725
-4.148602 -2.245122 0.142904
-4.188974 -2.242239 0.150095
-4.174726 -2.220324 0.143535
-4.159884 -2.198647 0.136926
-1.821318 -6.145852 0.297799
-1.844559 -6.141733 0.302056
-1.861012 -6.105260 0.299904
-1.883157 -6.094656 0.302981
-1.913393 -6.118907 0.313180
-1.942101 -6.134521 0.321741
-1.964582 -6.122334 0.324706
-1.988521 -6.115811 0.328870
-2.014605 -6.117458 0.334766
-2.040996 -6.119581 0.340811
-2.062113 -6.100559 0.342479
-2.084662 -6.087186 0.345330
-2.109560 -6.082615 0.350045
-2.140445 -6.099691 0.359382
-2.596714 -6.329460 0.493448
-2.803670 -6.269968 0.528302
-3.067993 -6.209402 0.574139
-3.089246 -6.064839 0.555794
-3.074673 -5.972402 0.538222
-3.103335 -5.972890 0.544193
-3.133199 -5.975616 0.550754
-3.164623 -5.981222 0.558081
-3.193945 -5.982171 0.564231
-3.216459 -5.969186 0.566774
-3.250215 -5.978511 0.575139
-3.279648 -5.978880 0.581193
-3.302883 -5.966964 0.584026
-3.325103 -5.953096 0.586334
-3.326872 -5.900560 0.578330
-3.375873 -5.937290 0.594107
-3.412551 -5.950110 0.603572
-3.447781 -5.959702 0.612221
-3.460845 -5.928686 0.609903
-3.491248 -5.929072 0.616092
-3.520856 -5.927739 0.621840
-3.544769 -5.916162 0.624795
-3.563092 -5.894849 0.625060
-3.640060 -5.920964 0.644686
-3.670857 -5.920249 0.650739
-3.707935 -5.929638 0.659666
-3.731797 -5.916828 0.662375
-3.754464 -5.902024 0.664519
-3.813429 -5.894019 0.674990
-3.867617 -5.928491 0.691343
-3.887045 -5.907824 0.691875
-3.876882 -5.841681 0.679176
-3.936330 -5.882647 0.697609
-3.983415 -5.853859 0.702304
-4.015522 -5.852046 0.708379
-4.031940 -5.826980 0.707575
-4.100294 -5.877261 0.729262
-4.174685 -5.885354 0.745299
-4.188674 -5.856162 0.743332
-4.209809 -5.837133 0.744422
-4.225511 -5.810652 0.743226
-4.327824 -5.853850 0.770445
-4.369100 -5.861073 0.779764
-4.399833 -5.853851 0.784652
-4.421800 -5.834930 0.785905
-4.449753 -5.823775 0.789599
-4.479778 -5.815133 0.794107
-4.509358 -5.805725 0.798400
-4.537644 -5.794506 0.802142
-4.556353 -5.771203 0.802026
-4.546161 -5.712328 0.790425
-4.585578 -5.714842 0.798586
-4.581995 -5.664916 0.789738
-4.587990 -5.627065 0.784740
-4.564350 -5.424404 0.747005
-4.532589 -5.345771 0.727923
-4.516467 -5.285972 0.714984
-4.524989 -5.254557 0.711519
-4.532050 -5.221778 0.707540
-4.530089 -5.179376 0.700217
-4.517613 -5.126009 0.689037
-4.515895 -5.046076 0.675609
-4.511235 -5.002730 0.667593
-4.514932 -4.968614 0.662723
-4.486505 -4.901526 0.646160
-4.472951 -4.850648 0.635163
-4.465417 -4.806525 0.626448
-4.476791 -4.781950 0.624635
-4.745344 -4.901103 0.696640
-4.351374 -3.908674 0.455802
-4.340162 -3.871914 0.447492
-4.333924 -3.839439 0.440852
-4.324316 -3.804656 0.433171
-4.328043 -3.780473 0.429827
-4.330647 -3.755580 0.426142
-4.328341 -3.727150 0.420913
-4.327355 -3.699931 0.416136
-4.325544 -3.672308 0.411127
-4.315247 -3.638691 0.403474
-4.312137 -3.610610 0.398125
-4.310631 -3.583898 0.393309
-4.287469 -3.542014 0.381778
-4.268970 -3.503902 0.371771
-4.288944 -3.492970 0.373711
-4.284028 -3.464781 0.367966
-4.274400 -3.433606 0.360808
-4.279895 -3.412916 0.358308
-4.255030 -3.372028 0.346580
-4.268681 -3.357073 0.346595
-4.280336 -3.340765 0.345992
-4.282538 -3.318317 0.342536
-4.281685 -3.294015 0.338175
-4.275545 -3.266503 0.332253
-4.222086 -3.209527 0.312302
-4.267731 -3.214865 0.321814
-4.244730 -3.177581 0.310998
-4.238224 -3.150730 0.305089
-4.218173 -3.115938 0.295245
-4.226095 -3.098134 0.293607
-4.222981 -3.073844 0.288757
-4.215695 -3.047270 0.282718
-4.230481 -3.033573 0.283059
-4.213334 -3.001629 0.274216
-4.206894 -2.976013 0.268478
-4.219260 -2.961020 0.268113
-4.211679 -2.934996 0.262074
-4.200162 -2.907015 0.254948
-4.209307 -2.890354 0.253664
-4.209889 -2.869114 0.249967
-4.197581 -2.841186 0.242680
-4.194089 -2.818057 0.237875
-4.196566 -2.798103 0.234737
-4.195778 -2.776543 0.230699
-4.190221 -2.752685 0.225361
-4.185879 -2.729569 0.220374
-4.188866 -2.710156 0.217401
-4.188405 -2.689124 0.213494
-4.190615 -2.669445 0.210318
-4.186996 -2.647084 0.205579
-4.189499 -2.627686 0.202500
-4.159694 -2.593563 0.190807
-4.164219 -2.575388 0.188315
-4.172262 -2.558822 0.186761
-4.180292 -2.542255 0.185203
-4.184493 -2.524040 0.182642
-4.191295 -2.507002 0.180775
-4.193268 -2.487968 0.177661
-4.173780 -2.460103 0.169004
-4.182453 -2.444171 0.167693
-4.138425 -2.406937 0.152839
-4.153214 -2.393861 0.153184
-4.153788 -2.375192 0.149913
-4.167801 -2.361923 0.150101
-4.172865 -2.345270 0.148044
-4.143045 -2.315597 0.137227
-4.140659 -2.296683 0.133420
-4.170225 -2.289762 0.137680
-4.171558 -2.272565 0.134904
-4.174395 -2.256155 0.132568
-4.187134 -2.243479 0.132752
-4.176709 -2.222930 0.127269
-4.033427 -2.157340 0.089186
-1.829433 -6.164934 0.277776
-1.850540 -6.150640 0.280019
-1.869212 -6.124441 0.279994
-1.888917 -6.102729 0.280886
-1.916910 -6.117072 0.288955
-1.942857 -6.121000 0.295053
-1.967312 -6.117565 0.299753
-1.991971 -6.114253 0.304531
-2.018666 -6.118517 0.310888
-2.044056 -6.116775 0.316083
-2.067762 -6.107979 0.319874
-2.091701 -6.099867 0.323825
-2.114758 -6.088305 0.327078
-2.145561 -6.105017 0.336210
-2.181742 -6.139977 0.349218
-2.580753 -6.355487 0.467023
-3.083675 -5.984853 0.515519
-3.098010 -5.955122 0.513862
-3.134084 -5.970967 0.523611
-3.173603 -5.993248 0.535037
-3.192279 -5.972509 0.535613
-3.213878 -5.957847 0.537706
-3.254777 -5.981458 0.549587
-3.281716 -5.976940 0.554303
-3.305677 -5.966493 0.557494
-3.319566 -5.936747 0.555667
-3.354576 -5.947315 0.564311
-3.381790 -5.942789 0.569045
-3.418248 -5.955158 0.578241
-3.445494 -5.950124 0.582885
-3.462288 -5.926018 0.582473
-3.485409 -5.913450 0.585108
-3.528926 -5.936902 0.597402
-3.553138 -5.925792 0.600466
-3.568351 -5.899051 0.599299
-3.586275 -5.877214 0.599428
-3.632545 -5.903497 0.612681
-3.672328 -5.918046 0.622810
-3.704149 -5.918778 0.629196
-3.730772 -5.910655 0.633164
-3.756951 -5.901657 0.636900
-3.785709 -5.896659 0.641766
-3.828017 -5.912948 0.652635
-3.862096 -5.915637 0.659743
-3.872671 -5.881395 0.656424
-3.921313 -5.855877 0.661925
-3.973161 -5.884490 0.676577
-4.002975 -5.879309 0.681585
-4.038737 -5.882674 0.689100
-4.023596 -5.811234 0.674855
-4.093694 -5.864199 0.696899
-4.152431 -5.850441 0.706165
-4.193267 -5.859333 0.715522
-4.202866 -5.824302 0.711839
-4.237653 -5.824255 0.718596
-4.297809 -5.858397 0.735701
-4.341772 -5.869675 0.746030
-4.371805 -5.861776 0.750607
-4.398600 -5.849389 0.753839
-4.425986 -5.837659 0.757288
-4.451280 -5.823081 0.759875
-4.484335 -5.818383 0.765534
-4.509896 -5.803889 0.768180
-4.564033 -5.778405 0.774605
-4.601295 -5.778054 0.781759
-4.583316 -5.709881 0.767421
-4.605869 -5.691678 0.768881
-4.599805 -5.639189 0.759341
-4.569485 -5.514785 0.733641
-4.572118 -5.474534 0.727725
-4.574468 -5.434372 0.721767
-4.532044 -5.343554 0.699077
-4.524874 -5.293956 0.689770
-4.528116 -5.256612 0.684427
-4.526410 -5.214154 0.677310
-4.514208 -5.160645 0.666400
-4.524939 -5.132742 0.664003
-4.517303 -5.085258 0.654931
-4.520587 -5.049984 0.649915
-4.511309 -5.001779 0.640408
-4.484868 -4.936202 0.624812
-4.600854 -4.229931 0.532979
-4.556645 -4.132629 0.508713
-4.473348 -4.035499 0.477056
-4.371654 -3.925209 0.439757
-4.334453 -3.867755 0.423306
-4.328439 -3.835531 0.416882
-4.330418 -3.809810 0.413030
-4.332226 -3.784135 0.409146
-4.329247 -3.754993 0.403783
-4.313888 -3.716766 0.394584
-4.318690 -3.694000 0.391725
-4.327390 -3.674231 0.390088
-4.314930 -3.639044 0.381917
-4.316261 -3.614205 0.378043
-4.298008 -3.575482 0.368185
-4.299133 -3.550946 0.364308
-4.291010 -3.520064 0.357637
-4.277540 -3.485739 0.349385
-4.288105 -3.468311 0.348436
-4.285579 -3.441968 0.343546
-4.273798 -3.409567 0.335908
-4.281794 -3.390682 0.334212
-4.277384 -3.363629 0.328829
-4.277462 -3.339713 0.324799
-4.277067 -3.315623 0.320643
-4.268178 -3.286229 0.314008
-4.252068 -3.252504 0.305295
-4.249406 -3.227553 0.300549
-4.254004 -3.207264 0.297928
-4.263873 -3.190267 0.296832
-4.244507 -3.155493 0.287304
-4.243728 -3.132253 0.283162
-4.216582 -3.093455 0.271496
-4.204111 -3.063739 0.264077
-4.240476 -3.062686 0.270541
-4.229172 -3.033845 0.263469
-4.217937 -3.005284 0.256449
-4.221626 -2.985348 0.253642
-4.232680 -2.969551 0.252889
-4.231682 -2.947076 0.248767
-4.210020 -2.913466 0.238932
-4.203384 -2.888283 0.233295
-4.202853 -2.866504 0.229354
-4.198986 -2.843061 0.224508
-4.194338 -2.819337 0.219463
-4.196044 -2.799003 0.216158
-4.193243 -2.776443 0.211637
-4.186707 -2.752123 0.206123
-4.188410 -2.732030 0.202838
-4.185540 -2.709761 0.198336
-4.186310 -2.689358 0.194816
-4.179173 -2.665262 0.189209
-4.181416 -2.645740 0.186101
-4.188135 -2.628350 0.184174
-4.187519 -2.607610 0.180327
-4.170372 -2.579495 0.172188
-4.170246 -2.559271 0.168517
-4.164729 -2.536777 0.163471
-4.171405 -2.519752 0.161595
-4.190898 -2.508255 0.163011
-4.187045 -2.486785 0.158453
-4.186934 -2.467053 0.154882
-4.178592 -2.444078 0.149257
-4.173959 -2.422855 0.144620
-4.166578 -2.400746 0.139340
-4.153310 -2.376572 0.132643
-4.167144 -2.363273 0.132772
-4.162885 -2.343083 0.128432
-4.155905 -2.322122 0.123480
-4.146937 -2.300720 0.118109
-4.184790 -2.296864 0.124309
-4.203952 -2.286092 0.125934
-4.189215 -2.263277 0.119334
-4.190550 -2.246553 0.116735
-4.118232 -2.204516 0.096384
-4.101645 -2.182576 0.089672
-1.817129 -6.200872 0.255909
-1.833094 -6.162802 0.253592
-1.872764 -6.122463 0.255886
-1.895790 -6.115854 0.259717
-1.922279 -6.123488 0.266371
-1.973767 -6.128569 0.277954
-1.997362 -6.120824 0.281829
-2.019256 -6.105799 0.284305
-2.049028 -6.121675 0.292937
-2.073200 -6.114716 0.297087
-2.101997 -6.124968 0.304717
-2.123953 -6.108963 0.307101
-2.144094 -6.086523 0.308173
-3.090840 -6.054497 0.500894
-3.090799 -5.993340 0.491755
-3.096725 -5.945932 0.485856
-3.138467 -5.973639 0.498356
-3.173008 -5.985690 0.507061
-3.200293 -5.982513 0.512024
-3.218287 -5.960567 0.512308
-3.237651 -5.941572 0.513298
-3.270695 -5.949477 0.521041
-3.307861 -5.964890 0.530722
-3.334755 -5.960057 0.535308
-3.362206 -5.956107 0.540128
-3.390109 -5.952801 0.545125
-3.418554 -5.950281 0.550338
-3.443323 -5.940815 0.553769
-3.481465 -5.901277 0.555242
-3.528584 -5.931231 0.569012
-3.555898 -5.925640 0.573496
-3.569783 -5.896666 0.571792
-3.588468 -5.876207 0.572313
-3.626401 -5.888414 0.581557
-3.667614 -5.905534 0.592182
-3.699532 -5.906591 0.598540
-3.727798 -5.901329 0.603217
-3.757767 -5.898612 0.608607
-3.791013 -5.900878 0.615388
-3.829301 -5.910767 0.624307
-3.876219 -5.882874 0.629083
-3.902687 -5.873484 0.632743
-3.961029 -5.862416 0.642274
-4.032216 -5.919170 0.664706
-4.053783 -5.901222 0.666084
-4.067579 -5.871941 0.664219
-4.072935 -5.830706 0.658884
-4.108436 -5.833091 0.666060
-4.144405 -5.835744 0.673363
-4.186594 -5.846719 0.683140
-4.227117 -5.854806 0.692147
-4.247152 -5.834222 0.692794
-4.302282 -5.861445 0.707548
-4.359298 -5.842196 0.715458
-4.381338 -5.823777 0.716810
-4.420608 -5.827888 0.724939
-4.454000 -5.823945 0.730695
-4.521924 -5.816648 0.742506
-4.547424 -5.801922 0.745074
-4.575965 -5.790900 0.748793
-4.600846 -5.775212 0.751088
-4.606557 -5.736061 0.746084
-4.598754 -5.680964 0.736026
-4.592523 -5.628448 0.726665
-4.607420 -5.601630 0.725318
-4.550737 -5.490934 0.697306
-4.562512 -5.461602 0.694970
-4.559214 -5.372946 0.680516
-4.524274 -5.130790 0.636074
-4.613432 -4.271664 0.517464
-4.579344 -4.181700 0.496757
-4.570789 -4.144419 0.489205
-4.328064 -3.890693 0.403469
-4.341013 -3.873293 0.403078
-4.329943 -3.837085 0.395207
-4.327036 -3.807592 0.389922
-4.330524 -3.783262 0.386646
-4.304379 -3.736532 0.374270
-4.302818 -3.708913 0.369517
-4.303366 -3.683083 0.365434
-4.308516 -3.660830 0.362774
-4.319264 -3.642782 0.361819
-4.299605 -3.602735 0.351687
-4.304621 -3.580838 0.349037
-4.293241 -3.547401 0.341488
-4.295413 -3.523818 0.338026
-4.284238 -3.491079 0.330613
-4.279911 -3.463372 0.325269
-4.284274 -3.441804 0.322514
-4.287181 -3.419343 0.319339
-4.289247 -3.396426 0.315926
-4.291851 -3.373980 0.312680
-4.291857 -3.349936 0.308688
-4.288608 -3.323920 0.303770
-4.228934 -3.261919 0.282623
-4.244853 -3.248783 0.283305
-4.256142 -3.232652 0.282640
-4.262231 -3.213263 0.280481
-4.247041 -3.180837 0.272286
-4.260799 -3.166317 0.272309
-4.246491 -3.134853 0.264416
-4.222840 -3.098123 0.253944
-4.252754 -3.093315 0.258482
-4.236618 -3.061426 0.250161
-4.241510 -3.041943 0.247704
-4.234757 -3.015864 0.242031
-4.231013 -2.991656 0.237206
-4.236662 -2.972810 0.234965
-4.225259 -2.944600 0.228070
-4.210195 -2.914627 0.220210
-4.204654 -2.890044 0.214964
-4.209419 -2.871086 0.212509
-4.205811 -2.847751 0.207803
-4.201418 -2.824130 0.202900
-4.199488 -2.801904 0.198667
-4.192927 -2.777432 0.193217
-4.188717 -2.754292 0.188406
-4.186922 -2.732473 0.184246
-4.193532 -2.714858 0.182296
-4.188856 -2.691796 0.177396
-4.182402 -2.668024 0.172054
-4.184083 -2.648236 0.168838
-4.187387 -2.629266 0.166047
-4.187214 -2.608751 0.162369
-4.180035 -2.585160 0.156917
-4.166740 -2.559020 0.149940
-4.165967 -2.538656 0.146180
-4.133212 -2.504506 0.134374
-4.156798 -2.495018 0.136811
-4.175735 -2.483413 0.138061
-4.176071 -2.463958 0.134667
-4.163792 -2.439447 0.128173
-4.169928 -2.422707 0.126290
-4.164493 -2.401428 0.121584
-4.163130 -2.381992 0.117930
-4.162875 -2.363192 0.114596
-4.169970 -2.347416 0.113099
-4.176147 -2.331432 0.111422
-4.174461 -2.312674 0.107893
-4.147887 -2.285011 0.098443
-4.174591 -2.277217 0.101875
-4.202151 -2.269722 0.105535
-4.199347 -2.251516 0.101997
-4.206120 -2.236961 0.100812
-4.117671 -2.189967 0.077190
-1.816225 -6.176307 0.227552
-1.837755 -6.165553 0.230362
-1.855663 -6.136945 0.229939
-1.875486 -6.116868 0.231151
-1.900888 -6.121158 0.236987
-1.927558 -6.129622 0.243703
-1.955609 -6.142556 0.251360
-1.977152 -6.126862 0.253654
-2.001766 -6.123485 0.258341
-2.024993 -6.113921 0.261885
-2.050475 -6.112880 0.267113
-2.084392 -6.143700 0.278597
-2.104199 -6.119566 0.279412
-2.123888 -6.095413 0.280206
-2.149166 -6.092018 0.285093
-3.107947 -6.084454 0.481924
-3.097068 -6.000055 0.467515
-3.109583 -5.966453 0.465109
-3.129802 -5.949352 0.466614
-3.174830 -5.983147 0.480417
-3.202466 -5.980740 0.485503
-3.219641 -5.957228 0.485440
-3.244242 -5.948661 0.489008
-3.275969 -5.953929 0.495986
-3.308458 -5.960274 0.503261
-3.373378 -5.971599 0.517568
-3.392087 -5.951008 0.518172
-3.417635 -5.943197 0.521975
-3.450313 -5.948267 0.529050
-3.463938 -5.918576 0.527298
-3.499421 -5.928222 0.535573
-3.525574 -5.920897 0.539530
-3.548446 -5.907706 0.541976
-3.569541 -5.891426 0.543616
-3.594049 -5.881016 0.546774
-3.624416 -5.880414 0.552505
-3.657826 -5.884595 0.559523
-3.699567 -5.902147 0.570118
-3.725167 -5.892606 0.573585
-3.753487 -5.887347 0.578203
-3.797682 -5.907298 0.589603
-3.834739 -5.915196 0.597837
-3.869993 -5.919770 0.605225
-3.893124 -5.905102 0.607423
-3.917195 -5.891843 0.610004
-3.949206 -5.890593 0.615886
-3.964969 -5.864581 0.614969
-3.999392 -5.866551 0.621780
-4.048478 -5.889759 0.634550
-4.071244 -5.873744 0.636444
-4.073747 -5.828438 0.630099
-4.099383 -5.816776 0.633180
-4.149393 -5.839506 0.646033
-4.201892 -5.864923 0.659756
-4.234008 -5.861202 0.665241
-4.271327 -5.864347 0.672738
-4.276695 -5.823626 0.667598
-4.289690 -5.793624 0.665507
-4.334105 -5.805743 0.675681
-4.377618 -5.816079 0.685412
-4.411893 -5.813777 0.691494
-4.451986 -5.818690 0.699756
-4.492986 -5.824306 0.708291
-4.527671 -5.821436 0.714354
-4.567182 -5.824317 0.722188
-4.595425 -5.812756 0.725720
-4.605694 -5.778907 0.722504
-4.606720 -5.734067 0.715887
-4.601062 -5.636654 0.700030
-4.531842 -5.466934 0.661298
-4.551437 -5.446979 0.661917
-4.565054 -5.420174 0.660376
-4.558748 -5.329178 0.645339
-4.549963 -5.278162 0.635926
-4.750654 -4.585689 0.566791
-4.656419 -4.468901 0.531373
-4.626696 -4.410227 0.516812
-4.608924 -4.330843 0.501216
-4.619284 -4.308078 0.499570
-4.570193 -4.174391 0.469732
-4.583148 -4.154746 0.469023
-4.363047 -3.918954 0.391942
-4.342966 -3.875173 0.381409
-4.341178 -3.846255 0.376534
-4.314683 -3.798395 0.364179
-4.304148 -3.763410 0.356746
-4.300758 -3.734221 0.351517
-4.294248 -3.702926 0.345382
-4.305373 -3.685078 0.344561
-4.327405 -3.675314 0.346988
-4.306161 -3.633747 0.336537
-4.292754 -3.598344 0.328474
-4.287723 -3.569316 0.322929
-4.289722 -3.545521 0.319477
-4.285278 -3.517335 0.314156
-4.277259 -3.486884 0.307821
-4.279954 -3.464084 0.304629
-4.288899 -3.445663 0.303252
-4.290451 -3.422276 0.299743
-4.294312 -3.400557 0.296907
-4.300980 -3.380784 0.294878
-4.302623 -3.357769 0.291419
-4.302608 -3.333794 0.287498
-4.282972 -3.297371 0.278051
-4.230386 -3.240434 0.259395
-4.262263 -3.237344 0.264519
-4.249174 -3.206019 0.257039
-4.263065 -3.191566 0.257094
-4.264106 -3.169228 0.253570
-4.259923 -3.143845 0.248612
-4.242645 -3.110830 0.240075
-4.253717 -3.094827 0.239337
-4.266081 -3.079534 0.238933
-4.255194 -3.050794 0.232199
-4.248533 -3.024693 0.226637
-4.236266 -2.995612 0.219585
-4.214308 -2.961382 0.209965
-4.216282 -2.940686 0.206789
-4.204785 -2.912719 0.200030
-4.214011 -2.896125 0.198789
-4.213214 -2.874168 0.194889
-4.210855 -2.851478 0.190584
-4.200015 -2.824492 0.184069
-4.195805 -2.801118 0.179309
-4.194324 -2.779256 0.175271
-4.192318 -2.757226 0.171106
-4.193823 -2.737032 0.167854
-4.199395 -2.718885 0.165649
-4.201435 -2.699044 0.162537
-4.198553 -2.676913 0.158177
-4.176635 -2.645941 0.149010
-4.184734 -2.629263 0.147472
-4.185737 -2.609321 0.144145
-4.178322 -2.585650 0.138725
-4.169015 -2.561318 0.132864
-4.160719 -2.537644 0.127291
-4.154796 -2.515209 0.122341
-4.164492 -2.480028 0.117827
-4.171313 -2.463374 0.116078
-4.155473 -2.437445 0.108839
-4.149836 -2.415998 0.104137
-4.155530 -2.399321 0.102217
-4.145611 -2.376584 0.096579
-4.174734 -2.369369 0.100346
-4.175073 -2.350971 0.097251
-4.173372 -2.332012 0.093727
-4.148804 -2.304751 0.084857
-4.151837 -2.288164 0.082597
-4.161902 -2.274354 0.082049
-4.179662 -2.263468 0.083355
-4.205532 -2.255549 0.086596
-4.178877 -2.229360 0.077673
-4.068570 -2.174978 0.049508
-1.838576 -6.150262 0.203889
-1.860839 -6.142451 0.207279
-1.902852 -6.112688 0.211716
-1.931713 -6.130987 0.220127
-1.958261 -6.137653 0.226501
-1.981422 -6.128996 0.230110
-2.005176 -6.122238 0.234122
-2.028585 -6.113588 0.237823
-2.056362 -6.121663 0.244722
-2.106541 -6.114878 0.254318
-2.124493 -6.084568 0.253982
-2.153853 -6.096250 0.261737
-2.522557 -6.494570 0.393108
-3.094647 -5.988408 0.438953
-3.118799 -5.979358 0.442396
-3.136553 -5.957051 0.442703
-3.167478 -5.961927 0.449411
-3.200216 -5.970093 0.456925
-3.225962 -5.963859 0.461028
-3.255803 -5.965580 0.467043
-3.285391 -5.966503 0.472884
-3.311991 -5.961373 0.477275
-3.339063 -5.956982 0.481852
-3.386713 -5.991174 0.495883
-3.388224 -5.938381 0.488614
-3.401880 -5.908844 0.486989
-3.440199 -5.924591 0.496563
-3.472578 -5.929001 0.503365
-3.498630 -5.921748 0.507277
-3.526098 -5.916847 0.511787
-3.534429 -5.878398 0.507821
-3.567194 -5.882600 0.514631
-3.603183 -5.891907 0.522781
-3.630464 -5.886011 0.527078
-3.658267 -5.880801 0.531565
-3.698816 -5.896439 0.541467
-3.732049 -5.899473 0.548156
-3.757724 -5.889903 0.551588
-3.792788 -5.895232 0.558940
-3.853573 -5.940853 0.576971
-3.880488 -5.932125 0.580736
-3.886479 -5.890794 0.575829
-3.925790 -5.901121 0.584678
-3.953073 -5.892629 0.588528
-3.969619 -5.867829 0.587985
-3.993509 -5.854127 0.590429
-4.031253 -5.860771 0.598425
-4.054088 -5.845200 0.600387
-4.084415 -5.840415 0.605319
-4.189276 -5.844026 0.625294
-4.234492 -5.858719 0.635827
-4.253812 -5.837222 0.636239
-4.275116 -5.818494 0.637421
-4.333918 -5.850237 0.652963
-4.356606 -5.832885 0.654595
-4.384455 -5.822325 0.658178
-4.421396 -5.823489 0.665163
-4.445556 -5.807741 0.667292
-4.470942 -5.793508 0.669866
-4.525189 -5.815791 0.683150
-4.567544 -5.822341 0.691914
-4.598190 -5.813839 0.696293
-4.606997 -5.778239 0.692642
-4.602124 -5.680840 0.677318
-4.544714 -5.567254 0.649938
-4.529471 -5.462342 0.631576
-4.563404 -5.416604 0.631003
-4.558809 -5.369297 0.623131
-4.686550 -4.630216 0.535802
-4.708459 -4.615890 0.537598
-4.704048 -4.544171 0.525954
-4.656681 -4.469071 0.506035
-4.645103 -4.426254 0.497455
-4.612145 -4.365456 0.482290
-4.610474 -4.238478 0.462649
-4.573083 -4.146787 0.441930
-4.587042 -4.128104 0.441562
-4.355090 -3.912887 0.367092
-4.353320 -3.883690 0.362287
-4.337994 -3.844109 0.353460
-4.321790 -3.804288 0.344432
-4.293325 -3.755493 0.331830
-4.295561 -3.730695 0.328388
-4.313474 -3.717874 0.329577
-4.336914 -3.709105 0.332368
-4.322155 -3.671944 0.323971
-4.318702 -3.643457 0.318917
-4.308589 -3.610372 0.311960
-4.299302 -3.578200 0.305284
-4.299355 -3.552963 0.301331
-4.278795 -3.513398 0.291493
-4.276159 -3.486760 0.286830
-4.284838 -3.468113 0.285404
-4.283114 -3.442402 0.281029
-4.286321 -3.420193 0.278062
-4.294771 -3.401590 0.276575
-4.304684 -3.383981 0.275491
-4.300456 -3.357116 0.270457
-4.284943 -3.323130 0.262311
-4.268100 -3.288630 0.253842
-4.252395 -3.255205 0.245732
-4.240506 -3.224508 0.238713
-4.258956 -3.212939 0.240020
-4.273306 -3.198721 0.240180
-4.271338 -3.174503 0.235892
-4.259639 -3.144564 0.228987
-4.233120 -3.106061 0.218126
-4.239584 -3.087424 0.216166
-4.269830 -3.082654 0.220547
-4.260957 -3.055061 0.214468
-4.241887 -3.021868 0.205713
-4.231378 -2.993830 0.199260
-4.221043 -2.966112 0.192880
-4.208354 -2.937314 0.185909
-4.228785 -2.926789 0.187599
-4.209810 -2.894885 0.179023
-4.210918 -2.873981 0.175681
-4.206515 -2.850244 0.170922
-4.192181 -2.821480 0.163629
-4.190719 -2.799578 0.159656
-4.187101 -2.776677 0.155143
-4.189778 -2.757051 0.152237
-4.191768 -2.737129 0.149156
-4.197811 -2.719242 0.147095
-4.200548 -2.699764 0.144202
-4.192453 -2.675168 0.138612
-4.180931 -2.649138 0.132198
-4.182495 -2.629416 0.129050
-4.189830 -2.612414 0.127331
-4.183070 -2.589032 0.122157
-4.169167 -2.562634 0.115270
-4.166512 -2.541469 0.111162
-4.167633 -2.502333 0.104575
-4.165949 -2.481988 0.100779
-4.168627 -2.463623 0.098057
-4.158034 -2.439897 0.092204
-4.148749 -2.416979 0.086718
-4.163962 -2.404163 0.087072
-4.184110 -2.393311 0.088602
-4.175665 -2.371267 0.083446
-4.154448 -2.344602 0.075378
-4.163280 -2.329790 0.074387
-4.176289 -2.316677 0.074407
-4.160921 -2.293196 0.067925
-4.127287 -2.263481 0.057339
-4.156215 -2.256831 0.061206
-4.176182 -2.246997 0.063057
-4.175865 -2.230178 0.060343
-4.152744 -2.205812 0.052542
-1.819339 -6.151767 0.175914
-1.865634 -6.146292 0.184305
-1.885151 -6.125216 0.185395
-1.907811 -6.117624 0.188943
-1.931735 -6.114631 0.193388
-1.959676 -6.127691 0.200803
-1.984064 -6.124519 0.205374
-2.007934 -6.118502 0.209486
-2.029172 -6.101458 0.211624
-2.055946 -6.105972 0.217757
-2.082780 -6.109905 0.223839
-2.106947 -6.103116 0.227971
-2.129014 -6.088345 0.230627
-2.151351 -6.074655 0.233487
-3.091881 -5.976123 0.410400
-3.125760 -5.987578 0.418507
-3.156702 -5.992448 0.425131
-3.166739 -5.954304 0.421813
-3.182858 -5.929062 0.421424
-3.255050 -6.015894 0.447202
-3.261917 -5.971782 0.442417
-3.289248 -5.968259 0.447132
-3.310377 -5.952609 0.448976
-3.329977 -5.934129 0.450126
-3.373450 -5.960704 0.462043
-3.383640 -5.924482 0.458926
-3.400141 -5.900391 0.458678
-3.436222 -5.912169 0.467107
-3.473855 -5.926192 0.476132
-3.502167 -5.923024 0.480995
-3.526873 -5.913283 0.484252
-3.541103 -5.885209 0.482972
-3.574098 -5.889758 0.489764
-3.611986 -5.902242 0.498574
-3.644155 -5.904512 0.504874
-3.663902 -5.885705 0.505889
-3.696730 -5.888565 0.512377
-3.735189 -5.900246 0.521147
-3.795596 -5.895524 0.531639
-3.829376 -5.898412 0.538277
-3.848434 -5.877862 0.538873
-3.873257 -5.866340 0.541804
-3.906549 -5.867712 0.548116
-3.945271 -5.876970 0.556541
-3.966758 -5.859809 0.558038
-3.987483 -5.841527 0.559229
-4.013608 -5.831228 0.562542
-4.054707 -5.842616 0.571681
-4.075097 -5.823565 0.572685
-4.229233 -5.848296 0.604320
-4.251875 -5.831514 0.606033
-4.282389 -5.825403 0.610704
-4.337136 -5.851646 0.624417
-4.382855 -5.864997 0.634634
-4.404510 -5.846003 0.635832
-4.419913 -5.818860 0.634721
-4.438894 -5.796513 0.634945
-4.472317 -5.792728 0.640452
-4.511655 -5.796153 0.648065
-4.549428 -5.797184 0.655045
-4.588362 -5.799277 0.662385
-4.597260 -5.763992 0.658901
-4.595878 -5.716493 0.651792
-4.556855 -5.535977 0.618659
-4.543049 -5.476459 0.607559
-4.537640 -5.427478 0.599493
-4.560891 -5.412049 0.601444
-4.575256 -5.386442 0.600317
-4.720314 -4.801706 0.541018
-4.710252 -4.686283 0.522255
-4.701290 -4.643445 0.514352
-4.715979 -4.622497 0.513866
-4.669876 -4.480613 0.484728
-4.668944 -4.414506 0.474761
-4.629599 -4.317004 0.453327
-4.600318 -4.199584 0.430659
-4.550672 -4.128752 0.411346
-4.477768 -4.040168 0.385288
-4.348704 -3.880345 0.338686
-4.348801 -3.852917 0.334570
-4.335817 -3.815543 0.326663
-4.300568 -3.761449 0.312341
-4.300934 -3.735200 0.308428
-4.321641 -3.724474 0.310398
-4.321763 -3.698264 0.306432
-4.316352 -3.668150 0.300903
-4.309452 -3.637204 0.294981
-4.296744 -3.602328 0.287445
-4.304871 -3.582758 0.285844
-4.301578 -3.555127 0.281027
-4.285514 -3.518725 0.272650
-4.279574 -3.489761 0.267153
-4.281568 -3.466504 0.263892
-4.280976 -3.441607 0.259922
-4.286541 -3.421026 0.257669
-4.302893 -3.407725 0.258383
-4.296682 -3.379411 0.252891
-4.290377 -3.351257 0.247398
-4.276997 -3.318737 0.240005
-4.260721 -3.284667 0.231866
-4.246278 -3.252105 0.224265
-4.250440 -3.231546 0.221703
-4.269230 -3.220143 0.223056
-4.266871 -3.195601 0.218738
-4.262648 -3.170066 0.213936
-4.251745 -3.140675 0.207383
-4.233286 -3.107031 0.198867
-4.243183 -3.090431 0.197837
-4.257061 -3.076123 0.197832
-4.226579 -3.036172 0.186252
-4.216120 -3.008113 0.179932
-4.214275 -2.985133 0.175862
-4.213384 -2.962795 0.172045
-4.244860 -2.958387 0.176527
-4.205787 -2.915243 0.162943
-4.203160 -2.892293 0.158705
-4.203291 -2.870923 0.155174
-4.196999 -2.846253 0.150026
-4.194285 -2.823597 0.145793
-4.184307 -2.797321 0.139752
-4.171436 -2.769777 0.133015
-4.173674 -2.750041 0.130055
-4.189415 -2.737045 0.130430
-4.188813 -2.715938 0.126759
-4.189956 -2.695761 0.123522
-4.192568 -2.676353 0.120650
-4.188581 -2.653886 0.116178
-4.186515 -2.632448 0.112189
-4.189645 -2.613512 0.109466
-4.191918 -2.594245 0.106546
-4.174321 -2.566159 0.098893
-4.167912 -2.543325 0.093953
-4.172957 -2.525672 0.091758
-4.163826 -2.501981 0.086234
-4.170827 -2.485371 0.084543
-4.164211 -2.463116 0.079683
-4.155792 -2.440339 0.074449
-4.171704 -2.427725 0.074911
-4.180335 -2.412176 0.073702
-4.189654 -2.396986 0.072681
-4.188926 -2.377960 0.069388
-4.176435 -2.354616 0.063465
-4.175857 -2.336154 0.060330
-4.178816 -2.319255 0.058059
-4.165514 -2.296560 0.052179
-4.144101 -2.271304 0.044565
-4.140967 -2.253103 0.041156
-4.174784 -2.248312 0.046079
-4.172663 -2.230916 0.043032
-4.175737 -2.215633 0.041223
-1.839969 -6.119183 0.151381
-1.891875 -6.138035 0.163996
-1.912788 -6.122734 0.166183
-1.936059 -6.117037 0.170107
-1.965575 -6.136841 0.178581
-1.989394 -6.131322 0.182697
-2.009281 -6.109221 0.183924
-2.030783 -6.093605 0.186327
-2.055612 -6.090830 0.191061
-2.083538 -6.099339 0.197877
-2.109154 -6.098305 0.203020
-2.129630 -6.077926 0.204660
-2.743833 -6.284549 0.356524
-3.068785 -5.980765 0.380380
-3.103267 -5.993824 0.388696
-3.137709 -6.006245 0.396907
-3.159890 -5.992842 0.399335
-3.158368 -5.931205 0.390824
-3.185291 -5.928042 0.395491
-3.221524 -5.943231 0.404356
-3.262766 -5.967661 0.415391
-3.290496 -5.964986 0.420236
-3.307918 -5.942287 0.420446
-3.336788 -5.941588 0.425747
-3.369182 -5.947251 0.432551
-3.397509 -5.944949 0.437511
-3.422286 -5.935890 0.440886
-3.454249 -5.939804 0.447340
-3.516249 -5.943084 0.459243
-3.534783 -5.922305 0.459830
-3.562610 -5.917841 0.464341
-3.586658 -5.906667 0.467233
-3.627497 -5.924010 0.477090
-3.650709 -5.910990 0.479557
-3.672511 -5.895584 0.481431
-3.694238 -5.880067 0.483267
-3.737900 -5.900343 0.494007
-3.775343 -5.909839 0.502125
-3.801640 -5.901010 0.505688
-3.824512 -5.886628 0.507856
-3.849556 -5.875615 0.510875
-3.881659 -5.875429 0.516659
-3.912979 -5.873722 0.522085
-3.946262 -5.874693 0.528229
-3.977599 -5.872390 0.533562
-3.993503 -5.846866 0.532889
-4.053342 -5.837165 0.542306
-4.094467 -5.848107 0.551214
-4.123397 -5.841085 0.555428
-4.200061 -5.852735 0.570789
-4.232358 -5.849511 0.576120
-4.257555 -5.836268 0.578778
-4.285877 -5.827179 0.582569
-4.343270 -5.856986 0.596983
-4.378045 -5.855753 0.603015
-4.397491 -5.833992 0.603436
-4.409659 -5.802804 0.601235
-4.438222 -5.793046 0.604953
-4.474238 -5.792657 0.611306
-4.516380 -5.799676 0.619785
-4.546428 -5.791025 0.623910
-4.574724 -5.780003 0.627386
-4.597885 -5.762513 0.629038
-4.575758 -5.689820 0.614885
-4.564695 -5.631515 0.604716
-4.566247 -5.589047 0.599009
-4.567661 -5.546876 0.593316
-4.573500 -5.510344 0.589198
-4.557363 -5.448649 0.577638
-4.561667 -5.411283 0.573123
-4.561195 -5.368842 0.567044
-4.538500 -5.261041 0.547794
-4.724952 -5.065332 0.552822
-4.747484 -4.936824 0.538435
-4.757995 -4.910062 0.536447
-4.770392 -4.885266 0.535065
-4.718266 -4.799309 0.513648
-4.726230 -4.771163 0.511002
-4.621763 -4.279179 0.421799
-4.592494 -4.163054 0.399800
-4.377469 -3.931322 0.328901
-4.358228 -3.888180 0.319259
-4.350806 -3.854814 0.313072
-4.337214 -3.816978 0.305163
-4.307848 -3.767422 0.292821
-4.312433 -3.744356 0.290183
-4.312639 -3.718114 0.286319
-4.305377 -3.686482 0.280375
-4.307426 -3.662026 0.277074
-4.291072 -3.624248 0.268652
-4.275612 -3.587530 0.260532
-4.289071 -3.571961 0.260465
-4.299894 -3.554496 0.259659
-4.292889 -3.524498 0.253948
-4.285429 -3.494441 0.248142
-4.271091 -3.459904 0.240492
-4.280679 -3.442047 0.239379
-4.295124 -3.427488 0.239571
-4.284598 -3.396175 0.233019
-4.300521 -3.382655 0.233596
-4.292613 -3.353440 0.227781
-4.290540 -3.328251 0.223545
-4.277205 -3.295991 0.216336
-4.256227 -3.259183 0.207144
-4.243286 -3.227825 0.200118
-4.256770 -3.213190 0.200051
-4.261898 -3.193349 0.197781
-4.253720 -3.165455 0.192047
-4.243012 -3.136251 0.185680
-4.241332 -3.112669 0.181668
-4.241135 -3.090086 0.178046
-4.229506 -3.060941 0.171502
-4.210621 -3.027856 0.163136
-4.203672 -3.001911 0.157842
-4.205481 -2.981081 0.154779
-4.212271 -2.963095 0.152970
-4.206720 -2.938305 0.148054
-4.206711 -2.916690 0.144536
-4.210728 -2.897325 0.142021
-4.205886 -2.873274 0.137306
-4.200337 -2.848989 0.132429
-4.194632 -2.824771 0.127527
-4.195521 -2.804089 0.124253
-4.175973 -2.773094 0.116000
-4.177030 -2.752753 0.112790
-4.181596 -2.734216 0.110431
-4.187053 -2.716138 0.108281
-4.186445 -2.695142 0.104674
-4.188098 -2.675314 0.101615
-4.189865 -2.655604 0.098588
-4.186796 -2.633709 0.094423
-4.185160 -2.612601 0.090614
-4.181887 -2.590864 0.086437
-4.176209 -2.568191 0.081721
-4.179788 -2.549783 0.079188
-4.172888 -2.526875 0.074242
-4.168124 -2.505088 0.069825
-4.159944 -2.482035 0.064660
-4.157340 -2.461549 0.060816
-4.166483 -2.446097 0.059687
-4.175099 -2.430487 0.058459
-4.187457 -2.416456 0.058102
-4.177924 -2.393788 0.052841
-4.188652 -2.379347 0.052190
-4.186555 -2.360050 0.048710
-4.176006 -2.337780 0.043411
-4.157574 -2.312897 0.036447
-4.153740 -2.293855 0.032802
-4.150753 -2.275419 0.029421
-4.164130 -2.263174 0.029705
-4.164670 -2.246519 0.027242
-4.166784 -2.230702 0.025202
-4.163122 -2.213172 0.021989
-1.865097 -6.107902 0.130641
-1.916707 -6.123295 0.142634
-1.941553 -6.124584 0.147704
-1.967966 -6.131323 0.153791
-1.991882 -6.126516 0.157984
-2.012029 -6.105792 0.159485
-2.034018 -6.092371 0.162278
-2.060164 -6.094877 0.167887
-2.087762 -6.102164 0.174394
-2.111248 -6.093243 0.178091
-2.132856 -6.077263 0.180550
-2.163825 -6.095049 0.189059
-3.075859 -5.989491 0.356696
-3.107326 -5.996082 0.363475
-3.143756 -6.012622 0.372453
-3.166994 -6.001357 0.375356
-3.170484 -5.949913 0.369356
-3.184832 -5.921261 0.368321
-3.244407 -5.982931 0.387405
-3.272090 -5.980252 0.392193
-3.296782 -5.971557 0.395631
-3.339870 -5.941994 0.399718
-3.369481 -5.942444 0.405219
-3.408242 -5.959591 0.414576
-3.439665 -5.962604 0.420721
-3.464260 -5.952867 0.423932
-3.495742 -5.955417 0.430004
-3.523963 -5.951828 0.434663
-3.556755 -5.956048 0.441173
-3.574182 -5.933177 0.441303
-3.611046 -5.943909 0.449392
-3.637551 -5.936487 0.453191
-3.655432 -5.914404 0.453478
-3.659781 -5.869950 0.448343
-3.703405 -5.890813 0.458958
-3.742153 -5.902982 0.467530
-3.776430 -5.907365 0.474253
-3.802748 -5.898635 0.477790
-3.878899 -5.917507 0.493904
-3.905030 -5.907686 0.497238
-3.928684 -5.893941 0.499596
-3.959745 -5.891374 0.504766
-4.023984 -5.888537 0.515771
-4.034493 -5.854895 0.513090
-4.059398 -5.842537 0.515823
-4.091900 -5.841033 0.521359
-4.137947 -5.858532 0.531850
-4.175272 -5.863027 0.539036
-4.200969 -5.850835 0.541907
-4.228933 -5.841675 0.545583
-4.255834 -5.830892 0.548846
-4.320748 -5.823842 0.559281
-4.373590 -5.847005 0.571698
-4.391757 -5.823699 0.571705
-4.411029 -5.801931 0.572111
-4.438471 -5.790783 0.575390
-4.475721 -5.792035 0.582071
-4.515749 -5.796422 0.589662
-4.550929 -5.794284 0.595510
-4.588117 -5.794321 0.602002
-4.601202 -5.764353 0.600180
-4.578635 -5.691184 0.586225
-4.568125 -5.589322 0.570428
-4.568954 -5.546517 0.564697
-4.554116 -5.485822 0.553782
-4.536897 -5.339604 0.530685
-4.522345 -5.241574 0.514660
-4.701991 -5.041187 0.517962
-4.733514 -5.034972 0.522522
-4.734764 -4.998380 0.517649
-4.745397 -4.824618 0.495243
-4.694758 -4.671369 0.465125
-4.671358 -4.615561 0.453298
-4.724497 -4.595725 0.459566
-4.632275 -4.319415 0.404841
-4.620818 -4.278490 0.397085
-4.622221 -4.248690 0.393078
-4.365797 -3.922245 0.303207
-4.356110 -3.886785 0.296484
-4.353552 -3.857276 0.291805
-4.318903 -3.803094 0.278186
-4.326770 -3.782333 0.276496
-4.324622 -3.754025 0.272034
-4.318899 -3.723246 0.266608
-4.307630 -3.688599 0.259686
-4.301019 -3.657747 0.254084
-4.315405 -3.642545 0.254243
-4.293355 -3.600894 0.244481
-4.283187 -3.568261 0.237999
-4.285695 -3.544950 0.234973
-4.296942 -3.527916 0.234305
-4.290801 -3.498769 0.228972
-4.285302 -3.470307 0.223835
-4.271876 -3.436660 0.216615
-4.274617 -3.414272 0.213712
-4.293763 -3.402965 0.215139
-4.300233 -3.383144 0.213208
-4.309510 -3.365211 0.212007
-4.303448 -3.337336 0.206799
-4.281952 -3.299764 0.197606
-4.248553 -3.255044 0.185388
-4.229632 -3.219991 0.176972
-4.246076 -3.207304 0.177670
-4.256442 -3.190774 0.176787
-4.243952 -3.160301 0.170074
-4.244516 -3.137964 0.166698
-4.244753 -3.115528 0.163242
-4.240924 -3.090795 0.158768
-4.221837 -3.057312 0.150483
-4.213799 -3.030540 0.144995
-4.216977 -3.010363 0.142312
-4.214777 -2.987201 0.138293
-4.206781 -2.960923 0.132854
-4.200258 -2.935643 0.127793
-4.208606 -2.918637 0.126381
-4.215145 -2.900633 0.124514
-4.211677 -2.877296 0.120209
-4.199622 -2.849562 0.113841
-4.196589 -2.826750 0.109667
-4.200935 -2.807847 0.107268
-4.202188 -2.787398 0.104126
-4.195116 -2.762830 0.099008
-4.190262 -2.739527 0.094433
-4.189929 -2.718577 0.090936
-4.190191 -2.697999 0.087586
-4.190196 -2.677379 0.084182
-4.190364 -2.656920 0.080824
-4.192263 -2.637354 0.077876
-4.186492 -2.614330 0.073169
-4.175635 -2.589162 0.067320
-4.176665 -2.569552 0.064225
-4.174883 -2.548794 0.060506
-4.161145 -2.522952 0.054104
-4.170371 -2.507284 0.052932
-4.158053 -2.482484 0.046930
-4.157181 -2.462764 0.043543
-4.170481 -2.449069 0.043350
-4.181334 -2.434386 0.042627
-4.175327 -2.412967 0.038201
-4.176503 -2.394652 0.035414
-4.170022 -2.373522 0.030997
-4.175215 -2.357181 0.029195
-4.149009 -2.329044 0.020615
-4.156295 -2.314003 0.019398
-4.146931 -2.292962 0.014643
-4.141201 -2.273604 0.010755
-4.162533 -2.264329 0.012752
-4.180149 -2.253804 0.014002
-4.155753 -2.228667 0.006364
-1.824984 -6.120999 0.100532
-1.846253 -6.111734 0.103397
-1.868357 -6.105143 0.106795
-1.894674 -6.116236 0.113177
-1.920587 -6.123801 0.119100
-1.943788 -6.118253 0.122963
-1.968602 -6.118608 0.127882
-1.991889 -6.111676 0.131663
-2.013588 -6.097735 0.134323
-2.039474 -6.100045 0.139771
-2.063257 -6.093399 0.143757
-2.087493 -6.088069 0.148007
-2.111397 -6.081115 0.152012
-2.138810 -6.086712 0.158218
-3.079368 -5.990654 0.331351
-3.112161 -6.000033 0.338620
-3.148506 -6.016344 0.347396
-3.174793 -6.011338 0.351633
-3.185822 -5.975181 0.349141
-3.185942 -5.917700 0.341953
-3.244224 -5.976790 0.360072
-3.284955 -5.999815 0.370424
-3.366604 -5.931737 0.376655
-3.409727 -5.957095 0.387671
-3.448591 -5.973801 0.396806
-3.469442 -5.957184 0.398437
-3.492351 -5.944330 0.400907
-3.532153 -5.961436 0.410225
-3.563409 -5.962879 0.415997
-3.591120 -5.957835 0.420292
-3.613898 -5.944126 0.422584
-3.640640 -5.937139 0.426436
-3.645905 -5.893888 0.421791
-3.668385 -5.879877 0.423961
-3.699672 -5.880342 0.429551
-3.747229 -5.906983 0.441393
-3.797488 -5.886133 0.447532
-3.845743 -5.912050 0.459377
-3.879148 -5.913915 0.465477
-3.908637 -5.909361 0.470046
-3.970056 -5.903245 0.479978
-4.004405 -5.905237 0.486229
-4.026106 -5.888088 0.487761
-4.040854 -5.860736 0.486740
-4.050794 -5.826605 0.483986
-4.089601 -5.834372 0.491742
-4.130555 -5.844705 0.500201
-4.158040 -5.835489 0.503747
-4.192997 -5.836550 0.509935
-4.220502 -5.826941 0.513421
-4.244016 -5.811711 0.515470
-4.274292 -5.805602 0.519885
-4.321202 -5.821592 0.530086
-4.395022 -5.825273 0.543280
-4.423481 -5.815515 0.546879
-4.444361 -5.795812 0.547851
-4.476529 -5.790562 0.552675
-4.514906 -5.792912 0.559570
-4.560428 -5.803814 0.568823
-4.595530 -5.801210 0.574488
-4.614110 -5.777988 0.574575
-4.612007 -5.729671 0.567774
-4.568589 -5.632118 0.547340
-4.564029 -5.538810 0.534101
-4.549142 -5.478199 0.523459
-4.556304 -5.443969 0.520101
-4.560383 -5.406504 0.515780
-4.535621 -5.295561 0.496698
-4.538777 -5.258497 0.492262
-4.724485 -5.025111 0.492256
-4.724918 -4.987847 0.487280
-4.733286 -4.958767 0.484746
-4.740906 -4.929159 0.482009
-4.708422 -4.753591 0.452651
-4.666497 -4.477372 0.407785
-4.659647 -4.438758 0.401321
-4.343374 -3.904555 0.274731
-4.340754 -3.874892 0.270135
-4.338795 -3.845998 0.265746
-4.331893 -3.813502 0.260031
-4.329591 -3.784849 0.255603
-4.318892 -3.750031 0.248921
-4.327138 -3.703589 0.243656
-4.325001 -3.675925 0.239358
-4.323501 -3.648940 0.235249
-4.322103 -3.622225 0.231187
-4.294340 -3.576773 0.220155
-4.289805 -3.548397 0.215326
-4.300962 -3.531292 0.214644
-4.318602 -3.518707 0.215650
-4.301008 -3.481725 0.207439
-4.286673 -3.447365 0.200122
-4.283916 -3.421177 0.195841
-4.294450 -3.404064 0.195002
-4.310161 -3.390377 0.195481
-4.315806 -3.370014 0.193361
-4.307089 -3.340389 0.187577
-4.250171 -3.280058 0.169582
-4.251522 -3.257642 0.166440
-4.248675 -3.232687 0.162244
-4.242408 -3.205761 0.157201
-4.243325 -3.183453 0.153970
-4.245193 -3.161824 0.150978
-4.236490 -3.133906 0.145365
-4.239232 -3.113029 0.142599
-4.249706 -3.096779 0.141730
-4.235775 -3.066256 0.134867
-4.217103 -3.033270 0.126876
-4.227436 -3.017167 0.125970
-4.229705 -2.996473 0.123095
-4.208880 -2.962952 0.114651
-4.198974 -2.935803 0.108869
-4.203273 -2.916610 0.106503
-4.212901 -2.900320 0.105397
-4.206572 -2.875484 0.100491
-4.199148 -2.850231 0.095341
-4.202413 -2.830712 0.092719
-4.204890 -2.810826 0.089908
-4.207256 -2.790932 0.087068
-4.202285 -2.767401 0.082524
-4.200346 -2.745514 0.078693
-4.197485 -2.723279 0.074660
-4.191832 -2.699808 0.069997
-4.191200 -2.678889 0.066498
-4.191871 -2.658680 0.063305
-4.195775 -2.640059 0.060852
-4.197113 -2.620305 0.057825
-4.176977 -2.590875 0.049993
-4.182268 -2.573190 0.047895
-4.185416 -2.554606 0.045330
-4.153352 -2.520716 0.034982
-4.158439 -2.503339 0.032911
-4.155866 -2.482778 0.029178
-4.163139 -2.466521 0.027633
-4.178270 -2.453587 0.027821
-4.173042 -2.432329 0.023606
-4.163317 -2.409492 0.018472
-4.169664 -2.393338 0.016861
-4.153256 -2.368390 0.010415
-4.149285 -2.348640 0.006707
-4.162092 -2.335556 0.006632
