ply
format ascii 1.0
comment ---
element vertex 1606
property float x
property float y
property float z
element face 0
property list uchar uint vertex_indices
end_header
-4.021298 -1.417096 -0.235343
-4.020202 -1.403022 -0.235163
-4.020515 -1.389024 -0.235088
-4.021502 -1.375057 -0.235055
-4.017959 -1.360941 -0.234632
-4.018669 -1.346981 -0.234550
-4.007699 -1.332751 -0.233483
-4.004661 -1.318772 -0.233066
-4.000142 -1.304803 -0.232513
-4.015810 -1.291063 -0.233626
-4.018791 -1.277123 -0.233673
-4.015866 -1.263157 -0.233218
-3.994062 -1.249306 -0.231188
-3.975960 -1.235621 -0.229457
-4.003868 -1.221461 -0.231523
-3.997910 -1.207669 -0.230777
-4.030996 -1.193026 -0.233243
-3.997912 -1.179910 -0.230238
-3.982228 -1.166532 -0.228663
-3.988035 -1.152499 -0.228847
-3.992876 -1.138448 -0.228942
-3.992625 -1.124581 -0.228609
-3.988523 -1.110905 -0.227951
-3.986367 -1.097152 -0.227444
-3.981786 -1.083557 -0.226730
-3.976576 -1.070037 -0.225956
-3.977880 -1.056104 -0.225706
-3.981652 -1.041968 -0.225648
-3.974764 -1.028624 -0.224714
-3.967538 -1.015362 -0.223746
-3.976746 -1.000712 -0.224102
-3.962857 -0.988102 -0.222580
-3.952681 -0.975249 -0.221353
-3.950621 -0.961652 -0.220774
-3.950296 -0.947876 -0.220327
-3.959749 -0.933003 -0.220657
-3.962087 -0.918852 -0.220406
-3.956166 -0.905661 -0.219485
-3.955043 -0.891909 -0.218940
-3.954640 -0.878060 -0.218445
-3.956609 -0.863879 -0.218131
-3.951633 -0.850631 -0.217256
-3.951441 -0.836724 -0.216754
-3.946536 -0.823503 -0.215870
-3.940108 -0.810544 -0.214860
-3.935598 -0.797325 -0.213994
-3.939174 -0.782813 -0.213756
-3.941236 -0.768502 -0.213389
-3.938856 -0.754918 -0.212665
-3.934516 -0.741683 -0.211780
-3.928027 -0.728859 -0.210721
-3.930424 -0.714419 -0.210345
-3.934469 -0.699619 -0.210085
-3.921781 -0.688039 -0.208523
-3.922106 -0.673944 -0.207958
-3.907432 -0.662907 -0.206232
-3.912463 -0.647840 -0.206010
-3.915392 -0.633153 -0.205615
-3.911938 -0.619817 -0.204723
-3.908801 -0.606418 -0.203845
-3.915066 -0.590862 -0.203670
-3.909213 -0.578061 -0.202566
-3.910712 -0.563529 -0.202007
-3.920233 -0.546994 -0.202037
-3.919358 -0.532927 -0.201273
-3.912088 -0.520462 -0.200021
-3.898637 -0.509639 -0.198300
-3.896323 -0.495976 -0.197398
-3.891131 -0.483078 -0.196273
-3.889554 -0.469208 -0.195402
-3.900451 -0.451843 -0.195431
-3.900626 -0.437375 -0.194659
-3.901515 -0.422663 -0.193924
-3.894101 -0.410342 -0.192572
-3.899287 -0.394295 -0.192119
-3.891963 -0.381952 -0.190748
-3.881348 -0.370658 -0.189130
-3.875751 -0.357856 -0.187860
-3.883725 -0.340743 -0.187540
-3.882097 -0.326613 -0.186520
-3.874020 -0.314575 -0.185030
-3.887620 -0.295335 -0.185044
-3.885614 -0.281198 -0.183944
-3.873373 -0.270553 -0.182118
-3.873743 -0.255580 -0.181150
-3.877959 -0.239187 -0.180428
-3.875661 -0.225039 -0.179237
-3.862691 -0.214753 -0.177304
-3.860544 -0.200541 -0.176090
-3.857297 -0.186706 -0.174783
-3.862416 -0.169663 -0.174016
-3.863219 -0.154170 -0.172936
-3.848987 -0.144484 -0.170842
-4.051068 -0.049148 -0.182917
-4.051012 -0.032784 -0.181634
-4.054613 -0.014860 -0.180563
-4.047738 -0.001144 -0.178790
-4.046792 0.015051 -0.177376
-4.044247 0.030637 -0.175835
-4.037856 0.044625 -0.174029
-4.036697 0.060896 -0.172529
-4.028277 0.074043 -0.170554
-4.021638 0.087973 -0.168670
-4.023390 0.105700 -0.167277
-4.030590 0.126020 -0.166186
-4.024184 0.140221 -0.164245
-4.026940 0.158726 -0.162828
-4.028399 0.176740 -0.161307
-4.008913 0.184822 -0.158534
-4.017000 0.206149 -0.157352
-4.011030 0.220762 -0.155332
-4.002019 0.233889 -0.153121
-4.002947 0.251998 -0.151456
-4.004929 0.270747 -0.149826
-4.002968 0.287586 -0.147956
-3.998502 0.303189 -0.145932
-3.999140 0.321516 -0.144171
-3.999438 0.339758 -0.142375
-3.995206 0.355653 -0.140326
-3.985709 0.368713 -0.137997
-3.979541 0.383571 -0.135842
-3.976969 0.400431 -0.133870
-3.975883 0.418168 -0.131974
-3.974627 0.435861 -0.130072
-3.973046 0.453411 -0.128159
-3.973296 0.472059 -0.126345
-3.971865 0.489769 -0.124463
-3.969910 0.507187 -0.122575
-3.969719 0.525667 -0.120794
-3.971396 0.545296 -0.119126
-3.966301 0.560807 -0.117180
-3.957545 0.573986 -0.115115
-3.963119 0.595996 -0.113735
-3.966950 0.616950 -0.112322
-3.962914 0.632897 -0.110619
-3.957331 0.647745 -0.108914
-3.957984 0.666512 -0.107542
-3.947450 0.677871 -0.105771
-3.918264 0.676663 -0.103312
-3.947692 0.767439 -0.100350
-3.928362 0.771538 -0.098763
-3.933105 0.792050 -0.098230
-3.917718 0.798285 -0.097002
-3.939336 0.830415 -0.097322
-3.929531 0.840140 -0.096513
-3.925422 0.853668 -0.096027
-4.168369 -2.556105 -0.248349
-4.160278 -2.539668 -0.246773
-4.151506 -2.522819 -0.245222
-4.149262 -2.508411 -0.244296
-4.156786 -2.497623 -0.244259
-4.168367 -2.488135 -0.244633
-4.162624 -2.471757 -0.243656
-4.160551 -2.456622 -0.243062
-4.160172 -2.441953 -0.242687
-4.159747 -2.427098 -0.242386
-4.146308 -2.407367 -0.241093
-4.150638 -2.393957 -0.241332
-4.154023 -2.380025 -0.241564
-4.138637 -2.359394 -0.240327
-4.143843 -2.345847 -0.240842
-4.146070 -2.331126 -0.241175
-4.144800 -2.315113 -0.241278
-4.143799 -2.299106 -0.241458
-4.153536 -2.286496 -0.242571
-4.154498 -2.270925 -0.243009
-4.145249 -2.252085 -0.242647
-4.134740 -2.232898 -0.242215
-4.135262 -2.217120 -0.242726
-4.137492 -2.201813 -0.243407
-4.138978 -2.186243 -0.244053
-4.110021 -2.161885 -0.242183
-4.096909 -2.142293 -0.241643
-4.099874 -2.127299 -0.242456
-4.110481 -2.114364 -0.243921
-4.115690 -2.099891 -0.244943
-4.109532 -2.082403 -0.245013
-4.104863 -2.065383 -0.245207
-4.108058 -2.050423 -0.246064
-4.104157 -2.033708 -0.246316
-4.116305 -2.020952 -0.247924
-4.114133 -2.004715 -0.248310
-4.109581 -1.987988 -0.248482
-4.113325 -1.973232 -0.249351
-4.120788 -1.959307 -0.250528
-4.109262 -1.941228 -0.250063
-4.095460 -1.922825 -0.249384
-4.088838 -1.906091 -0.249304
-4.080280 -1.889076 -0.249038
-4.079315 -1.873688 -0.249410
-4.085747 -1.859778 -0.250404
-4.097176 -1.846786 -0.251816
-4.103824 -1.832852 -0.252798
-4.098169 -1.816708 -0.252692
-4.083337 -1.799074 -0.251766
-4.086207 -1.784601 -0.252362
-4.083115 -1.769166 -0.252419
-4.085577 -1.754681 -0.252943
-4.058642 -1.735690 -0.250874
-4.047373 -1.719326 -0.250155
-4.055296 -1.705874 -0.251098
-4.073310 -1.693786 -0.252909
-4.071616 -1.678905 -0.252973
-4.062673 -1.663130 -0.252381
-4.047165 -1.646646 -0.251193
-4.043398 -1.631753 -0.251019
-4.061576 -1.619464 -0.252759
-4.078750 -1.606919 -0.254394
-4.078864 -1.592422 -0.254510
-4.062085 -1.576228 -0.253120
-4.048536 -1.560528 -0.251997
-4.049556 -1.546321 -0.252142
-4.045673 -1.531694 -0.251838
-4.043552 -1.517267 -0.251674
-4.039662 -1.502740 -0.251339
-4.042276 -1.488744 -0.251562
-4.034255 -1.474004 -0.250831
-4.047340 -1.460712 -0.251948
-4.039489 -1.446060 -0.251204
-4.030857 -1.431448 -0.250377
-4.025590 -1.417097 -0.249834
-4.022525 -1.402906 -0.249471
-4.018280 -1.388702 -0.248991
-4.015633 -1.374604 -0.248640
-4.012139 -1.360510 -0.248201
-4.014583 -1.346616 -0.248273
-4.018932 -1.332748 -0.248499
-4.005895 -1.318527 -0.247186
-4.011950 -1.304690 -0.247539
-4.012480 -1.290748 -0.247395
-4.013103 -1.276804 -0.247247
-4.003243 -1.262856 -0.246171
-3.989288 -1.249019 -0.244727
-3.984963 -1.235218 -0.244116
-3.997042 -1.221226 -0.244929
-4.023509 -1.206852 -0.246984
-3.998214 -1.193434 -0.244514
-3.986097 -1.179879 -0.243185
-3.992372 -1.165833 -0.243449
-3.984159 -1.152263 -0.242443
-3.993215 -1.138041 -0.242929
-4.003236 -1.123686 -0.243487
-3.989943 -1.110419 -0.242015
-3.981658 -1.096989 -0.240971
-3.977667 -1.083369 -0.240290
-3.972559 -1.069850 -0.239505
-3.976238 -1.055759 -0.239470
-3.981966 -1.041473 -0.239601
-3.967273 -1.028732 -0.237969
-3.974038 -1.014327 -0.238173
-3.972561 -1.000573 -0.237661
-3.962950 -0.987576 -0.236445
-3.951679 -0.974819 -0.235083
-3.947526 -0.961427 -0.234322
-3.954157 -0.946911 -0.234472
-3.959858 -0.932424 -0.234533
-3.960945 -0.918404 -0.234192
-3.960276 -0.904572 -0.233696
-3.950470 -0.891878 -0.232419
-3.957779 -0.877034 -0.232581
-3.958025 -0.863057 -0.232137
-3.952559 -0.849859 -0.231206
-3.940301 -0.837675 -0.229699
-3.937256 -0.824217 -0.228959
-3.942703 -0.809466 -0.228921
-3.943068 -0.795451 -0.228449
-3.938656 -0.782193 -0.227571
-3.939909 -0.768007 -0.227157
-3.939305 -0.754110 -0.226579
-3.936508 -0.740587 -0.225812
-3.931553 -0.727464 -0.224860
-3.928904 -0.713936 -0.224089
-3.925792 -0.700500 -0.223273
-3.932938 -0.685058 -0.223289
-3.912446 -0.675084 -0.221035
-3.912224 -0.661109 -0.220431
-3.918158 -0.645815 -0.220318
-3.921415 -0.631017 -0.219975
-3.910780 -0.619223 -0.218498
-3.911203 -0.605017 -0.217906
-3.911905 -0.590715 -0.217327
-3.919924 -0.574662 -0.217323
-3.911504 -0.562443 -0.215989
-3.917689 -0.546706 -0.215814
-3.916204 -0.532792 -0.215013
-3.908253 -0.520508 -0.213689
-3.907097 -0.506509 -0.212893
-3.909129 -0.491647 -0.212337
-3.897268 -0.480471 -0.210676
-3.888982 -0.468398 -0.209287
-3.895962 -0.452115 -0.209082
-3.901354 -0.436178 -0.208735
-3.896285 -0.423174 -0.207560
-3.904234 -0.406357 -0.207380
-3.887515 -0.396794 -0.205282
-3.884862 -0.383085 -0.204257
-3.877969 -0.370671 -0.202894
-3.875908 -0.356769 -0.201887
-3.885244 -0.339210 -0.201729
-3.886273 -0.324203 -0.200922
-3.886454 -0.309420 -0.200033
-3.884751 -0.295218 -0.198987
-3.881199 -0.281613 -0.197785
-3.872016 -0.269935 -0.196150
-3.872804 -0.254815 -0.195239
-3.875944 -0.238800 -0.194482
-3.875310 -0.224057 -0.193426
-3.870828 -0.210671 -0.192072
-3.861310 -0.199141 -0.190335
-3.862140 -0.183766 -0.189331
-3.863487 -0.168125 -0.188342
-3.862140 -0.153450 -0.187139
-3.880688 -0.130939 -0.187326
-4.021627 -0.059605 -0.196110
-4.055490 -0.029753 -0.197246
-4.053962 -0.013888 -0.195863
-4.056282 0.003624 -0.194723
-4.051153 0.018121 -0.193043
-4.045899 0.032588 -0.191333
-4.042648 0.047936 -0.189738
-4.038761 0.063053 -0.188077
-4.034175 0.077902 -0.186347
-4.027247 0.091741 -0.184438
-4.023566 0.107053 -0.182725
-4.026026 0.125219 -0.181392
-4.031741 0.145006 -0.180241
-4.032904 0.162817 -0.178764
-4.030588 0.179084 -0.177037
-4.027791 0.195186 -0.175256
-4.019401 0.208635 -0.173100
-4.012391 0.222759 -0.171014
-4.010010 0.239198 -0.169198
-4.011090 0.257444 -0.167574
-4.010365 0.274879 -0.165816
-4.005950 0.290501 -0.163815
-4.003043 0.306949 -0.161889
-3.999502 0.323122 -0.159910
-3.994999 0.338830 -0.157862
-3.991072 0.354884 -0.155838
-3.987304 0.371063 -0.153815
-3.984421 0.387766 -0.151837
-3.982879 0.405261 -0.149929
-3.980672 0.422437 -0.147982
-3.974508 0.437402 -0.145820
-3.972256 0.454607 -0.143879
-3.970128 0.471914 -0.141954
-3.968033 0.489263 -0.140044
-3.967548 0.507585 -0.138235
-3.968132 0.526575 -0.136502
-3.969256 0.545924 -0.134819
-3.966001 0.562615 -0.132943
-3.955563 0.574819 -0.130746
-3.953655 0.592219 -0.129022
-3.966053 0.618612 -0.128047
-3.967284 0.638001 -0.126569
-3.951979 0.646702 -0.124352
-3.953033 0.665795 -0.122988
-3.953587 0.684498 -0.121667
-3.924193 0.683269 -0.119021
-3.933686 0.760974 -0.115193
-3.951805 0.791044 -0.115158
-3.936965 0.798133 -0.113734
-3.920454 0.803701 -0.112340
-3.910082 0.813265 -0.111320
-3.910619 0.830340 -0.110882
-3.902619 0.841068 -0.110166
-4.182676 -2.564167 -0.264085
-4.165561 -2.530458 -0.260946
-4.164682 -2.516430 -0.260172
-4.167527 -2.503657 -0.259803
-4.163714 -2.488094 -0.258932
-4.157498 -2.471454 -0.257932
-4.160645 -2.458209 -0.257826
-4.162545 -2.444290 -0.257688
-4.159137 -2.428231 -0.257166
-4.149065 -2.409623 -0.256141
-4.150174 -2.394957 -0.256157
-4.152342 -2.380508 -0.256335
-4.157215 -2.366845 -0.256814
-4.155989 -2.350917 -0.256826
-4.152590 -2.334153 -0.256710
-4.145256 -2.316008 -0.256308
-4.141638 -2.299067 -0.256279
-4.148880 -2.285593 -0.257243
-4.151311 -2.270447 -0.257831
-4.136907 -2.249945 -0.256990
-4.135184 -2.233450 -0.257289
-4.138824 -2.218561 -0.258087
-4.136740 -2.201902 -0.258411
-4.126096 -2.182738 -0.258004
-4.112494 -2.162821 -0.257351
-4.110624 -2.146357 -0.257744
-4.105223 -2.128937 -0.257835
-4.108456 -2.113934 -0.258698
-4.112293 -2.099077 -0.259620
-4.109961 -2.082585 -0.259997
-4.111185 -2.067057 -0.260690
-4.096572 -2.047554 -0.259965
-4.105777 -2.034117 -0.261363
-4.112827 -2.020103 -0.262565
-4.095881 -2.000368 -0.261602
-4.104745 -1.986834 -0.262948
-4.111660 -1.972811 -0.264110
-4.115989 -1.958188 -0.265027
-4.115258 -1.942469 -0.265474
-4.100194 -1.923762 -0.264604
-4.090370 -1.906334 -0.264190
-4.085470 -1.890046 -0.264205
-4.071536 -1.872068 -0.263377
-4.096985 -1.861851 -0.266126
-4.102041 -1.847605 -0.266998
-4.115110 -1.834817 -0.268587
-4.109502 -1.818624 -0.268447
-4.102967 -1.802367 -0.268203
-4.092525 -1.785558 -0.267578
-4.085057 -1.769376 -0.267206
-4.083826 -1.754293 -0.267389
-4.074513 -1.738018 -0.266807
-4.057097 -1.720661 -0.265458
-4.055462 -1.705781 -0.265544
-4.061767 -1.692057 -0.266347
-4.066883 -1.678145 -0.267022
-4.059347 -1.662572 -0.266508
-4.050292 -1.646910 -0.265834
-4.052906 -1.632768 -0.266224
-4.060226 -1.619173 -0.267034
-4.071424 -1.605966 -0.268186
-4.086367 -1.593077 -0.269670
-4.047302 -1.574579 -0.266124
-4.043653 -1.559904 -0.265849
-4.045107 -1.545755 -0.266031
-4.048083 -1.531746 -0.266339
-4.044137 -1.517152 -0.265989
-4.043601 -1.502880 -0.265940
-4.044294 -1.488718 -0.265990
-4.057775 -1.475448 -0.267214
-4.041735 -1.460165 -0.265682
-4.037994 -1.445778 -0.265277
-4.035105 -1.431484 -0.264939
-4.033840 -1.417310 -0.264737
-4.030884 -1.403078 -0.264366
-4.020208 -1.388564 -0.263266
-4.010761 -1.374200 -0.262269
-4.010582 -1.360227 -0.262118
-4.019089 -1.346498 -0.262760
-4.022241 -1.332574 -0.262893
-4.020537 -1.318536 -0.262565
-4.011168 -1.304413 -0.261518
-4.010874 -1.290458 -0.261299
-4.009453 -1.276503 -0.260965
-3.988176 -1.262567 -0.258789
-4.004266 -1.234724 -0.259816
-4.009764 -1.220724 -0.260077
-3.995727 -1.207037 -0.258533
-3.990161 -1.193279 -0.257760
-3.980705 -1.179677 -0.256620
-3.982729 -1.165784 -0.256526
-3.990767 -1.151642 -0.256972
-3.991867 -1.137711 -0.256773
-3.990716 -1.123868 -0.256360
-3.986706 -1.110175 -0.255677
-3.986853 -1.096279 -0.255366
-3.982135 -1.082668 -0.254603
-3.979501 -1.068957 -0.254022
-3.979983 -1.055043 -0.253717
-3.972390 -1.041716 -0.252671
-3.968781 -1.028134 -0.251979
-3.970426 -1.014136 -0.251756
-3.976125 -0.999754 -0.251890
-3.965111 -0.986860 -0.250508
-3.962305 -0.973256 -0.249861
-3.962868 -0.959321 -0.249509
-3.966295 -0.945061 -0.249405
-3.963826 -0.931414 -0.248765
-3.961419 -0.917769 -0.248124
-3.949916 -0.905232 -0.246663
-3.959416 -0.890150 -0.247071
-3.959038 -0.876251 -0.246589
-3.963507 -0.861685 -0.246529
-3.951084 -0.849420 -0.244963
-3.941380 -0.836864 -0.243633
-3.933894 -0.824051 -0.242494
-3.939210 -0.809322 -0.242480
-3.953293 -0.793134 -0.243227
-3.948904 -0.779811 -0.242338
-3.942154 -0.766908 -0.241236
-3.937819 -0.753632 -0.240339
-3.937012 -0.739751 -0.239743
-3.929976 -0.726992 -0.238596
-3.927255 -0.713473 -0.237819
-3.932588 -0.698413 -0.237732
-3.928086 -0.685214 -0.236783
-3.917939 -0.673172 -0.235339
-3.917470 -0.659209 -0.234724
-3.921445 -0.644289 -0.234482
-3.923747 -0.629668 -0.234085
-3.915624 -0.617299 -0.232785
-3.905530 -0.605428 -0.231310
-3.910851 -0.590078 -0.231142
-3.911930 -0.575647 -0.230601
-3.916470 -0.560347 -0.230342
-3.919419 -0.545365 -0.229936
-3.915644 -0.532003 -0.228950
-3.902795 -0.520960 -0.227192
-3.895204 -0.508647 -0.225868
-3.912843 -0.489704 -0.226646
-3.903343 -0.477866 -0.225140
-3.894639 -0.465870 -0.223693
-3.897668 -0.450650 -0.223209
-3.902020 -0.434988 -0.222820
-3.892131 -0.423365 -0.221242
-3.879729 -0.412543 -0.219449
-3.875836 -0.399261 -0.218345
-3.880148 -0.383483 -0.217897
-3.881427 -0.368559 -0.217186
-3.880203 -0.354368 -0.216256
-3.875630 -0.341216 -0.215040
-3.878680 -0.325593 -0.214424
-3.880254 -0.310381 -0.213672
-3.878206 -0.296318 -0.212613
-3.871136 -0.283935 -0.211139
-3.870619 -0.269316 -0.210170
-3.874276 -0.253190 -0.209512
-3.873977 -0.238380 -0.208523
-3.871684 -0.224239 -0.207360
-3.881497 -0.205641 -0.207120
-3.875553 -0.192727 -0.205634
-3.870785 -0.179374 -0.204222
-3.854175 -0.170527 -0.201885
-3.851239 -0.156509 -0.200584
-3.868770 -0.134440 -0.200816
-4.018721 -0.059528 -0.211015
-4.043632 -0.033274 -0.211678
-4.052199 -0.013349 -0.211075
-4.049993 0.002291 -0.209641
-4.049448 0.018678 -0.208306
-4.043626 0.032898 -0.206560
-4.041279 0.048627 -0.205046
-4.041225 0.065409 -0.203676
-4.038265 0.080993 -0.202070
-4.033764 0.095941 -0.200330
-4.030332 0.111408 -0.198644
-4.027176 0.127050 -0.196955
-4.030678 0.145830 -0.195710
-4.033094 0.164231 -0.194360
-4.027936 0.179157 -0.192457
-4.023562 0.194496 -0.190587
-4.018545 0.209565 -0.188652
-4.014768 0.225281 -0.186781
-4.015725 0.243405 -0.185208
-4.016217 0.261402 -0.183578
-4.010940 0.276563 -0.181545
-4.004624 0.291222 -0.179427
-4.002552 0.308113 -0.177571
-3.999503 0.324559 -0.175636
-3.990791 0.338041 -0.173325
-3.988481 0.354963 -0.171413
-3.985861 0.371775 -0.169470
-3.985175 0.389708 -0.167638
-3.984136 0.407518 -0.165777
-3.982170 0.424870 -0.163855
-3.976895 0.440385 -0.161733
-3.974255 0.457421 -0.159775
-3.970218 0.473671 -0.157741
-3.969457 0.491853 -0.155912
-3.968802 0.510135 -0.154102
-3.970402 0.529802 -0.152439
-3.967436 0.546744 -0.150537
-3.964889 0.563923 -0.148689
-3.945420 0.570584 -0.145938
-3.952183 0.593426 -0.144684
-3.966346 0.621017 -0.143867
-3.964068 0.638254 -0.142199
-3.950673 0.648245 -0.139994
-3.950259 0.666471 -0.138546
-3.965473 0.694898 -0.137980
-3.949421 0.702676 -0.135847
-3.955990 0.761529 -0.132761
-3.964655 0.785404 -0.132222
-3.958874 0.799207 -0.131043
-3.935596 0.800533 -0.129088
-3.923965 0.809641 -0.127815
-3.910205 0.816921 -0.126538
-3.907208 0.831583 -0.125892
-3.919384 0.856992 -0.126089
-3.944410 0.891709 -0.127011
-4.191753 -2.570084 -0.279533
-4.169839 -2.547770 -0.276691
-4.167817 -2.533373 -0.275773
-4.181149 -2.524850 -0.276349
-4.174375 -2.508152 -0.275149
-4.159606 -2.488227 -0.273297
-4.160295 -2.474140 -0.272944
-4.163479 -2.460800 -0.272896
-4.165277 -2.446734 -0.272798
-4.160786 -2.430168 -0.272199
-4.152631 -2.412151 -0.271338
-4.148531 -2.395511 -0.270918
-4.155747 -2.382766 -0.271600
-4.152506 -2.366175 -0.271390
-4.159307 -2.352945 -0.272159
-4.156528 -2.336294 -0.272110
-4.151777 -2.318914 -0.271934
-4.144230 -2.300577 -0.271549
-4.146847 -2.285528 -0.272141
-4.136796 -2.266354 -0.271611
-4.137882 -2.250719 -0.272139
-4.136152 -2.234162 -0.272441
-4.137752 -2.218599 -0.273078
-4.135270 -2.201780 -0.273362
-4.136701 -2.186117 -0.274028
-4.131022 -2.168386 -0.274051
-4.120753 -2.149417 -0.273658
-4.118532 -2.132795 -0.274021
-4.119399 -2.117051 -0.274679
-4.112640 -2.099278 -0.274627
-4.113584 -2.083619 -0.275295
-4.115108 -2.068130 -0.276017
-4.113380 -2.051836 -0.276429
-4.097883 -2.032194 -0.275535
-4.119323 -2.021688 -0.278120
-4.113909 -2.004642 -0.278160
-4.104364 -1.986733 -0.277795
-4.106858 -1.971697 -0.278559
-4.111430 -1.957144 -0.279508
-4.105151 -1.940235 -0.279409
-4.096982 -1.923033 -0.279112
-4.094767 -1.907192 -0.279366
-4.091136 -1.891134 -0.279468
-4.098750 -1.877375 -0.280630
-4.090882 -1.860609 -0.280289
-4.102156 -1.847554 -0.281770
-4.101672 -1.832286 -0.282103
-4.108172 -1.818308 -0.283090
-4.099773 -1.801733 -0.282622
-4.088618 -1.784817 -0.281867
-4.087068 -1.769617 -0.282020
-4.079360 -1.753495 -0.281558
-4.069977 -1.737228 -0.280914
-4.061305 -1.721193 -0.280319
-4.065243 -1.707093 -0.280928
-4.071954 -1.693376 -0.281790
-4.068429 -1.678249 -0.281639
-4.061567 -1.662754 -0.281145
-4.073028 -1.649646 -0.282417
-4.071950 -1.634949 -0.282451
-4.061920 -1.619252 -0.281596
-4.065721 -1.605211 -0.282071
-4.068027 -1.591000 -0.282384
-4.077651 -1.577534 -0.283395
-4.044718 -1.559874 -0.280239
-4.043201 -1.545441 -0.280131
-4.049819 -1.531754 -0.280802
-4.045397 -1.517108 -0.280380
-4.037478 -1.502246 -0.279602
-4.061653 -1.489837 -0.281940
-4.064449 -1.475742 -0.282179
-4.050510 -1.460557 -0.280771
-4.036566 -1.445514 -0.279349
-4.039335 -1.431532 -0.279544
-4.037074 -1.417280 -0.279236
-4.029698 -1.402824 -0.278416
-4.017334 -1.388238 -0.277099
-4.010782 -1.373987 -0.276336
-4.016651 -1.360198 -0.276770
-4.021711 -1.346339 -0.277113
-4.021674 -1.332321 -0.276949
-4.016119 -1.318207 -0.276237
-4.013980 -1.304193 -0.275847
-4.015093 -1.290229 -0.275762
-4.014626 -1.276249 -0.275512
-4.006562 -1.262276 -0.274517
-3.980230 -1.248469 -0.271744
-3.976271 -1.234687 -0.271129
-3.994566 -1.220624 -0.272656
-3.992788 -1.206767 -0.272232
-3.989605 -1.192956 -0.271663
-3.998786 -1.178823 -0.272278
-3.993970 -1.165058 -0.271534
-3.988397 -1.151361 -0.270709
-3.988942 -1.137453 -0.270465
-3.990787 -1.123472 -0.270336
-3.993547 -1.109420 -0.270287
-3.994281 -1.095448 -0.270034
-3.993864 -1.081531 -0.269663
-3.988814 -1.067910 -0.268842
-3.980492 -1.054555 -0.267701
-3.971510 -1.041317 -0.266492
-3.972348 -1.027376 -0.266211
-3.973934 -1.013353 -0.265994
-3.974145 -0.999426 -0.265638
-3.970800 -0.985817 -0.264938
-3.963522 -0.972610 -0.263858
-3.968939 -0.958159 -0.263973
-3.972014 -0.943895 -0.263858
-3.964851 -0.930733 -0.262770
-3.949792 -0.918543 -0.260933
-3.958689 -0.903578 -0.261344
-3.962161 -0.889198 -0.261236
-3.960707 -0.875413 -0.260659
-3.951440 -0.862682 -0.259343
-3.956836 -0.847970 -0.259392
-3.949208 -0.835075 -0.258218
-3.934230 -0.823332 -0.256354
-3.933323 -0.809545 -0.255795
-3.942518 -0.794145 -0.256165
-3.956618 -0.777837 -0.256979
-3.941393 -0.766311 -0.255070
-3.935236 -0.753341 -0.253995
-3.933847 -0.739563 -0.253353
-3.929409 -0.726333 -0.252422
-3.929131 -0.712347 -0.251867
-3.933111 -0.697523 -0.251693
-3.932359 -0.683571 -0.251076
-3.920218 -0.671901 -0.249413
-3.914043 -0.659092 -0.248289
-3.922027 -0.643327 -0.248443
-3.912513 -0.631243 -0.246999
-3.911644 -0.617316 -0.246331
-3.914545 -0.602520 -0.245994
-3.903490 -0.590889 -0.244390
-3.912515 -0.574610 -0.244583
-3.916357 -0.559461 -0.244298
-3.919730 -0.544362 -0.243958
-3.913335 -0.531644 -0.242736
-3.901674 -0.520301 -0.241038
-3.898788 -0.506761 -0.240111
-3.906042 -0.490533 -0.240070
-3.879787 -0.483240 -0.237060
-3.885016 -0.467525 -0.236818
-3.903973 -0.447886 -0.237765
-3.899361 -0.434732 -0.236628
-3.887451 -0.423700 -0.234846
-3.872839 -0.413547 -0.232820
-3.884507 -0.395629 -0.233066
-3.891402 -0.379009 -0.232879
-3.892690 -0.364016 -0.232190
-3.874032 -0.355244 -0.229775
-3.871892 -0.341337 -0.228767
-3.870848 -0.327053 -0.227839
-3.870254 -0.312586 -0.226933
-3.878833 -0.295007 -0.226788
-3.873121 -0.282152 -0.225415
-3.870754 -0.268153 -0.224310
-3.876667 -0.251227 -0.223882
-3.876137 -0.236478 -0.222894
-3.870676 -0.223461 -0.221479
-3.867321 -0.209676 -0.220223
-3.874629 -0.191912 -0.219828
-3.869989 -0.178511 -0.218429
-3.847027 -0.172092 -0.215517
-3.836554 -0.161022 -0.213616
-3.885266 -0.126787 -0.216490
-4.045952 -0.047449 -0.228320
-4.050480 -0.029246 -0.227492
-4.053292 -0.011623 -0.226500
-4.050170 0.003649 -0.225011
-4.039293 0.015713 -0.222888
-4.041314 0.033212 -0.221763
-4.040367 0.049536 -0.220378
-4.038067 0.065342 -0.218864
-4.033862 0.080364 -0.217180
-4.030088 0.095618 -0.215507
-4.028340 0.111831 -0.213966
-4.029277 0.129343 -0.212604
-4.027454 0.145675 -0.211007
-4.026029 0.162265 -0.209416
-4.024096 0.178689 -0.207762
-4.021268 0.194756 -0.206019
-4.018196 0.210765 -0.204235
-4.014799 0.226676 -0.202405
-4.013148 0.243512 -0.200681
-4.013904 0.261640 -0.199106
-4.010386 0.277695 -0.197204
-4.004107 0.292381 -0.195088
-4.000041 0.308245 -0.193113
-3.997719 0.325076 -0.191243
-3.993126 0.340762 -0.189202
-3.987600 0.355982 -0.187085
-3.985871 0.373299 -0.185217
-3.982219 0.389620 -0.183209
-3.982071 0.407939 -0.181429
-3.981789 0.426260 -0.179632
-3.980215 0.443917 -0.177747
-3.979120 0.461902 -0.175893
-3.974478 0.477870 -0.173816
-3.971430 0.494778 -0.171851
-3.967368 0.511094 -0.169836
-3.965574 0.528766 -0.167982
-3.965510 0.547499 -0.166256
-3.951932 0.557952 -0.163726
-3.946921 0.573561 -0.161761
-3.955273 0.597488 -0.160639
-3.960608 0.619597 -0.159368
-3.956865 0.635942 -0.157599
-3.952632 0.651885 -0.155856
-3.959535 0.674987 -0.154820
-3.960121 0.693951 -0.153474
-3.942085 0.700465 -0.151129
-3.941605 0.736632 -0.148707
-3.952993 0.762482 -0.148265
-3.955931 0.782515 -0.147429
-3.936883 0.787154 -0.145459
-3.926780 0.797681 -0.144083
-3.922085 0.811748 -0.143101
-3.907313 0.818400 -0.141664
-3.902527 0.831874 -0.140871
-3.917697 0.859562 -0.141259
-3.924161 0.880868 -0.141268
-4.143101 -2.552401 -0.289505
-4.167466 -2.548891 -0.291116
-4.177369 -2.539177 -0.291390
-4.177941 -2.525476 -0.290834
-4.178839 -2.511693 -0.290388
-4.172381 -2.494856 -0.289310
-4.162118 -2.476429 -0.287944
-4.166758 -2.463536 -0.288090
-4.165009 -2.448039 -0.287696
-4.157448 -2.430247 -0.286817
-4.150319 -2.412524 -0.286051
-4.152797 -2.398163 -0.286276
-4.153320 -2.382946 -0.286379
-4.152153 -2.367005 -0.286382
-4.145375 -2.349030 -0.285903
-4.154341 -2.336349 -0.286995
-4.158270 -2.321804 -0.287653
-4.153439 -2.304256 -0.287514
-4.145196 -2.285581 -0.287088
-4.146027 -2.269819 -0.287575
-4.140320 -2.251951 -0.287465
-4.136909 -2.234810 -0.287605
-4.136131 -2.218473 -0.288026
-4.135460 -2.202157 -0.288480
-4.137915 -2.186752 -0.289257
-4.136855 -2.170307 -0.289705
-4.123207 -2.150317 -0.288933
-4.123572 -2.134370 -0.289538
-4.131907 -2.120608 -0.290931
-4.135004 -2.105382 -0.291813
-4.126484 -2.087104 -0.291552
-4.117978 -2.068947 -0.291285
-4.112166 -2.051591 -0.291278
-4.105728 -2.034178 -0.291199
-4.103074 -2.017785 -0.291485
-4.118764 -2.005811 -0.293585
-4.099586 -1.985631 -0.292205
-4.106282 -1.971564 -0.293387
-4.108377 -1.956454 -0.294098
-4.103979 -1.939961 -0.294145
-4.101360 -1.923936 -0.294354
-4.099741 -1.908191 -0.294646
-4.114970 -1.895916 -0.296615
-4.114874 -1.880515 -0.297027
-4.093851 -1.861134 -0.295312
-4.099893 -1.847079 -0.296306
-4.106136 -1.833047 -0.297303
-4.094837 -1.815880 -0.296509
-4.088732 -1.799762 -0.296219
-4.083075 -1.783821 -0.295956
-4.081537 -1.768647 -0.296091
-4.076273 -1.752937 -0.295828
-4.050825 -1.734212 -0.293495
-4.065111 -1.721684 -0.295182
-4.080133 -1.709160 -0.296928
-4.078645 -1.694226 -0.296976
-4.074841 -1.679027 -0.296770
-4.072871 -1.664133 -0.296734
-4.075626 -1.649879 -0.297162
-4.078238 -1.635609 -0.297558
-4.074214 -1.620574 -0.297261
-4.060762 -1.604556 -0.295984
-4.046675 -1.588621 -0.294625
-4.043596 -1.573960 -0.294374
-4.055776 -1.560828 -0.295667
-4.052202 -1.546149 -0.295334
-4.050004 -1.531642 -0.295128
-4.039139 -1.516455 -0.294020
-4.034164 -1.501847 -0.293500
-4.049130 -1.488768 -0.295004
-4.051352 -1.474685 -0.295192
-4.041716 -1.459832 -0.294154
-4.037520 -1.445405 -0.293659
-4.037061 -1.431233 -0.293533
-4.034820 -1.416986 -0.293212
-4.026678 -1.402497 -0.292277
-4.017099 -1.388033 -0.291183
-4.014166 -1.373907 -0.290755
-4.018414 -1.360043 -0.291049
-4.021094 -1.346101 -0.291171
-4.009530 -1.331816 -0.289830
-4.014326 -1.317936 -0.290145
-4.013536 -1.303939 -0.289881
-4.014925 -1.289970 -0.289828
-4.014046 -1.275979 -0.289534
-3.997076 -1.262003 -0.287596
-3.995823 -1.248104 -0.287246
-3.999136 -1.234170 -0.287349
-4.000313 -1.220234 -0.287225
-3.997819 -1.206353 -0.286721
-3.998689 -1.192413 -0.286548
-4.002730 -1.178370 -0.286687
-4.001424 -1.164461 -0.286276
-3.993913 -1.150791 -0.285231
-3.994016 -1.136863 -0.284946
-3.996641 -1.122810 -0.284907
-3.997046 -1.108839 -0.284636
-3.994323 -1.095032 -0.284042
-3.997433 -1.080888 -0.284027
-3.988582 -1.067487 -0.282804
-3.981003 -1.054070 -0.281703
-3.979215 -1.040282 -0.281175
-3.978398 -1.026423 -0.280737
-3.977050 -1.012605 -0.280239
-3.967251 -0.999536 -0.278891
-3.957324 -0.986559 -0.277527
-3.960933 -0.972338 -0.277502
-3.964835 -0.958040 -0.277498
-3.969157 -0.943647 -0.277528
-3.962697 -0.930407 -0.276482
-3.953012 -0.917590 -0.275113
-3.960171 -0.902806 -0.275401
-3.962218 -0.888583 -0.275176
-3.943391 -0.877055 -0.272890
-3.949057 -0.862371 -0.273008
-3.954545 -0.847643 -0.273100
-3.956955 -0.833292 -0.272881
-3.954097 -0.819689 -0.272140
-3.927796 -0.809713 -0.269103
-3.929340 -0.795540 -0.268781
-3.931282 -0.781269 -0.268490
-3.935866 -0.766514 -0.268447
-3.934372 -0.752751 -0.267806
-3.931295 -0.739263 -0.267004
-3.929054 -0.725632 -0.266276
-3.929060 -0.711580 -0.265758
-3.928563 -0.697603 -0.265183
-3.931880 -0.682857 -0.264966
-3.926072 -0.669900 -0.263865
-3.917320 -0.657584 -0.262475
-3.911767 -0.644653 -0.261386
-3.913080 -0.630264 -0.260944
-3.913228 -0.616096 -0.260381
-3.913997 -0.601761 -0.259868
-3.910970 -0.588269 -0.258986
-3.916673 -0.572722 -0.258920
-3.915534 -0.558738 -0.258197
-3.913574 -0.544938 -0.257386
-3.906622 -0.532379 -0.256097
-3.903263 -0.518941 -0.255137
-3.900644 -0.505313 -0.254237
-3.897304 -0.491871 -0.253259
-3.897827 -0.477386 -0.252630
-3.893842 -0.464103 -0.251571
-3.899769 -0.448050 -0.251419
-3.896329 -0.434573 -0.250387
-3.887381 -0.422691 -0.248837
-3.887047 -0.408321 -0.248069
-3.887329 -0.393732 -0.247344
-3.894538 -0.376990 -0.247237
-3.885345 -0.365218 -0.245620
-3.880826 -0.352026 -0.244418
-3.873334 -0.339789 -0.242934
-3.870504 -0.326069 -0.241859
-3.879637 -0.308383 -0.241845
-3.882089 -0.292798 -0.241212
-3.878279 -0.279272 -0.240001
-3.878644 -0.264294 -0.239148
-3.874230 -0.250939 -0.237854
-3.879147 -0.234256 -0.237368
-3.870424 -0.222395 -0.235662
-3.870909 -0.207198 -0.234749
-3.866958 -0.193587 -0.233430
-3.863203 -0.179887 -0.232112
-3.852688 -0.168750 -0.230191
-3.845054 -0.156548 -0.228507
-3.894819 -0.121826 -0.231736
-4.051406 -0.043995 -0.244040
-4.053846 -0.026596 -0.243083
-4.059414 -0.007820 -0.242366
-4.050830 0.005229 -0.240428
-4.054165 0.023262 -0.239473
-4.040343 0.034117 -0.237058
-4.040417 0.050881 -0.235784
-4.039805 0.067429 -0.234429
-4.035181 0.082282 -0.232720
-4.030218 0.097017 -0.230961
-4.028909 0.113437 -0.229479
-4.031325 0.131637 -0.228273
-4.029276 0.147883 -0.226680
-4.028378 0.164738 -0.225155
-4.020612 0.178411 -0.223060
-4.023372 0.197154 -0.221778
-4.016722 0.211442 -0.219729
-4.016362 0.228850 -0.218152
-4.011791 0.244250 -0.216225
-4.010833 0.261518 -0.214556
-4.008118 0.277976 -0.212731
-4.002377 0.292938 -0.210656
-3.998031 0.308660 -0.208671
-3.993746 0.324459 -0.206675
-3.992443 0.341895 -0.204886
-3.986958 0.357152 -0.202774
-3.985373 0.374565 -0.200936
-3.984038 0.392188 -0.199105
-3.981336 0.409119 -0.197166
-3.979595 0.426642 -0.195290
-3.979274 0.445035 -0.193510
-3.979287 0.463690 -0.191750
-3.976442 0.480747 -0.189793
-3.970091 0.495762 -0.187602
-3.963679 0.510715 -0.185422
-3.965909 0.530841 -0.183847
-3.959762 0.545930 -0.181724
-3.956910 0.562997 -0.179849
-3.951186 0.578259 -0.177813
-3.955824 0.599958 -0.176494
-3.958724 0.620607 -0.175094
-3.960306 0.640429 -0.173648
-3.956449 0.656720 -0.171900
-3.960603 0.678148 -0.170717
-3.960196 0.696561 -0.169301
-3.938180 0.700510 -0.166597
-3.941272 0.757439 -0.163261
-3.924242 0.763735 -0.161202
-3.921920 0.779924 -0.160131
-3.926446 0.800742 -0.159562
-3.928790 0.819905 -0.158950
-3.916447 0.828433 -0.157548
-3.909242 0.840332 -0.156552
-3.923640 0.867637 -0.156939
-4.005250 0.944074 -0.161411
-4.125274 -2.547233 -0.302238
-4.167956 -2.551139 -0.305873
-4.174658 -2.540052 -0.305910
-4.168532 -2.523614 -0.304721
-4.172380 -2.510932 -0.304620
-4.172965 -2.496751 -0.304265
-4.170665 -2.481267 -0.303694
-4.166510 -2.464917 -0.303011
-4.162375 -2.448435 -0.302404
-4.149965 -2.428774 -0.301034
-4.147103 -2.412546 -0.300697
-4.151335 -2.398743 -0.301141
-4.157810 -2.385556 -0.301875
-4.146844 -2.366091 -0.300910
-4.145787 -2.350030 -0.301000
-4.151124 -2.336045 -0.301789
-4.159169 -2.322820 -0.302902
-4.157048 -2.306090 -0.303031
-4.156650 -2.289873 -0.303376
-4.150924 -2.271905 -0.303215
-4.146999 -2.254514 -0.303269
-4.141273 -2.236573 -0.303166
-4.138925 -2.219691 -0.303430
-4.140919 -2.204112 -0.304157
-4.140176 -2.187703 -0.304621
-4.129664 -2.168487 -0.304097
-4.126641 -2.151507 -0.304347
-4.128741 -2.135994 -0.305129
-4.134044 -2.121353 -0.306246
-4.136375 -2.105887 -0.307059
-4.125161 -2.086873 -0.306471
-4.119063 -2.069323 -0.306405
-4.112270 -2.051697 -0.306259
-4.109550 -2.035186 -0.306527
-4.108648 -2.019185 -0.306973
-4.108856 -2.003500 -0.307524
-4.109198 -1.987889 -0.308077
-4.102093 -1.970631 -0.307838
-4.106141 -1.955968 -0.308751
-4.110295 -1.941334 -0.309661
-4.105362 -1.924781 -0.309602
-4.104457 -1.909158 -0.309949
-4.105375 -1.893960 -0.310471
-4.084667 -1.874534 -0.308696
-4.089577 -1.860287 -0.309602
-4.097009 -1.846510 -0.310758
-4.114593 -1.834559 -0.312972
-4.089821 -1.814952 -0.310685
-4.083360 -1.798794 -0.310317
-4.081111 -1.783448 -0.310375
-4.080605 -1.768448 -0.310601
-4.087222 -1.754622 -0.311565
-4.079499 -1.738566 -0.310987
-4.085347 -1.724641 -0.311834
-4.080129 -1.709100 -0.311485
-4.077423 -1.693993 -0.311387
-4.075753 -1.679083 -0.311380
-4.071684 -1.663908 -0.311101
-4.070080 -1.649110 -0.311068
-4.069983 -1.634536 -0.311178
-4.069848 -1.619986 -0.311268
-4.061034 -1.604499 -0.310415
-4.030745 -1.586836 -0.307250
-4.045028 -1.574008 -0.308833
-4.043181 -1.559505 -0.308677
-4.044286 -1.545310 -0.308821
-4.041539 -1.530787 -0.308538
-4.042960 -1.516652 -0.308687
-4.029662 -1.501369 -0.307249
-4.033078 -1.487454 -0.307583
-4.036021 -1.473489 -0.307853
-4.035077 -1.459259 -0.307695
-4.033575 -1.445016 -0.307464
-4.035659 -1.430995 -0.307603
-4.033509 -1.416750 -0.307277
-4.039061 -1.402887 -0.307762
-4.029258 -1.388348 -0.306596
-4.016700 -1.373807 -0.305125
-4.009763 -1.359565 -0.304244
-4.008364 -1.345544 -0.303942
-4.015800 -1.331738 -0.304570
-4.017333 -1.317760 -0.304559
-4.016504 -1.303739 -0.304285
-4.004528 -1.289630 -0.302817
-3.999038 -1.275658 -0.302029
-4.005757 -1.261730 -0.302528
-4.013347 -1.247734 -0.303109
-4.014086 -1.233733 -0.302954
-4.008324 -1.219816 -0.302100
-4.002484 -1.205951 -0.301231
-4.002468 -1.191999 -0.300969
-4.000721 -1.178091 -0.300516
-4.003489 -1.164045 -0.300531
-3.999918 -1.150206 -0.299869
-3.999686 -1.136252 -0.299551
-3.996546 -1.122430 -0.298919
-3.988474 -1.108884 -0.297761
-3.987927 -1.094982 -0.297388
-3.992433 -1.080770 -0.297538
-3.991222 -1.066880 -0.297079
-3.978215 -1.053819 -0.295378
-3.976731 -1.040008 -0.294878
-3.980743 -1.025764 -0.294946
-3.973064 -1.012454 -0.293785
-3.960047 -0.999678 -0.292062
-3.953450 -0.986412 -0.291004
-3.959128 -0.971991 -0.291217
-3.968227 -0.957153 -0.291778
-3.970076 -0.942995 -0.291577
-3.964375 -0.929653 -0.290586
-3.962463 -0.915908 -0.289982
-3.956868 -0.902614 -0.288991
-3.950830 -0.889413 -0.287949
-3.946946 -0.875971 -0.287124
-3.942923 -0.862570 -0.286279
-3.948250 -0.847878 -0.286389
-3.956580 -0.832683 -0.286799
-3.957361 -0.818523 -0.286425
-3.943227 -0.806643 -0.284518
-3.926372 -0.795313 -0.282330
-3.926553 -0.781330 -0.281879
-3.929307 -0.766892 -0.281681
-3.932213 -0.752382 -0.281491
-3.935096 -0.737829 -0.281291
-3.932832 -0.724170 -0.280560
-3.929379 -0.710736 -0.279701
-3.924851 -0.697520 -0.278728
-3.926342 -0.683138 -0.278355
-3.927259 -0.668835 -0.277915
-3.926291 -0.654890 -0.277278
-3.923562 -0.641305 -0.276456
-3.921929 -0.627485 -0.275735
-3.919322 -0.613871 -0.274909
-3.919027 -0.599733 -0.274306
-3.918872 -0.585541 -0.273707
-3.917598 -0.571587 -0.272988
-3.916771 -0.557511 -0.272304
-3.909260 -0.545058 -0.270950
-3.903747 -0.532149 -0.269785
-3.901289 -0.518483 -0.268913
-3.902506 -0.503853 -0.268393
-3.909607 -0.487619 -0.268437
-3.903922 -0.474740 -0.267218
-3.903139 -0.460534 -0.266467
-3.894956 -0.448377 -0.264984
-3.894064 -0.434187 -0.264202
-3.890560 -0.420728 -0.263154
-3.886781 -0.407348 -0.262069
-3.886108 -0.393036 -0.261271
-3.898804 -0.374611 -0.261745
-3.889255 -0.362921 -0.260067
-3.884092 -0.349904 -0.258799
-3.876812 -0.337575 -0.257318
-3.875544 -0.323320 -0.256397
-3.875450 -0.308645 -0.255573
-3.878843 -0.292754 -0.255062
-3.879938 -0.277566 -0.254317
-3.877865 -0.263413 -0.253258
-3.870450 -0.251108 -0.251684
-3.866470 -0.237605 -0.250417
-3.872014 -0.220647 -0.250020
-3.874053 -0.204863 -0.249277
-3.870827 -0.190960 -0.248028
-3.864937 -0.178038 -0.246518
-3.857322 -0.165779 -0.244834
-3.867853 -0.146504 -0.244792
-3.932671 -0.105715 -0.249653
-4.025539 -0.052995 -0.256986
-4.047756 -0.027740 -0.257861
-4.047887 -0.011211 -0.256715
-4.056342 0.008843 -0.256290
-4.043879 0.020280 -0.253973
-4.039229 0.034982 -0.252335
-4.037263 0.050869 -0.250913
-4.039259 0.068546 -0.249816
-4.035448 0.083760 -0.248185
-4.030530 0.098521 -0.246437
-4.026478 0.113707 -0.244742
-4.031871 0.133269 -0.243838
-4.031860 0.150472 -0.242441
-4.028062 0.165986 -0.240696
-4.020673 0.179842 -0.238626
-4.009659 0.191962 -0.236232
-4.015862 0.212442 -0.235263
-4.014073 0.229150 -0.233599
-4.012641 0.246113 -0.231942
-4.010284 0.262691 -0.230186
-4.007248 0.278994 -0.228354
-4.004172 0.295340 -0.226498
-3.998991 0.310649 -0.224454
-3.995763 0.327027 -0.222552
-3.991893 0.343121 -0.220582
-3.987830 0.359161 -0.218584
-3.986657 0.376827 -0.216799
-3.985137 0.394380 -0.214975
-3.982220 0.411223 -0.213032
-3.977543 0.427121 -0.210947
-3.979872 0.447049 -0.209393
-3.982679 0.467359 -0.207868
-3.980067 0.484612 -0.205933
-3.973822 0.499751 -0.203734
-3.963469 0.512419 -0.201246
-3.961953 0.530336 -0.199426
-3.957417 0.546435 -0.197402
-3.954046 0.563225 -0.195487
-3.953497 0.581749 -0.193801
-3.956099 0.602256 -0.192368
-3.961820 0.624775 -0.191185
-3.967006 0.647007 -0.189998
-3.966216 0.665408 -0.188436
-3.955100 0.677005 -0.186215
-3.947024 0.690413 -0.184268
-3.946007 0.708354 -0.182868
-3.931196 0.753481 -0.178298
-3.925871 0.767900 -0.176908
-3.928964 0.787986 -0.176158
-3.939150 0.812950 -0.175958
-3.934545 0.827379 -0.174873
-3.918954 0.833721 -0.173164
-3.925998 0.856023 -0.173025
-3.941567 0.884413 -0.173529
-3.916576 0.883060 -0.171501
-4.146374 -2.557966 -0.319019
-4.168449 -2.553360 -0.320696
-4.172938 -2.541293 -0.320571
-4.163084 -2.523285 -0.318998
-4.160534 -2.508025 -0.318277
-4.160820 -2.493686 -0.317933
-4.165750 -2.480932 -0.318154
-4.160884 -2.464240 -0.317412
-4.156719 -2.447680 -0.316817
-4.149992 -2.430046 -0.316021
-4.146453 -2.413482 -0.315628
-4.164583 -2.404590 -0.317589
-4.161098 -2.387728 -0.317328
-4.155105 -2.369901 -0.316860
-4.144338 -2.350379 -0.315940
-4.151597 -2.336982 -0.316977
-4.155535 -2.322315 -0.317710
-4.156031 -2.306400 -0.318122
-4.152467 -2.289101 -0.318141
-4.150713 -2.272363 -0.318385
-4.145418 -2.254490 -0.318282
-4.144490 -2.237988 -0.318669
-4.143425 -2.221433 -0.319063
-4.143065 -2.205088 -0.319551
-4.141229 -2.188309 -0.319895
-4.129835 -2.168799 -0.319224
-4.120555 -2.150015 -0.318784
-4.126821 -2.135663 -0.320020
-4.134409 -2.121630 -0.321403
-4.122965 -2.102454 -0.320732
-4.122840 -2.086398 -0.321280
-4.119978 -2.069674 -0.321526
-4.118808 -2.053445 -0.321948
-4.114954 -2.036606 -0.322070
-4.111404 -2.019923 -0.322214
-4.113291 -2.004611 -0.322938
-4.110873 -1.988327 -0.323180
-4.108337 -1.972089 -0.323395
-4.105785 -1.955920 -0.323593
-4.111072 -1.941527 -0.324634
-4.102367 -1.924163 -0.324125
-4.093758 -1.906953 -0.323608
-4.098569 -1.892590 -0.324548
-4.079795 -1.873574 -0.322873
-4.080679 -1.858572 -0.323345
-4.084000 -1.844063 -0.324069
-4.083680 -1.828902 -0.324373
-4.073064 -1.811957 -0.323520
-4.082507 -1.798627 -0.324868
-4.083550 -1.783835 -0.325270
-4.082750 -1.768773 -0.325448
-4.079986 -1.753446 -0.325391
-4.085354 -1.739432 -0.326219
-4.079984 -1.723805 -0.325837
-4.074665 -1.708272 -0.325442
-4.072061 -1.693201 -0.325331
-4.080312 -1.679648 -0.326411
-4.076035 -1.664420 -0.326081
-4.061096 -1.647929 -0.324545
-4.058172 -1.633053 -0.324331
-4.062169 -1.619031 -0.324872
-4.060399 -1.604357 -0.324754
-4.052968 -1.589122 -0.323990
-4.042854 -1.573706 -0.322911
-4.047685 -1.559854 -0.323484
-4.043923 -1.545183 -0.323084
-4.046829 -1.531150 -0.323413
-4.040390 -1.516333 -0.322686
-4.037735 -1.501888 -0.322367
-4.032202 -1.487271 -0.321714
-4.037024 -1.473431 -0.322202
-4.035325 -1.459141 -0.321951
-4.035682 -1.445000 -0.321916
-4.045715 -1.431398 -0.322947
-4.035780 -1.416707 -0.321740
-4.028829 -1.402253 -0.320855
-4.031216 -1.388254 -0.320998
-4.015341 -1.373574 -0.319097
-4.001904 -1.359125 -0.317458
-4.010262 -1.345395 -0.318233
-4.018723 -1.331593 -0.319008
-4.019712 -1.317582 -0.318942
-4.012224 -1.303451 -0.317924
-4.002200 -1.289369 -0.316616
-3.992619 -1.275382 -0.315349
-4.008932 -1.261466 -0.316943
-4.017231 -1.247440 -0.317639
-4.015757 -1.233431 -0.317242
-4.009065 -1.219510 -0.316259
-4.006897 -1.205560 -0.315769
-3.999579 -1.191749 -0.314702
-3.994814 -1.177928 -0.313910
-3.996238 -1.163941 -0.313793
-3.997857 -1.149928 -0.313688
-3.998451 -1.135937 -0.313463
-3.991850 -1.122271 -0.312439
-3.981139 -1.108871 -0.310957
-3.977699 -1.095153 -0.310268
-3.987354 -1.080661 -0.311008
-3.986421 -1.066764 -0.310579
-3.970414 -1.053924 -0.308493
-3.971596 -1.039936 -0.308283
-3.972922 -1.025916 -0.308082
-3.973007 -1.011976 -0.307737
-3.964607 -0.998778 -0.306462
-3.964194 -0.984899 -0.306051
-3.973775 -0.970029 -0.306720
-3.975907 -0.955824 -0.306571
-3.970601 -0.942386 -0.305608
-3.962172 -0.929335 -0.304301
-3.950953 -0.916675 -0.302688
-3.948934 -0.902986 -0.302066
-3.949296 -0.889001 -0.301695
-3.944807 -0.875632 -0.300794
-3.944196 -0.861763 -0.300305
-3.945872 -0.847563 -0.300055
-3.949438 -0.833055 -0.300001
-3.951494 -0.818723 -0.299778
-3.945387 -0.805618 -0.298673
-3.932060 -0.793704 -0.296792
-3.930075 -0.780035 -0.296118
-3.932356 -0.765645 -0.295893
-3.933852 -0.751351 -0.295576
-3.939506 -0.736280 -0.295693
-3.941257 -0.721850 -0.295387
-3.925554 -0.710667 -0.293224
-3.924284 -0.696828 -0.292586
-3.920081 -0.683560 -0.291630
-3.921231 -0.669225 -0.291232
-3.928064 -0.653679 -0.291423
-3.928144 -0.639476 -0.290895
-3.924325 -0.626094 -0.289949
-3.924251 -0.611893 -0.289388
-3.926045 -0.597245 -0.289014
-3.924732 -0.583273 -0.288306
-3.923584 -0.569248 -0.287606
-3.917991 -0.556279 -0.286436
-3.916623 -0.542297 -0.285696
-3.910644 -0.529458 -0.284470
-3.908216 -0.515739 -0.283603
-3.908069 -0.501418 -0.282961
-3.905107 -0.487816 -0.282020
-3.910247 -0.472018 -0.281900
-3.896897 -0.461234 -0.279874
-3.893197 -0.447840 -0.278828
-3.893255 -0.433375 -0.278155
-3.892253 -0.419182 -0.277362
-3.885088 -0.406785 -0.275932
-3.889895 -0.390823 -0.275704
-3.889367 -0.376405 -0.274922
-3.893336 -0.360556 -0.274580
-3.881306 -0.349677 -0.272616
-3.877538 -0.336227 -0.271471
-3.879667 -0.320851 -0.270903
-3.877377 -0.306872 -0.269878
-3.876320 -0.292457 -0.268962
-3.876228 -0.277675 -0.268127
-3.879935 -0.261531 -0.267651
-3.871113 -0.249704 -0.265923
-3.865977 -0.236601 -0.264545
-3.863637 -0.222488 -0.263427
-3.866591 -0.206402 -0.262809
-3.875190 -0.188127 -0.262719
-3.858593 -0.179220 -0.260166
-3.857333 -0.164556 -0.259084
-3.868726 -0.144934 -0.259202
-3.934257 -0.103824 -0.264480
-4.028490 -0.050503 -0.272432
-4.039780 -0.029631 -0.272406
-4.044284 -0.011345 -0.271706
-4.045187 0.005567 -0.270640
-4.044568 0.021925 -0.269408
-4.036941 0.035369 -0.267497
-4.040558 0.053659 -0.266617
-4.044514 0.072219 -0.265741
-4.040652 0.087446 -0.264115
-4.033724 0.101341 -0.262185
-4.030250 0.116813 -0.260553
-4.033078 0.135229 -0.259473
-4.032681 0.152268 -0.258073
-4.027749 0.167260 -0.256239
-4.016846 0.179446 -0.253848
-4.010198 0.193653 -0.251823
-4.003710 0.207958 -0.249792
-4.017453 0.232272 -0.249529
-4.014434 0.248473 -0.247756
-4.009709 0.263876 -0.245814
-4.006105 0.279897 -0.243950
-4.002272 0.295857 -0.242046
-4.000721 0.313066 -0.240320
-3.995644 0.328492 -0.238275
-3.992092 0.344772 -0.236344
-3.986462 0.359982 -0.234223
-3.984169 0.377048 -0.232370
-3.983082 0.394849 -0.230605
-3.979455 0.411307 -0.228618
-3.981147 0.430819 -0.227059
-3.982105 0.450018 -0.225431
-3.985360 0.470637 -0.223980
-3.981068 0.486961 -0.221919
-3.977479 0.503715 -0.219919
-3.973683 0.520363 -0.217912
-3.958942 0.530409 -0.215058
-3.953127 0.545759 -0.212929
-3.956225 0.566565 -0.211511
-3.958913 0.587181 -0.210081
-3.963259 0.608889 -0.208800
-3.966645 0.630045 -0.207473
-3.967783 0.649792 -0.206010
-3.966969 0.668263 -0.204443
-3.956276 0.680220 -0.202191
-3.944559 0.691312 -0.199927
-3.926343 0.697854 -0.197255
-3.927855 0.735796 -0.194896
-3.933080 0.757692 -0.194143
-3.942459 0.782407 -0.193758
-3.952698 0.807702 -0.193509
-3.950226 0.824017 -0.192434
-3.932121 0.829032 -0.190342
-3.912706 0.832718 -0.188255
-3.920146 0.855396 -0.188155
-3.939867 0.886914 -0.189003
-3.949628 0.911150 -0.189242
-4.168054 -2.568938 -0.336121
-4.173749 -2.557508 -0.336117
-4.172585 -2.543055 -0.335425
-4.155201 -2.521957 -0.333010
-4.146221 -2.504111 -0.331606
-4.149337 -2.490843 -0.331613
-4.151575 -2.477019 -0.331596
-4.161740 -2.465993 -0.332525
-4.157915 -2.449462 -0.331980
-4.150312 -2.431409 -0.331085
-4.155221 -2.417834 -0.331636
-4.159686 -2.403909 -0.332201
-4.159306 -2.388089 -0.332290
-4.152797 -2.370011 -0.331758
-4.149657 -2.353052 -0.331649
-4.153404 -2.338367 -0.332351
-4.161185 -2.324910 -0.333543
-4.157168 -2.307417 -0.333471
-4.151093 -2.289238 -0.333204
-4.146312 -2.271486 -0.333112
-4.143465 -2.254353 -0.333262
-4.141827 -2.237595 -0.333569
-4.145463 -2.222438 -0.334485
-4.142148 -2.205160 -0.334641
-4.125584 -2.184029 -0.333326
-4.117913 -2.165638 -0.333013
-4.119015 -2.149824 -0.333688
-4.122497 -2.134679 -0.334635
-4.123693 -2.118901 -0.335327
-4.120770 -2.102037 -0.335553
-4.117548 -2.085160 -0.335741
-4.124653 -2.071011 -0.337091
-4.120545 -2.054001 -0.337165
-4.113061 -2.036242 -0.336846
-4.109505 -2.019555 -0.336960
-4.113126 -2.004652 -0.337878
-4.112994 -1.988889 -0.338357
-4.109079 -1.972318 -0.338390
-4.116309 -1.958310 -0.339681
-4.101571 -1.939511 -0.338445
-4.097068 -1.923078 -0.338361
-4.099647 -1.908206 -0.339072
-4.106617 -1.894246 -0.340271
-4.106702 -1.878906 -0.340664
-4.075203 -1.857536 -0.337404
-4.092566 -1.845683 -0.339748
-4.079277 -1.828108 -0.338544
-4.080781 -1.813335 -0.339026
-4.083810 -1.798855 -0.339667
-4.090618 -1.785021 -0.340728
-4.081901 -1.768628 -0.339976
-4.067044 -1.751385 -0.338495
-4.068257 -1.736792 -0.338855
-4.068550 -1.722085 -0.339092
-4.065060 -1.706866 -0.338873
-4.073277 -1.693344 -0.339995
-4.081214 -1.679739 -0.341068
-4.075065 -1.664259 -0.340491
-4.058490 -1.647563 -0.338686
-4.056241 -1.632776 -0.338528
-4.058656 -1.618575 -0.338896
-4.054693 -1.603669 -0.338507
-4.052109 -1.588970 -0.338264
-4.049578 -1.574322 -0.338012
-4.051271 -1.560128 -0.338236
-4.054896 -1.546116 -0.338671
-4.051755 -1.531496 -0.338305
-4.044709 -1.516599 -0.337471
-4.041306 -1.502068 -0.337048
-4.040957 -1.487808 -0.336966
-4.039707 -1.473502 -0.336767
-4.047467 -1.459799 -0.337602
-4.041969 -1.445245 -0.336884
-4.037043 -1.430784 -0.336221
-4.025585 -1.416049 -0.334789
-4.014076 -1.401426 -0.333339
-4.019467 -1.387609 -0.333840
-4.025889 -1.373785 -0.334449
-4.022836 -1.359607 -0.333949
-4.021854 -1.345517 -0.333678
-4.018868 -1.331394 -0.333165
-4.015571 -1.317296 -0.332606
-4.015366 -1.303270 -0.332396
-4.006958 -1.289178 -0.331227
-4.012652 -1.275218 -0.331680
-4.007990 -1.261212 -0.330927
-4.011276 -1.247205 -0.331083
-4.007989 -1.233231 -0.330471
-4.012294 -1.219173 -0.330727
-4.009429 -1.205210 -0.330147
-3.999761 -1.191432 -0.328777
-3.987826 -1.177803 -0.327140
-3.988285 -1.163868 -0.326921
-3.984703 -1.150076 -0.326231
-3.997027 -1.135635 -0.327358
-3.995551 -1.121722 -0.326893
-3.983197 -1.108378 -0.325176
-3.976558 -1.094818 -0.324108
-3.971689 -1.081203 -0.323237
-3.972150 -1.067274 -0.322968
-3.974907 -1.053169 -0.322955
-3.966367 -1.039876 -0.321646
-3.971845 -1.025534 -0.321928
-3.974819 -1.011342 -0.321918
-3.975191 -0.997341 -0.321606
-3.977478 -0.983146 -0.321503
-3.980740 -0.968820 -0.321505
-3.978025 -0.955067 -0.320822
-3.968041 -0.942110 -0.319311
-3.954564 -0.929626 -0.317401
-3.952539 -0.915911 -0.316781
-3.951756 -0.902050 -0.316296
-3.954206 -0.887772 -0.316168
-3.953108 -0.873922 -0.315634
-3.950021 -0.860336 -0.314871
-3.947011 -0.846753 -0.314111
-3.947112 -0.832728 -0.313694
-3.942095 -0.819455 -0.312697
-3.941101 -0.805588 -0.312145
-3.934238 -0.792650 -0.310932
-3.929835 -0.779355 -0.309989
-3.934164 -0.764604 -0.310011
-3.942791 -0.749045 -0.310504
-3.936808 -0.735996 -0.309365
-3.936233 -0.721991 -0.308820
-3.939723 -0.707205 -0.308718
-3.920779 -0.696699 -0.306129
-3.917932 -0.683166 -0.305315
-3.919126 -0.668818 -0.304939
-3.925818 -0.653295 -0.305159
