ply
format ascii 1.0
comment ---
element vertex 1701
property float x
property float y
property float z
element face 0
property list uchar uint vertex_indices
end_header
-3.834466 -0.219387 0.592817
-3.839830 -0.205114 0.594553
-3.841616 -0.190773 0.595738
-3.844975 -0.176279 0.597160
-3.851987 -0.161549 0.599142
-3.846020 -0.147181 0.599123
-3.828036 -0.133330 0.597241
-3.986447 -0.080267 0.624523
-3.910831 -0.039266 0.615518
-3.977942 -0.018917 0.626945
-3.989985 -0.002433 0.629776
-3.874611 0.003066 0.612593
-3.922674 0.022485 0.621081
-3.937521 0.039154 0.624362
-3.909709 0.051620 0.620914
-3.907273 0.066518 0.621473
-3.904717 0.081374 0.622018
-3.841245 0.089100 0.612882
-3.877646 0.108327 0.619624
-3.850416 0.119865 0.616238
-3.838661 0.133161 0.615317
-3.832053 0.147037 0.615221
-3.822187 0.160384 0.614604
-3.820122 0.174768 0.615244
-3.801065 0.186567 0.613151
-3.805184 0.201784 0.614796
-3.812443 0.217544 0.616961
-3.808538 0.231528 0.617327
-3.799203 0.244551 0.616816
-3.784703 0.256581 0.615465
-3.782118 0.270618 0.616058
-3.792922 0.287112 0.618847
-3.790442 0.301196 0.619475
-3.796634 0.316954 0.621533
-3.802052 0.332627 0.623477
-3.801495 0.347144 0.624448
-3.792531 0.359909 0.624036
-3.776925 0.371179 0.622526
-3.771854 0.384621 0.622763
-3.769535 0.398648 0.623462
-3.767324 0.412697 0.624187
-3.761224 0.425836 0.624268
-3.766899 0.441751 0.626326
-3.776586 0.458726 0.629070
-3.777285 0.473587 0.630318
-3.773407 0.487321 0.630803
-3.757960 0.498054 0.629338
-3.751307 0.510983 0.629359
-3.757115 0.527227 0.631501
-3.759853 0.542724 0.633133
-3.752159 0.555375 0.632995
-3.747324 0.568798 0.633349
-3.745152 0.582981 0.634165
-3.741359 0.596704 0.634708
-3.739963 0.611148 0.635670
-3.750519 0.629255 0.638704
-3.739625 0.640882 0.638042
-3.737216 0.655111 0.638851
-3.739106 0.670735 0.640415
-3.747911 0.688672 0.643196
-3.741145 0.701614 0.643270
-3.738292 0.715849 0.644033
-3.724684 0.726449 0.642912
-3.726864 0.742412 0.644569
-3.727234 0.757819 0.645917
-3.718073 0.769894 0.645587
-3.736758 0.791986 0.650199
-3.735254 0.806936 0.651244
-3.729384 0.820307 0.651518
-3.718170 0.831660 0.650840
-3.708413 0.843513 0.650421
-3.710998 0.860111 0.652220
-3.716455 0.877930 0.654547
-3.708405 0.890488 0.654449
-3.701041 0.903302 0.654475
-3.704137 0.920387 0.656403
-3.711540 0.939363 0.659127
-3.705010 0.952628 0.659323
-3.690219 0.962370 0.658009
-3.700417 0.982809 0.661276
-3.696182 0.997121 0.661905
-3.678027 1.005291 0.659971
-3.682130 1.023317 0.662145
-3.683613 1.040274 0.663847
-3.690917 1.060002 0.666641
-3.693276 1.077586 0.668529
-3.692513 1.093804 0.669845
-3.685940 1.107318 0.670079
-3.684811 1.123466 0.671340
-3.679456 1.137616 0.671812
-3.681715 1.155551 0.673726
-3.679314 1.171263 0.674769
-3.657941 1.177416 0.672212
-3.659979 1.195401 0.674104
-3.661450 1.213201 0.675900
-3.665991 1.232714 0.678295
-3.666059 1.249995 0.679844
-3.657615 1.262797 0.679763
-3.657283 1.279988 0.681249
-3.657844 1.297755 0.682919
-3.654802 1.313618 0.683898
-3.651123 1.329178 0.684760
-3.651464 1.347067 0.686414
-3.647684 1.362689 0.687271
-3.649224 1.381444 0.689179
-3.642968 1.395741 0.689562
-3.643458 1.414056 0.691284
-3.639250 1.429659 0.692084
-3.627230 1.440575 0.691336
-3.620362 1.454589 0.691613
-3.619810 1.472523 0.693157
-3.624734 1.493976 0.695811
-3.621017 1.510136 0.696743
-3.625211 1.531403 0.699280
-3.627263 1.551450 0.701400
-3.622929 1.567469 0.702237
-3.613503 1.580186 0.702043
-3.604023 1.592849 0.701840
-3.604563 1.612230 0.703691
-3.601463 1.629259 0.704808
-3.595832 1.644624 0.705412
-3.590478 1.660220 0.706080
-3.593470 1.681698 0.708486
-3.593712 1.701394 0.710339
-3.589328 1.717913 0.711239
-3.581785 1.732214 0.711487
-3.581956 1.752151 0.713361
-3.580146 1.770759 0.714833
-3.580742 1.791257 0.716827
-3.581852 1.812281 0.718947
-3.580173 1.831343 0.720491
-3.577699 1.849908 0.721880
-3.591154 1.880874 0.726696
-3.586447 1.898024 0.727644
-3.580797 1.914504 0.728400
-3.580909 1.935626 0.730413
-3.571470 1.949234 0.730371
-3.562414 1.963161 0.730419
-3.558507 1.981313 0.731599
-3.558229 2.002558 0.733589
-3.575585 2.038661 0.739481
-3.563188 2.050166 0.738849
-3.582966 2.088975 0.745352
-3.566029 2.096788 0.743742
-3.559108 2.113175 0.744364
-3.572937 2.147763 0.749647
-3.563275 2.162040 0.749695
-3.547338 2.170756 0.748337
-3.541816 2.188761 0.749337
-3.543193 2.213130 0.751923
-3.544032 2.237230 0.754415
-3.547701 2.264168 0.757584
-3.541236 2.281923 0.758459
-3.536342 2.301260 0.759714
-3.538466 2.327407 0.762616
-3.539062 2.352352 0.765198
-3.529620 2.367814 0.765469
-3.516859 2.380098 0.764978
-3.507761 2.396008 0.765358
-3.529883 2.443109 0.773130
-3.521674 2.460371 0.773786
-3.514402 2.478694 0.774685
-3.512196 2.502340 0.776818
-3.510917 2.527181 0.779208
-3.503173 2.545527 0.780075
-3.495014 2.563573 0.780865
-3.486806 2.581704 0.781668
-3.483421 2.605157 0.783674
-3.477532 2.626137 0.785100
-3.473961 2.649854 0.787129
-3.470802 2.674280 0.789297
-3.462971 2.693760 0.790342
-3.455256 2.713548 0.791445
-3.443851 2.729321 0.791652
-3.437359 2.750849 0.793120
-3.418182 2.757883 0.791408
-3.394064 2.759070 0.788442
-3.369036 2.759011 0.785234
-3.351012 2.767123 0.783815
-3.331689 2.773635 0.782067
-3.306614 2.773074 0.778826
-3.277872 2.767799 0.774615
-3.248578 2.761536 0.770234
-3.221546 2.757791 0.766422
-3.202511 2.763908 0.764707
-3.180500 2.766135 0.762196
-3.154843 2.763486 0.758696
-3.129789 2.761359 0.755333
-3.103477 2.757312 0.751606
-3.075259 2.750417 0.747327
-3.057225 2.756856 0.745798
-3.028879 2.749162 0.741418
-3.010176 2.754303 0.739660
-2.966734 2.724944 0.730996
-2.958588 2.744196 0.732113
-2.936103 2.743235 0.729198
-2.894806 2.715016 0.720913
-2.881275 2.726033 0.720426
-2.862878 2.729820 0.718523
-2.843333 2.731620 0.716245
-2.810230 2.712852 0.709985
-2.782658 2.701615 0.705235
-2.770272 2.712813 0.704845
-2.752289 2.715177 0.702761
-2.722255 2.698399 0.697037
-2.701138 2.694756 0.693857
-2.678132 2.687518 0.690021
-2.656926 2.682465 0.686628
-2.643764 2.689722 0.685571
-2.653607 2.734005 0.691437
-3.882357 -0.353413 0.576426
-3.887495 -0.340822 0.578181
-3.881423 -0.327735 0.578295
-3.872760 -0.314450 0.578016
-3.864732 -0.301048 0.577814
-3.865468 -0.287599 0.578881
-3.865305 -0.273965 0.579806
-3.870427 -0.260163 0.581500
-3.856909 -0.246271 0.580439
-3.846927 -0.232328 0.579884
-3.839898 -0.218308 0.579754
-3.838506 -0.204131 0.580450
-3.839849 -0.189797 0.581546
-3.848328 -0.175154 0.583701
-3.850772 -0.160556 0.584957
-3.844799 -0.146192 0.584951
-3.841308 -0.131719 0.585312
-4.051678 -0.106867 0.617787
-4.065528 -0.090407 0.620813
-4.038804 -0.076137 0.617730
-4.053329 -0.059497 0.620864
-4.020065 -0.045939 0.616774
-4.003709 -0.031458 0.615232
-4.022852 0.017050 0.620967
-3.983704 0.044662 0.616882
-4.006764 0.062534 0.621369
-3.968536 0.074064 0.616456
-3.986588 0.091516 0.620193
-3.982711 0.122062 0.621536
-3.978278 0.136981 0.621829
-3.892231 0.156142 0.610421
-3.924223 0.175682 0.616380
-3.978809 0.198831 0.625896
-3.908852 0.233878 0.617968
-3.854926 0.240033 0.610490
-3.881240 0.259348 0.615648
-4.015475 0.297850 0.637900
-3.982835 0.307583 0.633801
-3.932006 0.328858 0.627863
-3.895099 0.336896 0.623047
-3.842737 0.341496 0.615743
-3.821888 0.352047 0.613460
-3.830067 0.368492 0.615831
-3.807969 0.378538 0.613343
-3.808484 0.393346 0.614495
-3.793531 0.404708 0.613156
-3.772534 0.414557 0.610835
-3.769461 0.428419 0.611417
-3.762965 0.441456 0.611447
-3.798203 0.464639 0.618288
-3.805086 0.481136 0.620528
-3.785380 0.490978 0.618425
-3.764503 0.500351 0.616123
-3.755654 0.512722 0.615793
-3.760158 0.528629 0.617668
-3.759979 0.543332 0.618780
-3.750413 0.555451 0.618345
-3.742798 0.568066 0.618234
-3.748247 0.584418 0.620301
-3.754023 0.600962 0.622436
-3.758123 0.617105 0.624303
-3.751845 0.630175 0.624440
-3.754996 0.646143 0.626166
-3.744370 0.657857 0.625580
-3.744816 0.673048 0.626866
-3.748219 0.689252 0.628661
-3.753033 0.706008 0.630706
-3.741371 0.717343 0.629959
-3.729460 0.728525 0.629168
-3.725991 0.742554 0.629819
-3.722923 0.756742 0.630545
-3.721284 0.771462 0.631521
-3.723346 0.787560 0.633143
-3.740739 0.809359 0.637425
-3.738863 0.824235 0.638391
-3.729139 0.836192 0.638001
-3.721489 0.848900 0.637971
-3.714224 0.861739 0.638010
-3.709166 0.875432 0.638437
-3.704584 0.889325 0.638952
-3.701716 0.903927 0.639773
-3.703436 0.920444 0.641408
-3.707227 0.937909 0.643420
-3.699994 0.950846 0.643488
-3.692143 0.963510 0.643448
-3.692011 0.979491 0.644786
-3.681731 0.991103 0.644318
-3.686571 1.009373 0.646558
-3.681801 1.023458 0.647085
-3.691188 1.043998 0.650167
-3.693449 1.061441 0.651978
-3.691003 1.076795 0.652948
-3.686568 1.091260 0.653562
-3.683098 1.106213 0.654356
-3.680883 1.121812 0.655385
-3.681227 1.138717 0.656890
-3.679568 1.154717 0.658035
-3.680250 1.171952 0.659619
-3.688059 1.192889 0.662529
-3.674300 1.202947 0.661461
-3.665807 1.215656 0.661366
-3.668192 1.234057 0.663297
-3.668375 1.251404 0.664829
-3.668324 1.268717 0.666326
-3.661954 1.282687 0.666646
-3.660925 1.299601 0.667975
-3.657130 1.315057 0.668789
-3.659571 1.334059 0.670791
-3.660314 1.352220 0.672482
-3.657185 1.368262 0.673446
-3.645455 1.379369 0.672773
-3.645515 1.397339 0.674357
-3.635767 1.409590 0.674065
-3.628525 1.423317 0.674256
-3.628639 1.441504 0.675872
-3.626235 1.458252 0.677010
-3.627912 1.477593 0.678950
-3.627591 1.495809 0.680514
-3.624713 1.512509 0.681587
-3.611586 1.522731 0.680657
-3.620746 1.547263 0.684111
-3.620859 1.566127 0.685800
-3.614710 1.580978 0.686262
-3.609126 1.596231 0.686840
-3.602961 1.611129 0.687309
-3.597505 1.626536 0.687924
-3.594334 1.643550 0.689003
-3.593120 1.661992 0.690485
-3.594666 1.682465 0.692535
-3.592656 1.700566 0.693881
-3.588915 1.717524 0.694887
-3.585172 1.734550 0.695903
-3.579662 1.750360 0.696566
-3.581333 1.771500 0.698709
-3.578437 1.789400 0.699931
-3.581092 1.811552 0.702309
-3.584213 1.834229 0.704802
-3.588231 1.857773 0.707502
-3.581122 1.872926 0.707907
-3.580291 1.893006 0.709631
-3.582398 1.915532 0.711987
-3.584977 1.938609 0.714463
-3.576665 1.953138 0.714662
-3.567734 1.967190 0.714737
-3.563612 1.985191 0.715841
-3.561455 2.004908 0.717376
-3.556480 2.022404 0.718326
-3.555472 2.043322 0.720141
-3.553506 2.063579 0.721769
-3.567590 2.097738 0.726885
-3.557222 2.111134 0.726740
-3.566044 2.141310 0.730781
-3.563258 2.161575 0.732322
-3.542688 2.166149 0.729983
-3.533715 2.180992 0.730188
-3.548129 2.217097 0.735570
-3.552739 2.244668 0.738828
-3.544677 2.260814 0.739300
-3.539493 2.279714 0.740429
-3.529286 2.294009 0.740451
-3.527062 2.315934 0.742281
-3.533247 2.346114 0.746037
-3.530667 2.368146 0.747847
-3.523530 2.385914 0.748644
-3.523480 2.410791 0.751082
-3.529582 2.442044 0.754965
-3.523804 2.461720 0.756155
-3.508192 2.471570 0.755093
-3.501504 2.490533 0.756110
-3.504420 2.519578 0.759393
-3.496815 2.537976 0.760252
-3.489564 2.556887 0.761219
-3.490028 2.584160 0.764034
-3.485566 2.606454 0.765720
-3.479684 2.627432 0.767100
-3.475730 2.650717 0.768972
-3.470642 2.672994 0.770605
-3.465017 2.694900 0.772142
-3.455366 2.712495 0.772735
-3.444076 2.728366 0.772952
-3.437274 2.749503 0.774290
-3.416724 2.754913 0.772276
-3.392183 2.755560 0.769275
-3.371706 2.760834 0.767274
-3.351730 2.766614 0.765398
-3.324246 2.763264 0.761639
-3.305422 2.770200 0.760045
-3.278032 2.766547 0.756281
-3.248316 2.759740 0.751904
-3.225454 2.761196 0.749255
-3.204919 2.765434 0.747194
-3.181278 2.765580 0.744322
-3.155230 2.762414 0.740808
-3.126297 2.755209 0.736515
-3.103096 2.755199 0.733694
-3.080350 2.755571 0.730972
-3.052738 2.749173 0.726934
-3.028101 2.746447 0.723653
-3.007187 2.748524 0.721339
-2.983023 2.745872 0.718121
-2.950767 2.731546 0.712664
-2.935558 2.740770 0.711802
-2.910439 2.735698 0.708195
-2.881651 2.724891 0.703519
-2.865487 2.731945 0.702286
-2.836849 2.720379 0.697528
-2.806099 2.705041 0.692096
-2.791707 2.713598 0.691202
-2.784357 2.732603 0.692268
-2.757192 2.721104 0.687639
-2.722160 2.696685 0.680650
-2.695807 2.684868 0.676048
-2.680652 2.690006 0.674602
-2.659085 2.684454 0.671210
-2.653897 2.704643 0.672537
-2.690027 2.791910 0.686025
-3.925939 -0.353858 0.568683
-3.869072 -0.339524 0.561673
-3.870805 -0.326655 0.562886
-3.861476 -0.313385 0.562525
-3.869166 -0.300202 0.564561
-3.862540 -0.286659 0.564560
-3.863976 -0.273026 0.565693
-3.863050 -0.259221 0.566482
-3.852311 -0.245336 0.565860
-3.848284 -0.231341 0.566186
-3.845986 -0.217233 0.566752
-3.832978 -0.203251 0.565771
-3.837229 -0.188864 0.567264
-3.838552 -0.174436 0.568333
-3.833458 -0.160138 0.568471
-3.851264 -0.144925 0.571923
-3.860558 -0.129859 0.574148
-4.049783 -0.105875 0.602567
-4.088458 -0.088089 0.609138
-4.076068 -0.072880 0.608268
-4.060432 -0.057969 0.606917
-4.043741 -0.043261 0.605404
-4.027807 -0.028644 0.603994
-4.053999 0.004966 0.609724
-4.039419 0.019540 0.608513
-4.010809 0.032671 0.605219
-4.047504 0.083525 0.613527
-4.007723 0.110470 0.609514
-4.016302 0.127115 0.611768
-3.995219 0.155595 0.610553
-3.973176 0.168098 0.608210
-3.956087 0.196398 0.607594
-3.942798 0.209699 0.606568
-3.976890 0.230267 0.612749
-4.005170 0.327989 0.623296
-3.999089 0.342401 0.623425
-3.979014 0.369492 0.622467
-3.864631 0.421342 0.610026
-3.904550 0.460726 0.618490
-3.897825 0.489602 0.619662
-3.899391 0.520564 0.622174
-3.906228 0.537672 0.624408
-3.863999 0.557148 0.619965
-3.871291 0.574409 0.622291
-3.767909 0.560888 0.606825
-3.843648 0.597266 0.620175
-3.792869 0.597857 0.613138
-3.818931 0.620588 0.618522
-3.805706 0.631866 0.617553
-3.794430 0.643647 0.616899
-3.784217 0.655688 0.616417
-3.783820 0.670759 0.617541
-3.761782 0.678954 0.615123
-3.762280 0.694295 0.616401
-3.764194 0.710157 0.617921
-3.760156 0.724097 0.618467
-3.748868 0.735579 0.617816
-3.728494 0.743857 0.615655
-3.721865 0.756799 0.615774
-3.718825 0.771007 0.616493
-3.726923 0.789266 0.619083
-3.745120 0.811373 0.623382
-3.747636 0.827898 0.625066
-3.740913 0.841025 0.625203
-3.731353 0.853057 0.624862
-3.727695 0.867340 0.625521
-3.714225 0.877787 0.624517
-3.706896 0.890603 0.624556
-3.702804 0.904715 0.625150
-3.701415 0.919957 0.626210
-3.701931 0.936043 0.627605
-3.696109 0.949537 0.627917
-3.692695 0.964062 0.628648
-3.688315 0.978204 0.629216
-3.683062 0.991987 0.629636
-3.685559 1.009218 0.631409
-3.695664 1.029967 0.634520
-3.692884 1.045049 0.635394
-3.691963 1.061030 0.636600
-3.689582 1.076397 0.637556
-3.684743 1.090656 0.638085
-3.680723 1.105328 0.638762
-3.682152 1.122666 0.640411
-3.675660 1.136228 0.640660
-3.675046 1.152705 0.641960
-3.673931 1.169005 0.643178
-3.667651 1.182757 0.643477
-3.676045 1.204044 0.646418
-3.670033 1.218042 0.646778
-3.667101 1.233671 0.647697
-3.674139 1.254643 0.650431
-3.670738 1.270184 0.651282
-3.667451 1.285834 0.652160
-3.656693 1.297432 0.651676
-3.657749 1.315548 0.653358
-3.662634 1.335917 0.655755
-3.663034 1.353895 0.657339
-3.652033 1.365427 0.656823
-3.646982 1.380368 0.657409
-3.639644 1.393999 0.657573
-3.628770 1.405536 0.657080
-3.622153 1.419584 0.657381
-3.629404 1.442045 0.660290
-3.633105 1.462525 0.662548
-3.634757 1.481887 0.664434
-3.632998 1.499239 0.665686
-3.619297 1.509126 0.664677
-3.619090 1.527552 0.666236
-3.614737 1.543406 0.667012
-3.613832 1.561557 0.668457
-3.614417 1.580784 0.670198
-3.608452 1.595771 0.670688
-3.602095 1.610525 0.671107
-3.593313 1.623657 0.671059
-3.592464 1.642224 0.672559
-3.598979 1.665996 0.675508
-3.598713 1.685231 0.677149
-3.595343 1.702387 0.678193
-3.590603 1.718639 0.678976
-3.583686 1.733377 0.679336
-3.579460 1.750100 0.680235
-3.579786 1.770235 0.682049
-3.582709 1.792432 0.684397
-3.578892 1.809748 0.685413
-3.583021 1.833159 0.688036
-3.589126 1.858276 0.691078
-3.580968 1.872611 0.691260
-3.572002 1.886336 0.691283
-3.573552 1.908344 0.693451
-3.585607 1.938869 0.697785
-3.589211 1.962946 0.700421
-3.581867 1.978365 0.700828
-3.569716 1.989895 0.700251
-3.562332 2.005328 0.700663
-3.552284 2.018586 0.700531
-3.539248 2.029335 0.699781
-3.549728 2.060014 0.703952
-3.566930 2.096795 0.709571
-3.552344 2.106519 0.708538
-3.567581 2.142236 0.713812
-3.556255 2.154964 0.713495
-3.540191 2.163474 0.712174
-3.533902 2.180688 0.712942
-3.549076 2.217459 0.718328
-3.563194 2.253722 0.723536
-3.551041 2.266155 0.723114
-3.538660 2.278374 0.722650
-3.539831 2.303354 0.725143
-3.519290 2.307938 0.722921
-3.507776 2.321043 0.722673
-3.525263 2.362253 0.728822
-3.529376 2.390944 0.732074
-3.524236 2.410825 0.733310
-3.520649 2.432405 0.734914
-3.519518 2.456644 0.737095
-3.505620 2.468167 0.736437
-3.492911 2.480911 0.736057
-3.499806 2.513956 0.740129
-3.494434 2.534611 0.741459
-3.490023 2.556461 0.743035
-3.492659 2.586017 0.746258
-3.490937 2.611248 0.748520
-3.482156 2.629105 0.749184
-3.476094 2.650075 0.750503
-3.469482 2.670640 0.751723
-3.462022 2.690453 0.752772
-3.454815 2.710734 0.753909
-3.444286 2.727432 0.754287
-3.435602 2.746376 0.755127
-3.418785 2.756066 0.754049
-3.390435 2.752251 0.750211
-3.371171 2.758908 0.748546
-3.344311 2.756437 0.745043
-3.320438 2.757328 0.742251
-3.298219 2.760056 0.739854
-3.271577 2.757212 0.736362
-3.249596 2.759904 0.734005
-3.227900 2.762813 0.731711
-3.204677 2.763651 0.729028
-3.178342 2.760326 0.725550
-3.149668 2.753709 0.721458
-3.122292 2.748444 0.717665
-3.100979 2.750849 0.715391
-3.081311 2.755272 0.713523
-3.046772 2.739557 0.707805
-3.025988 2.741969 0.705600
-3.003645 2.742040 0.702966
-2.977568 2.736675 0.699324
-2.955615 2.736703 0.696729
-2.932098 2.734227 0.693684
-2.910087 2.733548 0.690999
-2.888686 2.733409 0.688435
-2.862227 2.725544 0.684462
-2.837723 2.720036 0.680956
-2.804039 2.700358 0.674880
-2.793005 2.713944 0.674927
-2.776327 2.718801 0.673385
-2.754160 2.714875 0.670266
-2.726013 2.701120 0.665402
-2.702439 2.693746 0.661723
-2.680365 2.688074 0.658379
-2.666364 2.694634 0.657237
-2.657728 2.737921 0.660296
-3.819067 -0.349969 0.540103
-3.857388 -0.338407 0.546262
-3.900846 -0.326413 0.553137
-3.888783 -0.312952 0.552431
-3.855777 -0.299157 0.548837
-3.858803 -0.285726 0.550168
-3.859252 -0.272091 0.551138
-3.852058 -0.258305 0.551047
-3.838449 -0.244478 0.550056
-3.840678 -0.230469 0.551249
-3.851577 -0.216180 0.553641
-3.845068 -0.202035 0.553611
-3.831309 -0.188035 0.552562
-3.827717 -0.173776 0.552923
-3.844546 -0.158768 0.556141
-3.863129 -0.143464 0.559612
-3.877282 -0.128121 0.562469
-4.061631 -0.104234 0.589322
-4.026532 -0.090361 0.585286
-4.043258 -0.073747 0.588565
-4.042418 -0.058062 0.589363
-4.022856 -0.043649 0.587503
-3.980073 -0.031118 0.582327
-4.034047 -0.011413 0.590932
-4.038682 0.004719 0.592519
-4.030270 0.019749 0.592243
-4.020189 0.034541 0.591727
-3.982750 0.046554 0.587274
-4.046050 0.068553 0.597321
-4.044189 0.084148 0.598001
-3.993138 0.094181 0.591568
-4.019288 0.112776 0.596303
-4.018461 0.128319 0.597140
-4.003986 0.142110 0.595996
-3.978411 0.154286 0.593229
-3.984715 0.170573 0.595114
-3.966885 0.183492 0.593473
-3.949326 0.196273 0.591868
-4.013309 0.221239 0.602254
-3.940348 0.271059 0.595471
-3.919127 0.297674 0.594327
-3.995846 0.327048 0.606798
-4.029782 0.349025 0.612923
-3.984988 0.371438 0.608324
-3.976951 0.400749 0.609246
-3.959933 0.427995 0.608826
-4.029554 0.459082 0.620499
-4.013906 0.471291 0.619232
-3.951393 0.518858 0.614148
-3.966645 0.538290 0.617630
-3.951890 0.550124 0.616493
-3.900010 0.552031 0.609603
-3.905362 0.615365 0.615027
-3.886581 0.687885 0.617975
-3.841574 0.704959 0.613224
-3.879422 0.748670 0.621680
-3.874885 0.763030 0.622183
-3.866308 0.776022 0.622040
-3.859591 0.789624 0.622198
-3.828189 0.794548 0.618372
-3.831671 0.811630 0.620176
-3.838992 0.830196 0.622614
-3.797634 0.831042 0.617144
-3.791041 0.844449 0.617319
-3.810007 0.867497 0.621678
-3.838495 0.894459 0.627623
-3.842244 0.912187 0.629532
-3.799837 0.911851 0.623842
-3.786658 0.922788 0.622955
-3.701564 0.904557 0.610146
-3.682406 0.912500 0.608227
-3.709729 0.939613 0.614043
-3.706299 0.954148 0.614753
-3.695539 0.965589 0.614241
-3.695108 0.981446 0.615461
-3.707985 1.003194 0.618930
-3.699941 1.015886 0.618886
-3.697738 1.031184 0.619831
-3.695837 1.046668 0.620834
-3.690702 1.060720 0.621292
-3.700044 1.081536 0.624225
-3.707204 1.101508 0.626801
-3.683696 1.106995 0.624127
-3.685587 1.124567 0.625812
-3.685486 1.141267 0.627162
-3.667489 1.149187 0.625424
-3.668711 1.166607 0.627011
-3.668112 1.183200 0.628292
-3.673245 1.202810 0.630580
-3.669609 1.218017 0.631347
-3.671047 1.235929 0.633010
-3.676527 1.256090 0.635394
-3.669648 1.269770 0.635610
-3.645400 1.274023 0.632754
-3.648667 1.293179 0.634767
-3.656759 1.315145 0.637651
-3.660844 1.335051 0.639836
-3.655606 1.349808 0.640366
-3.645853 1.362002 0.640088
-3.632865 1.372289 0.639228
-3.630226 1.388579 0.640232
-3.625271 1.403557 0.640823
-3.624754 1.421229 0.642225
-3.618988 1.435813 0.642679
-3.627557 1.459198 0.645757
-3.637986 1.483945 0.649195
-3.628828 1.496683 0.649054
-3.623433 1.511781 0.649607
-3.620294 1.528353 0.650582
-3.616354 1.544472 0.651415
-3.610065 1.559113 0.651818
-3.605339 1.574808 0.652516
-3.603812 1.592676 0.653819
-3.597893 1.607682 0.654308
-3.592728 1.623231 0.654943
-3.591219 1.641330 0.656274
-3.594769 1.663029 0.658574
-3.598659 1.685131 0.660956
-3.597079 1.703541 0.662312
-3.593417 1.720563 0.663280
-3.590786 1.738398 0.664455
-3.585994 1.754748 0.665224
-3.582526 1.772129 0.666256
-3.579487 1.789906 0.667382
-3.581921 1.811873 0.669581
-3.588738 1.837327 0.672653
-3.589387 1.858301 0.674542
-3.581646 1.872946 0.674800
-3.569909 1.884502 0.674277
-3.563025 1.899843 0.674713
-3.558027 1.916724 0.675531
-3.602103 1.973040 0.686120
-3.588230 1.983255 0.685219
-3.576094 1.994831 0.684666
-3.565619 2.007747 0.684449
-3.555150 2.020664 0.684236
-3.544441 2.033377 0.683979
-3.545052 2.055699 0.686025
-3.561342 2.091640 0.691286
-3.565909 2.117875 0.694194
-3.544549 2.121716 0.691810
-3.546176 2.145657 0.694150
-3.540758 2.163540 0.695058
-3.534869 2.181100 0.695883
-3.535700 2.204849 0.698121
-3.543734 2.235404 0.701889
-3.561776 2.275549 0.707793
-3.560693 2.298379 0.709724
-3.545457 2.308082 0.708690
-3.526934 2.314614 0.706961
-3.518431 2.330654 0.707363
-3.527873 2.364142 0.711613
-3.529729 2.390626 0.714281
-3.521876 2.407808 0.714889
-3.512721 2.423796 0.715233
-3.510836 2.447176 0.717171
-3.506717 2.468514 0.718651
-3.504017 2.491494 0.720466
-3.498223 2.511497 0.721630
-3.496698 2.536122 0.723760
-3.491985 2.557649 0.725215
-3.490865 2.583197 0.727498
-3.491614 2.611032 0.730234
-3.481583 2.627510 0.730588
-3.477066 2.650134 0.732206
-3.468714 2.668755 0.732985
-3.463120 2.690609 0.734416
-3.453268 2.707891 0.734904
-3.442124 2.723842 0.735117
-3.431027 2.739960 0.735360
-3.415754 2.751358 0.734655
-3.394745 2.756073 0.732625
-3.372392 2.759101 0.730280
-3.347185 2.758593 0.727259
-3.317966 2.753050 0.723277
-3.290120 2.748877 0.719600
-3.268709 2.752339 0.717439
-3.250960 2.760219 0.716150
-3.229940 2.763967 0.714077
-3.202303 2.759219 0.710393
-3.174602 2.754097 0.706670
-3.148347 2.750536 0.703276
-3.123795 2.748917 0.700278
-3.102956 2.751944 0.698177
-3.081865 2.754479 0.696002
-3.059993 2.755788 0.693614
-3.033412 2.750493 0.690022
-2.998096 2.732858 0.684185
-2.968519 2.722556 0.679744
-2.966469 2.750309 0.682294
-2.925367 2.723112 0.674823
-2.912225 2.735002 0.674494
-2.888243 2.731168 0.671331
-2.862806 2.724791 0.667737
-2.845151 2.729388 0.666133
-2.822711 2.726576 0.663224
-2.784486 2.699566 0.656055
-2.763611 2.697929 0.653419
-2.747952 2.703812 0.652125
-2.731000 2.707335 0.650428
-2.710526 2.704917 0.647712
-2.693094 2.706736 0.645753
-2.662935 2.687734 0.640223
-2.641122 2.681243 0.636887
-2.625196 2.683617 0.635096
-3.841181 -0.349806 0.529452
-3.889526 -0.338365 0.536740
-3.888789 -0.325319 0.537570
-3.890540 -0.312112 0.538721
-3.864391 -0.298378 0.536165
-3.854869 -0.284807 0.535797
-3.860333 -0.271186 0.537414
-3.850612 -0.257389 0.537000
-3.840405 -0.243539 0.536511
-3.833124 -0.229617 0.536402
-3.841115 -0.215399 0.538338
-3.842026 -0.201144 0.539320
-3.835177 -0.186981 0.539252
-3.831248 -0.172710 0.539573
-3.842397 -0.157876 0.541932
-3.863791 -0.142463 0.545687
-3.901546 -0.126059 0.551679
-4.002589 -0.106115 0.566321
-4.028361 -0.073601 0.571636
-4.034516 -0.057546 0.573382
-4.007454 -0.043699 0.570567
-4.034910 -0.010343 0.576159
-4.029972 0.004987 0.576389
-4.022157 0.020018 0.576221
-4.009622 0.034530 0.575396
-4.004263 0.049622 0.575567
-4.009396 0.065738 0.577202
-4.047465 0.085456 0.583448
-4.045564 0.101028 0.584123
-4.014580 0.113149 0.580721
-4.000564 0.127040 0.579692
-3.989440 0.141156 0.579068
-3.968487 0.169221 0.578000
-3.992386 0.187976 0.582341
-3.996443 0.204042 0.583882
-3.993646 0.219103 0.584455
-3.976321 0.247241 0.583939
-3.938178 0.256276 0.579455
-3.986482 0.279749 0.587376
-3.965685 0.291523 0.585383
-4.021792 0.348267 0.596542
-3.973710 0.354497 0.590598
-3.968842 0.384338 0.591959
-3.981316 0.402379 0.594829
-3.960064 0.413301 0.592770
-3.965767 0.429966 0.594664
-3.978062 0.448190 0.597540
-3.984639 0.465241 0.599588
-4.019555 0.489035 0.605841
-3.968155 0.492506 0.599324
-3.935156 0.499999 0.595515
-3.956645 0.520795 0.599809
-3.943464 0.533009 0.598947
-3.934417 0.561721 0.599815
-3.929865 0.576053 0.600252
-3.926130 0.590602 0.600816
-3.902397 0.599561 0.598362
-3.893582 0.612567 0.598158
-3.963665 0.648371 0.609939
-3.968012 0.681533 0.612949
-3.943242 0.690005 0.610346
-3.944141 0.722223 0.612862
-3.896050 0.738730 0.607839
-3.933908 0.783299 0.616121
-3.913151 0.792438 0.614117
-3.909073 0.807188 0.614707
-3.891110 0.865754 0.616853
-3.877799 0.959532 0.622378
-3.785769 1.037549 0.616608
-3.801958 1.061415 0.620571
-3.812596 1.083047 0.623644
-3.717982 1.057014 0.609416
-3.722262 1.075519 0.611428
-3.735736 1.098436 0.614973
-3.752516 1.123146 0.619086
-3.747109 1.137532 0.619532
-3.717793 1.140377 0.615992
-3.726556 1.161595 0.618803
-3.703422 1.167203 0.616279
-3.681796 1.173379 0.613996
-3.676318 1.187569 0.614424
-3.667683 1.200158 0.614321
-3.684164 1.225762 0.618478
-3.690576 1.246365 0.620947
-3.680781 1.258528 0.620665
-3.665354 1.267635 0.619418
-3.643673 1.273247 0.617092
-3.641685 1.289499 0.618141
-3.658740 1.316391 0.622483
-3.663500 1.336682 0.624723
-3.664714 1.355110 0.626361
-3.641235 1.359473 0.623711
-3.637340 1.374999 0.624465
-3.633218 1.390439 0.625184
-3.637966 1.411182 0.627466
-3.629589 1.424215 0.627450
-3.627265 1.440907 0.628504
-3.616993 1.452800 0.628157
-3.633095 1.480981 0.632495
-3.627269 1.495760 0.632952
-3.618367 1.508623 0.632864
-3.622467 1.529774 0.635106
-3.619518 1.546538 0.636096
-3.610954 1.559708 0.636080
-3.604700 1.574392 0.636484
-3.602524 1.591814 0.637631
-3.600001 1.609083 0.638724
-3.596234 1.625586 0.639598
-3.594106 1.643275 0.640779
-3.593171 1.661875 0.642189
-3.592004 1.680416 0.643566
-3.592922 1.700533 0.645340
-3.590950 1.718721 0.646592
-3.586706 1.735365 0.647430
-3.583726 1.752992 0.648513
-3.579765 1.769982 0.649421
-3.578020 1.788688 0.650755
-3.579400 1.809841 0.652688
-3.589656 1.837867 0.656316
-3.591134 1.859468 0.658305
-3.583879 1.874489 0.658650
-3.571367 1.885444 0.657996
-3.562647 1.899338 0.658069
-3.555088 1.914167 0.658369
-3.563350 1.941717 0.661726
-3.579283 1.975754 0.666595
-3.577956 1.996084 0.668150
-3.570676 2.011636 0.668562
-3.563781 2.027555 0.669057
-3.563228 2.048863 0.670805
-3.563040 2.070639 0.672642
-3.572799 2.101108 0.676463
-3.564047 2.115893 0.676648
-3.553070 2.128772 0.676399
-3.547352 2.146288 0.677204
-3.544674 2.166602 0.678632
-3.542522 2.187532 0.680183
-3.539663 2.207979 0.681610
-3.539297 2.230859 0.683562
-3.541326 2.256148 0.686023
-3.547583 2.285624 0.689373
-3.542804 2.305036 0.690498
-3.532719 2.319541 0.690550
-3.529642 2.340814 0.692059
-3.532465 2.367971 0.694812
-3.532443 2.392636 0.697005
-3.519870 2.405165 0.696606
-3.514504 2.424883 0.697725
-3.511962 2.447593 0.699461
-3.512029 2.473161 0.701773
-3.506557 2.493327 0.702942
-3.501625 2.514218 0.704248
-3.495108 2.533641 0.705239
-3.500133 2.565378 0.708733
-3.498818 2.590770 0.710902
-3.489916 2.608297 0.711460
-3.478348 2.623065 0.711458
-3.466712 2.637840 0.711457
-3.471167 2.670462 0.715004
-3.464819 2.691469 0.716216
-3.457082 2.711120 0.717147
-3.444236 2.725148 0.716967
-3.428946 2.736450 0.716255
-3.415707 2.750150 0.716015
-3.403870 2.765565 0.716105
-3.376498 2.762744 0.712691
-3.351408 2.762396 0.709781
-3.324094 2.759174 0.706351
-3.298581 2.757889 0.703318
-3.274553 2.758211 0.700614
-3.252906 2.761303 0.698453
-3.227957 2.760127 0.695514
-3.202430 2.758003 0.692424
-3.177432 2.756315 0.689441
-3.150036 2.751297 0.685871
-3.126339 2.750795 0.683158
-3.106866 2.755633 0.681440
-3.087996 2.761154 0.679859
-3.066686 2.763281 0.677677
-3.042700 2.761587 0.674825
-3.017457 2.757886 0.671638
-2.992595 2.754380 0.668512
-2.935660 2.705651 0.657402
-2.932297 2.731365 0.659515
-2.909008 2.728853 0.656653
-2.887871 2.729074 0.654291
-2.865358 2.726958 0.651542
-2.833306 2.710393 0.646314
-2.807461 2.702343 0.642599
-2.784313 2.697783 0.639513
-2.760122 2.691122 0.636095
-2.742384 2.693774 0.634290
-2.727719 2.700770 0.633236
-2.720348 2.718819 0.634053
-2.694854 2.708078 0.630033
-2.659822 2.681366 0.623381
-2.637012 2.673253 0.619881
-2.617224 2.669314 0.617105
-3.962132 -0.352419 0.531158
-3.901919 -0.337838 0.524428
-3.888586 -0.324473 0.523635
-3.876693 -0.311040 0.523012
-3.866185 -0.297531 0.522554
-3.863921 -0.283988 0.523143
-3.861849 -0.270296 0.523749
-3.863500 -0.256456 0.524830
-3.848310 -0.242574 0.523730
-3.845277 -0.228560 0.524192
-3.838041 -0.214522 0.524104
-3.838596 -0.200283 0.525021
-3.834224 -0.186069 0.525294
-3.839609 -0.171517 0.526836
-3.843253 -0.156901 0.528152
-3.851971 -0.141985 0.530134
-3.889386 -0.125641 0.535894
-3.949119 -0.107781 0.544614
-4.027257 -0.088297 0.555798
-4.029618 -0.072530 0.557000
-4.063954 -0.038808 0.563346
-4.053824 -0.023695 0.562901
-4.008161 0.004127 0.558607
-4.090754 0.075080 0.573353
-4.036313 0.100901 0.567859
-4.005930 0.113030 0.564666
-3.973357 0.139976 0.562084
-3.976183 0.155736 0.563397
-3.976763 0.171207 0.564409
-4.018331 0.208100 0.572006
-3.952150 0.244128 0.565755
-3.950126 0.259046 0.566434
-4.005224 0.330314 0.578044
-3.971534 0.339415 0.574328
-3.965243 0.353565 0.574449
-3.958729 0.367620 0.574540
-3.955713 0.382343 0.575127
-3.967110 0.400086 0.577759
-3.963548 0.414735 0.578284
-3.962672 0.429959 0.579194
-3.947212 0.441910 0.578033
-3.973797 0.494496 0.584999
-3.921499 0.512631 0.579611
-3.926623 0.529322 0.581421
-3.924457 0.544203 0.582185
-3.932803 0.561877 0.584481
-3.949701 0.581977 0.588035
-3.941048 0.610923 0.588991
-3.920731 0.620838 0.587129
-3.955785 0.646633 0.593400
-3.962551 0.680424 0.596683
-3.942407 0.690266 0.594855
-3.961541 0.712128 0.598850
-3.949894 0.724536 0.598286
-3.914037 0.793195 0.598816
-3.901407 0.837342 0.600505
-3.923155 0.894444 0.607494
-3.923309 0.911080 0.608761
-3.856014 0.918292 0.600888
-3.840846 1.253299 0.624633
-3.752112 1.261218 0.614240
-3.774077 1.290386 0.619228
-3.772475 1.307395 0.620352
-3.765443 1.339547 0.621984
-3.748837 1.348508 0.620626
-3.707886 1.361749 0.616591
-3.683457 1.365885 0.613892
-3.677049 1.380155 0.614216
-3.681463 1.400721 0.616372
-3.670648 1.412505 0.615959
-3.647837 1.417134 0.613504
-3.646079 1.434189 0.614626
-3.633157 1.444557 0.613845
-3.634989 1.463891 0.615592
-3.638142 1.484167 0.617577
-3.629467 1.497190 0.617534
-3.627367 1.514355 0.618629
-3.627178 1.532818 0.620064
-3.627265 1.551562 0.621557
-3.614345 1.561935 0.620788
-3.607858 1.576479 0.621142
-3.609216 1.596264 0.622878
-3.607338 1.614003 0.624056
-3.606068 1.632240 0.625350
-3.601406 1.648248 0.626053
-3.595414 1.663385 0.626524
-3.592226 1.680517 0.627501
-3.591502 1.699465 0.628927
-3.587441 1.716140 0.629764
-3.583791 1.733176 0.630683
-3.581794 1.751487 0.631909
-3.581743 1.771326 0.633499
-3.576680 1.787570 0.634189
-3.570868 1.803310 0.634749
-3.577960 1.828864 0.637679
-3.587083 1.856210 0.641004
-3.584483 1.874780 0.642194
-3.569977 1.884173 0.641193
-3.562304 1.898867 0.641457
-3.580345 1.934016 0.646513
-3.569723 1.946598 0.646253
-3.567019 1.965580 0.647480
-3.572401 1.991282 0.650240
-3.569355 2.010270 0.651433
-3.567468 2.030336 0.652859
-3.565148 2.050172 0.654218
-3.578537 2.083472 0.658585
-3.570948 2.099180 0.658976
-3.566703 2.117833 0.660018
-3.567163 2.140705 0.661980
-3.558905 2.156080 0.662276
-3.554915 2.175303 0.663410
-3.551391 2.195069 0.664649
-3.546468 2.213701 0.665632
-3.542963 2.233746 0.666908
-3.541975 2.256259 0.668696
-3.541099 2.279068 0.670528
-3.540729 2.302551 0.672483
-3.532041 2.318346 0.672806
-3.528653 2.339292 0.674200
-3.524101 2.359279 0.675380
-3.518510 2.378404 0.676370
-3.523834 2.408430 0.679586
-3.518947 2.428639 0.680765
-3.513241 2.448187 0.681797
-3.511473 2.471881 0.683656
-3.506963 2.493000 0.684977
-3.493999 2.505571 0.684578
-3.491331 2.528908 0.686321
-3.505536 2.570241 0.691602
-3.502554 2.593887 0.693351
-3.490934 2.608510 0.693315
-3.476282 2.619921 0.692655
-3.464662 2.634664 0.692645
-3.464090 2.661684 0.694998
-3.466162 2.691969 0.697953
-3.457973 2.711095 0.698748
-3.443755 2.723546 0.698267
-3.431353 2.738126 0.698191
-3.415991 2.749366 0.697486
-3.403573 2.764075 0.697435
-3.378689 2.764163 0.694663
-3.355135 2.765648 0.692173
-3.331546 2.766931 0.689669
-3.308674 2.768920 0.687315
-3.285494 2.770380 0.684885
-3.255979 2.763826 0.681021
-3.230117 2.761523 0.677959
-3.204089 2.758771 0.674842
-3.180369 2.758715 0.672235
-3.156212 2.757893 0.669512
-3.129080 2.752976 0.666086
-3.107285 2.754772 0.663874
-3.095113 2.769181 0.663892
-3.070018 2.766304 0.660888
-3.045089 2.763360 0.657896
-3.016651 2.755301 0.654043
-2.987523 2.745867 0.649986
-2.948973 2.722790 0.643624
-2.939967 2.740703 0.644315
-2.904619 2.721082 0.638619
-2.890754 2.731723 0.638090
-2.867810 2.729020 0.635318
-2.835308 2.711839 0.630143
-2.798811 2.687989 0.623900
-2.779532 2.689116 0.621860
-2.771463 2.706857 0.622584
-2.745561 2.697182 0.618790
-2.732440 2.706629 0.618161
-2.718428 2.714379 0.617262
-2.698024 2.711670 0.614673
-2.653443 2.669818 0.605780
-2.638657 2.674555 0.604466
-3.915378 -0.350296 0.511253
-3.887970 -0.336687 0.508782
-3.881238 -0.323498 0.508835
-3.869202 -0.310082 0.508224
-3.868910 -0.296705 0.509054
-3.861312 -0.283104 0.508974
-3.857275 -0.269408 0.509328
-3.853726 -0.255592 0.509736
-3.853401 -0.241642 0.510540
-3.850591 -0.227594 0.511031
-3.846201 -0.213480 0.511319
-3.835070 -0.199445 0.510756
-3.835619 -0.185118 0.511654
-3.842674 -0.170503 0.513371
-3.832778 -0.156352 0.512949
-3.845099 -0.141337 0.515333
-3.887431 -0.124793 0.521532
-3.973963 -0.105584 0.533374
-3.961539 -0.090932 0.532654
-4.001460 -0.073241 0.538613
-4.025945 -0.056137 0.542619
-4.039651 -0.039525 0.545258
-4.041970 -0.023613 0.546442
-4.028231 -0.008944 0.545562
-4.021709 0.006203 0.545609
-4.039785 0.023478 0.548836
-4.020171 0.037388 0.547191
-4.034777 0.054484 0.549985
-4.056383 0.072443 0.553701
-3.974802 0.079405 0.543970
-4.030404 0.101125 0.552136
-4.006202 0.113937 0.549879
-3.982718 0.126595 0.547707
-4.003208 0.144647 0.551314
-4.012353 0.161382 0.553442
-4.012607 0.192528 0.555338
-4.019683 0.209119 0.557216
-4.009613 0.223163 0.556823
-3.968552 0.232234 0.552295
-3.940495 0.243013 0.549487
-3.968336 0.278174 0.555111
-4.011419 0.301113 0.561868
-4.019879 0.318191 0.563988
-3.995990 0.329329 0.561745
-3.989464 0.343563 0.561846
-3.971804 0.370944 0.561428
-3.954048 0.382687 0.560001
-3.966777 0.400695 0.562740
-4.001184 0.470356 0.571557
-3.987072 0.482694 0.570648
-3.987892 0.514151 0.572861
-3.959386 0.522699 0.569948
-3.991992 0.609823 0.579897
-3.985229 0.623836 0.580042
-3.942074 0.643193 0.576127
-3.950182 0.661365 0.578386
-3.946428 0.676106 0.578964
-3.951726 0.693617 0.580842
-3.960443 0.712290 0.583222
-3.965004 0.729792 0.585016
-3.918862 0.731147 0.579506
-3.887836 0.737001 0.576156
-3.891777 0.754151 0.577860
-3.895884 0.771453 0.579598
-3.892894 0.786432 0.580311
-3.912848 0.809381 0.584382
-3.900761 0.821335 0.583781
-3.899040 0.836921 0.584700
-3.893720 0.851246 0.585095
-3.921487 0.877730 0.590378
-3.930187 0.897468 0.592867
-3.932278 0.914866 0.594389
-3.851333 0.933231 0.585960
-3.891827 0.965861 0.593244
-3.895363 0.984037 0.595008
-3.878805 1.010894 0.594994
-3.894054 1.172789 0.608864
-3.893020 1.261563 0.615391
-3.833220 1.395021 0.618292
-3.759098 1.483220 0.616131
-3.682884 1.568427 0.613553
-3.669084 1.578571 0.612689
-3.642638 1.580397 0.609682
-3.618114 1.583243 0.606984
-3.616274 1.600960 0.608129
-3.610567 1.616163 0.608621
-3.607257 1.633028 0.609529
-3.601464 1.648258 0.610017
-3.598507 1.665487 0.610998
-3.598583 1.684915 0.612511
-3.595434 1.702182 0.613476
-3.586729 1.715560 0.613483
-3.583332 1.732762 0.614418
-3.585824 1.754326 0.616390
-3.583115 1.772228 0.617465
-3.575941 1.786904 0.617764
-3.573070 1.804831 0.618826
-3.575885 1.827151 0.620906
-3.581174 1.851538 0.623441
-3.574750 1.867101 0.623908
-3.566753 1.881481 0.624099
-3.563807 1.899857 0.625202
-3.568133 1.924107 0.627625
-3.569600 1.946278 0.629551
-3.568882 1.966852 0.631098
-3.571181 1.990034 0.633208
-3.565810 2.007080 0.633937
-3.558716 2.022765 0.634360
-3.562680 2.047799 0.636823
-3.559744 2.067206 0.638036
-3.566586 2.095113 0.641072
-3.563843 2.115014 0.642354
-3.568118 2.141175 0.644960
-3.569791 2.165295 0.647103
-3.565759 2.184552 0.648197
-3.561978 2.204160 0.649353
-3.557382 2.223160 0.650370
-3.551739 2.241322 0.651203
-3.554817 2.267645 0.653711
-3.548467 2.285443 0.654442
-3.544135 2.305243 0.655575
-3.536674 2.322213 0.656121
-3.530429 2.340440 0.656916
-3.522550 2.357203 0.657408
-3.514198 2.373597 0.657822
-3.523775 2.407751 0.661757
-3.520201 2.429243 0.663149
-3.515770 2.450060 0.664394
-3.511521 2.471238 0.665696
-3.508971 2.494338 0.667357
-3.494409 2.505257 0.666646
-3.486170 2.522763 0.667209
-3.501507 2.565205 0.672533
-3.499108 2.589402 0.674330
-3.487715 2.604208 0.674330
-3.479283 2.622297 0.674947
-3.471236 2.640950 0.675662
-3.466855 2.663805 0.677151
-3.465034 2.689750 0.679196
-3.461261 2.713803 0.680870
-3.449564 2.729125 0.680922
-3.435733 2.742101 0.680542
-3.423123 2.756549 0.680432
-3.403860 2.763309 0.678930
-3.380329 2.764974 0.676523
-3.356898 2.766599 0.674131
-3.334080 2.768807 0.671862
-3.310962 2.770502 0.669522
-3.285969 2.769743 0.666768
-3.260752 2.768501 0.663953
-3.233862 2.764948 0.660758
-3.205804 2.759656 0.657287
-3.184592 2.762801 0.655307
-3.162400 2.764548 0.653102
-3.135406 2.759872 0.649812
-3.111888 2.759465 0.647279
-3.085067 2.754444 0.643983
-3.068402 2.762732 0.642964
-3.040346 2.755510 0.639342
-3.011066 2.746223 0.635404
-2.983762 2.739224 0.631882
-2.970828 2.751904 0.631653
-2.944209 2.745236 0.628229
-2.912818 2.731326 0.623645
-2.894102 2.735084 0.621989
-2.883926 2.751021 0.622330
-2.844047 2.723235 0.615580
-2.801543 2.690603 0.608109
-2.775810 2.682087 0.604577
-2.764128 2.694291 0.604389
-2.760849 2.719172 0.606220
-2.732916 2.705947 0.601998
-2.713621 2.705459 0.599824
-2.691736 2.700359 0.596946
-2.661994 2.682098 0.592038
-2.637419 2.671236 0.588328
-2.655793 2.729364 0.595345
-3.840059 -0.347413 0.488410
-3.869692 -0.335450 0.492761
-3.872857 -0.322515 0.493990
-3.875044 -0.309337 0.495100
-3.869339 -0.295866 0.495268
-3.868509 -0.282294 0.496012
-3.855092 -0.268542 0.495247
-3.848508 -0.254737 0.495290
-3.847988 -0.240804 0.496056
-3.849037 -0.226728 0.497008
-3.842858 -0.212647 0.497086
-3.836928 -0.198514 0.497189
-3.834214 -0.184261 0.497677
-3.826472 -0.170108 0.497552
-3.829755 -0.155563 0.498764
-3.837908 -0.140728 0.500571
-3.901128 -0.123257 0.509118
-3.992031 -0.088319 0.521949
-3.951250 -0.075319 0.517787
-4.013404 -0.056011 0.526304
-4.006923 -0.040870 0.526369
-4.026359 -0.023845 0.529644
-4.026864 -0.008129 0.530581
-4.032084 0.007995 0.532108
-4.023039 0.022895 0.531860
-4.016885 0.037978 0.531972
-4.013404 0.053262 0.532419
-4.012308 0.068755 0.533167
-4.020140 0.085201 0.535041
-4.014067 0.100135 0.535169
-4.004404 0.114577 0.534845
-4.021186 0.132181 0.537869
-4.019185 0.147530 0.538522
-4.023986 0.163758 0.540044
-4.020485 0.178879 0.540515
-3.998519 0.191322 0.538628
-3.999159 0.206887 0.539629
-4.002422 0.222853 0.540972
-3.968210 0.232948 0.537499
-3.951916 0.245618 0.536323
-3.943863 0.259506 0.536207
-3.957242 0.277005 0.538869
-3.993644 0.298709 0.544535
-4.003500 0.315946 0.546772
-4.001320 0.331040 0.547450
-3.997609 0.345828 0.547932
-4.000711 0.361927 0.549310
-3.985007 0.374283 0.548225
-3.968151 0.386263 0.546985
-3.964419 0.400862 0.547472
-3.993565 0.422536 0.552313
-4.000010 0.455101 0.555175
-3.995979 0.469792 0.555651
-3.984398 0.498281 0.556143
-3.975475 0.527317 0.557002
-3.961375 0.554953 0.557174
-3.986877 0.593140 0.562734
-4.001776 0.613070 0.565829
-3.962058 0.633682 0.562551
-3.930335 0.719344 0.564695
-3.854432 0.726582 0.556305
-3.914993 0.762286 0.565877
-3.924848 0.781632 0.568379
-3.918258 0.811690 0.569712
-3.900043 0.837696 0.569412
-3.921088 0.861567 0.573552
-3.943366 0.886175 0.577889
-3.951158 0.905684 0.580179
-3.904639 0.921340 0.575869
-3.862582 0.921587 0.570988
-3.882766 0.962600 0.576263
-3.883359 1.013124 0.579951
-3.887667 1.048854 0.583019
-3.869466 1.058064 0.581568
-3.860564 1.071222 0.581484
-3.851765 1.084403 0.581414
-3.897647 1.122135 0.589464
-3.878028 1.308689 0.600756
-3.845514 1.496181 0.610761
-3.813501 1.496544 0.607098
-3.793401 1.522692 0.606712
-3.784903 1.594512 0.611050
-3.647931 1.602891 0.595932
-3.609559 1.596494 0.591052
-3.605831 1.612972 0.591854
-3.603364 1.630368 0.592870
-3.601021 1.647927 0.593915
-3.600039 1.666512 0.595194
-3.599519 1.685522 0.596560
-3.591745 1.699517 0.596721
-3.585380 1.714529 0.597121
-3.589635 1.737226 0.599315
-3.591001 1.758004 0.601037
-3.584249 1.772961 0.601395
-3.579772 1.789635 0.602144
-3.581194 1.810796 0.603907
-3.579965 1.830103 0.605231
-3.574485 1.846277 0.605835
-3.569966 1.863248 0.606611
-3.566506 1.881116 0.607579
-3.572572 1.906566 0.610209
-3.572333 1.927244 0.611761
-3.571022 1.947205 0.613141
-3.577433 1.973547 0.615887
-3.577721 1.995137 0.617578
-3.569550 2.009909 0.617792
-3.556691 2.020809 0.617182
-3.557245 2.042944 0.618955
-3.565632 2.071902 0.622141
-3.560380 2.089478 0.622914
-3.559735 2.111128 0.624525
-3.555294 2.129629 0.625469
-3.561709 2.157804 0.628388
-3.559485 2.178587 0.629766
-3.571239 2.212071 0.633706
-3.559326 2.224501 0.633355
-3.556155 2.244923 0.634612
-3.555637 2.267945 0.636374
-3.552207 2.288453 0.637617
-3.545636 2.306159 0.638295
-3.541106 2.325906 0.639366
-3.544160 2.353064 0.641871
-3.538226 2.371812 0.642717
-3.534722 2.393061 0.644037
-3.530106 2.413390 0.645165
-3.524585 2.432982 0.646140
-3.518517 2.452173 0.647028
-3.520245 2.479412 0.649426
-3.511876 2.496620 0.649913
-3.499202 2.509493 0.649585
-3.493867 2.530049 0.650687
-3.493952 2.556489 0.652864
-3.492923 2.582040 0.654854
-3.484385 2.599820 0.655399
-3.482721 2.625176 0.657317
-3.475377 2.644605 0.658140
-3.471403 2.667925 0.659653
-3.466542 2.690504 0.661016
-3.461968 2.713641 0.662463
-3.456812 2.736369 0.663819
-3.445055 2.751775 0.663868
-3.425459 2.758215 0.662337
-3.407386 2.766367 0.661119
-3.385885 2.770444 0.659201
-3.358262 2.767118 0.656017
-3.330818 2.763754 0.652855
-3.306529 2.763966 0.650334
-3.281036 2.762518 0.647550
-3.259159 2.765331 0.645513
-3.233999 2.763903 0.642776
-3.210418 2.764250 0.640360
-3.186459 2.763925 0.637851
-3.162147 2.762942 0.635253
-3.136563 2.760081 0.632366
-3.105591 2.749870 0.628290
-3.084219 2.751987 0.626272
-3.063062 2.754215 0.624287
-3.033794 2.745266 0.620502
-3.007501 2.739966 0.617338
-2.992140 2.749426 0.616578
-2.971763 2.751808 0.614687
-2.935984 2.732216 0.609307
-2.915838 2.734220 0.607402
-2.899887 2.741998 0.606425
-2.886250 2.752970 0.605958
-2.856775 2.740530 0.601828
-2.808068 2.698891 0.593185
-2.781057 2.688562 0.589477
-2.765985 2.695707 0.588501
-2.764329 2.723099 0.590647
-2.723220 2.689567 0.583451
-2.714890 2.706069 0.583944
-2.695829 2.705462 0.581840
-2.661188 2.679487 0.575927
-2.640201 2.674407 0.573210
-3.930345 -0.349110 0.485041
-3.863774 -0.334517 0.478322
-3.864057 -0.321539 0.479184
-3.869368 -0.308432 0.480618
-3.870665 -0.295047 0.481593
-3.860620 -0.281407 0.481265
-3.851075 -0.267690 0.480987
-3.847031 -0.253888 0.481336
-3.845568 -0.239963 0.481980
-3.847775 -0.225877 0.483046
-3.843606 -0.211765 0.483372
-3.841258 -0.197549 0.483907
-3.826698 -0.183588 0.483014
-3.828247 -0.169180 0.483997
-3.832623 -0.154586 0.485311
-3.840152 -0.139761 0.486998
-3.971368 -0.119148 0.503250
-4.011013 -0.086352 0.509620
-4.016537 -0.070481 0.511127
-3.983994 -0.057017 0.508116
-4.049676 -0.036969 0.516784
-4.016833 -0.023655 0.513732
-4.035785 -0.006519 0.516859
-4.024779 0.008268 0.516408
-4.019024 0.023418 0.516584
-4.018392 0.038994 0.517377
-4.013622 0.054149 0.517673
-4.015726 0.069967 0.518800
-4.018494 0.085872 0.520013
-4.012553 0.100803 0.520172
-4.009925 0.116062 0.520735
-4.016981 0.132485 0.522482
-4.018956 0.148315 0.523616
-4.013891 0.163218 0.523891
-4.007776 0.177919 0.524039
-3.991582 0.191112 0.522946
-3.982682 0.205221 0.522749
-3.993929 0.222320 0.525044
-3.994493 0.237840 0.526025
-3.974342 0.249998 0.524436
-3.977432 0.265850 0.525735
-3.984972 0.282499 0.527597
-3.975942 0.296291 0.527394
-3.988054 0.313846 0.529844
-3.988127 0.329277 0.530791
-3.985198 0.344140 0.531365
-3.989529 0.360412 0.532860
-3.991734 0.376309 0.534093
-3.980125 0.389392 0.533580
-3.961810 0.400960 0.532210
-3.949950 0.413761 0.531659
-3.973470 0.434280 0.535630
-3.987139 0.452825 0.538358
-3.990804 0.469219 0.539815
-3.986798 0.483865 0.540292
-3.967524 0.494825 0.538800
-3.960816 0.508706 0.538928
-3.966611 0.525682 0.540680
-3.960906 0.539809 0.540945
-3.968179 0.557289 0.542905
-3.972006 0.573962 0.544426
-3.972520 0.589814 0.545520
-3.958602 0.601737 0.544724
-3.965087 0.619277 0.546613
-3.966645 0.635516 0.547861
-3.958877 0.649107 0.547881
-3.955185 0.663867 0.548444
-3.956844 0.680243 0.549722
-3.882116 0.704602 0.542913
-3.861666 0.713743 0.541220
-3.943269 0.772095 0.554363
-3.960799 0.794161 0.557835
-3.938715 0.819208 0.557051
-3.912807 0.826418 0.554628
-3.947962 0.904890 0.563960
-3.861728 0.938049 0.556571
-3.875030 0.959862 0.559575
-3.887683 0.981626 0.562504
-3.880656 0.995520 0.562682
-3.890401 1.033327 0.566406
-3.861829 1.055071 0.564727
-3.827766 1.057152 0.561062
-3.862715 1.089558 0.567239
-3.896025 1.191937 0.578152
-3.886251 1.205032 0.577983
-3.894373 1.244688 0.581687
-3.828055 1.247561 0.574493
-3.841686 1.272278 0.577761
-3.852533 1.313943 0.581921
-3.907091 1.379449 0.592644
-3.870085 1.378301 0.588442
-3.829806 1.375020 0.583725
-3.803820 1.434646 0.585078
-3.796651 1.524737 0.590716
-3.817906 1.556755 0.595368
-3.830594 1.583905 0.598722
-3.607917 1.576553 0.573513
-3.606853 1.594698 0.574704
-3.603332 1.611289 0.575513
-3.600860 1.628654 0.576495
-3.595751 1.644289 0.577062
-3.598269 1.665252 0.578859
-3.596741 1.683535 0.580017
-3.592643 1.700098 0.580768
-3.589069 1.717097 0.581609
-3.590664 1.737893 0.583299
-3.589767 1.757020 0.584594
-3.586381 1.774431 0.585492
-3.583929 1.792613 0.586551
-3.586383 1.814567 0.588428
-3.586163 1.834663 0.589876
-3.579067 1.849637 0.590196
-3.569926 1.863063 0.590180
-3.576125 1.888443 0.592728
-3.581116 1.913106 0.595093
-3.583662 1.936047 0.597066
-3.584592 1.957879 0.598782
-3.586113 1.980353 0.600614
-3.582507 1.998814 0.601591
-3.573259 2.012722 0.601617
-3.564146 2.026757 0.601670
-3.570938 2.054180 0.604455
-3.566061 2.071975 0.605256
-3.563154 2.091548 0.606407
-3.555525 2.107165 0.606753
-3.557681 2.131375 0.608807
-3.542572 2.140589 0.607868
-3.551528 2.171139 0.611143
-3.551778 2.194212 0.612917
-3.554782 2.219978 0.615195
-3.550499 2.239327 0.616206
-3.545725 2.258353 0.617143
-3.543412 2.279797 0.618533
-3.546786 2.306761 0.620959
-3.539820 2.324188 0.621552
-3.536329 2.345042 0.622784
-3.547064 2.379822 0.626610
-3.537860 2.395566 0.626849
-3.536507 2.419119 0.628530
-3.524231 2.432030 0.628233
-3.519898 2.452938 0.629403
-3.517901 2.476392 0.631024
-3.516316 2.500494 0.632744
-3.502063 2.511759 0.632129
