ply
format ascii 1.0
comment ---
element vertex 1680
property float x
property float y
property float z
element face 0
property list uchar uint vertex_indices
end_header
-3.234844 1.581571 0.996818
-3.229851 1.601333 0.999285
-3.231872 1.628863 1.007029
-3.220167 1.641513 1.004508
-3.214737 1.661091 1.006697
-3.199189 1.669335 1.001220
-3.182987 1.676642 0.995183
-3.172154 1.689900 0.993169
-3.151456 1.691572 0.983542
-3.158746 1.725734 0.995329
-3.164483 1.758326 1.005951
-3.159048 1.777744 1.007928
-3.134849 1.774364 0.995247
-3.126074 1.789285 0.994435
-3.123435 1.811567 0.998333
-3.121309 1.834399 1.002562
-3.119372 1.857364 1.006859
-3.103543 1.862543 1.000065
-3.091749 1.872411 0.996303
-3.082497 1.885157 0.994409
-3.101675 1.959190 1.020397
-4.024083 -1.490298 0.781897
-4.006867 -1.473149 0.776258
-4.001753 -1.458647 0.776357
-3.999997 -1.444701 0.778035
-3.999537 -1.430826 0.780312
-3.998050 -1.416518 0.782073
-3.992599 -1.401195 0.781901
-3.990923 -1.386494 0.783521
-3.989603 -1.371697 0.785291
-3.997529 -1.358527 0.791515
-4.001334 -1.344345 0.795735
-4.002977 -1.329585 0.798894
-4.000175 -1.313886 0.799876
-3.991848 -1.297143 0.798148
-3.988465 -1.281210 0.798806
-3.983926 -1.265033 0.798882
-3.983773 -1.249513 0.801087
-3.986851 -1.234417 0.804866
-3.988645 -1.219043 0.808012
-3.985403 -1.202892 0.808678
-3.978369 -1.186223 0.807465
-3.976355 -1.170255 0.808716
-3.979897 -1.154985 0.812706
-3.979867 -1.139235 0.814933
-3.979556 -1.123445 0.817021
-3.974385 -1.107126 0.816698
-3.972993 -1.091259 0.818249
-3.963382 -1.074602 0.815709
-3.961825 -1.058811 0.817175
-3.961982 -1.043201 0.819500
-3.960996 -1.027512 0.821259
-3.957606 -1.011665 0.821821
-3.956065 -0.996008 0.823313
-3.949101 -0.980025 0.822086
-3.951870 -0.964737 0.825755
-3.953651 -0.949386 0.828941
-3.959239 -0.934233 0.834061
-3.947047 -0.918229 0.830211
-3.948188 -0.902915 0.833105
-3.942843 -0.887381 0.832722
-3.937496 -0.871923 0.832342
-3.934577 -0.856600 0.833201
-3.946865 -0.841626 0.841817
-3.946652 -0.826359 0.844085
-3.940966 -0.811059 0.843567
-3.936474 -0.795838 0.843665
-3.932401 -0.780676 0.843983
-3.925050 -0.765589 0.842625
-3.924132 -0.750513 0.844578
-3.933176 -0.735287 0.851678
-3.923116 -0.720394 0.848945
-3.913312 -0.705604 0.846341
-3.914701 -0.690556 0.849532
-3.930398 -0.674958 0.860164
-3.919898 -0.660317 0.857223
-3.909777 -0.645765 0.854475
-3.909445 -0.630794 0.856829
-3.914744 -0.615494 0.862137
-3.916965 -0.600328 0.865860
-3.915713 -0.585369 0.867780
-3.915674 -0.570323 0.870351
-3.907650 -0.555898 0.868737
-3.897704 -0.541705 0.866111
-3.895797 -0.526882 0.867723
-3.902337 -0.511263 0.873814
-3.898162 -0.496628 0.874256
-3.900564 -0.481327 0.878194
-3.897898 -0.466540 0.879460
-3.893556 -0.451953 0.879843
-3.885433 -0.437845 0.878216
-3.879364 -0.423539 0.877687
-3.873661 -0.409223 0.877356
-3.873281 -0.394212 0.879884
-3.877704 -0.378495 0.885006
-3.880849 -0.362889 0.889464
-3.876351 -0.348386 0.889822
-3.872977 -0.333721 0.890795
-3.871211 -0.318795 0.892645
-3.867834 -0.304126 0.893634
-3.858888 -0.290427 0.891608
-3.859514 -0.275069 0.894786
-3.863708 -0.259009 0.899924
-3.863313 -0.243736 0.902580
-3.864566 -0.228106 0.906152
-3.854047 -0.214787 0.903291
-3.849692 -0.200268 0.903807
-3.851802 -0.184384 0.907886
-3.852892 -0.168655 0.911422
-3.852261 -0.153252 0.914025
-3.851273 -0.137892 0.916445
-3.846589 -0.123361 0.916829
-3.846625 -0.107705 0.919840
-3.847277 -0.091848 0.923208
-3.845723 -0.076488 0.925363
-3.841649 -0.061741 0.926123
-3.838118 -0.046846 0.927193
-3.835595 -0.031669 0.928837
-3.828447 -0.017731 0.927892
-3.826606 -0.002343 0.929933
-3.827768 0.013933 0.933680
-3.820262 0.027762 0.932547
-3.813970 0.041920 0.932100
-3.813585 0.057844 0.935006
-3.812917 0.073732 0.937765
-3.814107 0.090252 0.941598
-3.811475 0.105625 0.943268
-3.805915 0.120075 0.943272
-3.797828 0.133685 0.941833
-3.795179 0.149090 0.943514
-3.799018 0.166745 0.948937
-3.797083 0.182497 0.951057
-3.782463 0.193796 0.945862
-3.775435 0.207717 0.945044
-3.779124 0.225542 0.950441
-3.779806 0.242357 0.954117
-3.777519 0.258122 0.956083
-3.775242 0.273929 0.958066
-3.773653 0.290044 0.960463
-3.769721 0.305278 0.961502
-3.768342 0.321560 0.964048
-3.759307 0.334765 0.962103
-3.753938 0.349449 0.962317
-3.748910 0.364281 0.962739
-3.749236 0.381409 0.966336
-3.744986 0.396630 0.967238
-3.738820 0.411027 0.967010
-3.734448 0.426221 0.967855
-3.732045 0.442326 0.969884
-3.726460 0.457015 0.970024
-3.724227 0.473270 0.972180
-3.718062 0.487719 0.971989
-3.714872 0.503589 0.973595
-3.709949 0.518659 0.974168
-3.701488 0.532008 0.972610
-3.696155 0.546884 0.972949
-3.693860 0.563306 0.975144
-3.692813 0.580420 0.978116
-3.686899 0.595086 0.978137
-3.677292 0.607826 0.975908
-3.667626 0.620493 0.973641
-3.661396 0.634968 0.973485
-3.653409 0.648493 0.972256
-3.655367 0.667482 0.977170
-3.653586 0.684505 0.979804
-3.644505 0.697477 0.977932
-3.640237 0.713172 0.979055
-3.639847 0.731152 0.982612
-3.630781 0.744145 0.980778
-3.626953 0.760219 0.982227
-3.622392 0.775903 0.983236
-3.614508 0.789613 0.982173
-3.605510 0.802635 0.980416
-3.609306 0.823587 0.986753
-3.607090 0.840928 0.989326
-3.608071 0.860385 0.993958
-3.593917 0.870241 0.988992
-3.575995 0.877559 0.981613
-3.564071 0.888680 0.978052
-3.563990 0.907627 0.982090
-3.559885 0.923993 0.983579
-3.552092 0.937918 0.982716
-3.547131 0.953807 0.983700
-3.548110 0.973888 0.988560
-3.547837 0.993243 0.992652
-3.544775 1.010753 0.994972
-3.544477 1.030349 0.999132
-3.527227 1.037767 0.992235
-3.524071 1.055421 0.994581
-3.515878 1.069440 0.993648
-3.504914 1.081404 0.990907
-3.489136 1.089699 0.984989
-3.480829 1.103636 0.984026
-3.479363 1.122914 0.987642
-3.477432 1.141977 0.990996
-3.471804 1.158256 0.991924
-3.473907 1.180817 0.998079
-3.475498 1.203189 1.003958
-3.471684 1.221356 1.006251
-3.453892 1.228093 0.999121
-3.456749 1.251981 1.006014
-3.450418 1.268363 1.006720
-3.445312 1.285888 1.008303
-3.397938 1.267055 0.980940
-3.382255 1.275215 0.975247
-3.395650 1.308942 0.989624
-3.405782 1.340237 1.001870
-3.392886 1.351221 0.998236
-3.379583 1.361825 0.994332
-3.383132 1.387909 1.002222
-3.380306 1.408383 1.005731
-3.359154 1.411835 0.996400
-3.346914 1.423576 0.993338
-3.331093 1.431889 0.987754
-3.344336 1.468316 1.002835
-3.324476 1.472834 0.994433
-3.309233 1.481771 0.989313
-3.297098 1.493756 0.986420
-3.292467 1.513335 0.988950
-3.299141 1.544630 0.999709
-3.301439 1.571805 1.007393
-3.294250 1.589378 1.008237
-3.273265 1.592484 0.999009
-3.272589 1.617029 1.004649
-3.275312 1.645461 1.012846
-3.248915 1.642465 0.999558
-3.250109 1.669458 1.006668
-3.232044 1.675263 0.999465
-3.218056 1.685427 0.995246
-3.214245 1.707004 0.998624
-3.201173 1.718025 0.995015
-3.197134 1.739358 0.998184
-3.193281 1.760939 1.001475
-3.179385 1.770643 0.997078
-3.182556 1.800505 1.005655
-3.164235 1.804538 0.997709
-3.148743 1.811611 0.991807
-3.145504 1.833414 0.995259
-3.141686 1.854397 0.998189
-3.139250 1.876976 1.002111
-3.121668 1.880208 0.994095
-3.101044 1.903865 0.988972
-3.111907 1.942729 1.002917
-3.998798 -1.481233 0.753621
-4.001559 -1.468764 0.757446
-4.000014 -1.455058 0.759220
-4.004138 -1.442383 0.763658
-4.002929 -1.428293 0.765553
-3.998122 -1.413238 0.765717
-3.990616 -1.397466 0.764568
-3.989383 -1.382840 0.766381
-3.987649 -1.367947 0.767933
-3.991145 -1.353908 0.771968
-3.999288 -1.340548 0.778219
-4.004501 -1.326432 0.783060
-3.998093 -1.310082 0.782307
-3.987097 -1.292897 0.779320
-3.987638 -1.277643 0.781869
-3.987263 -1.262148 0.783966
-3.981259 -1.245702 0.783328
-3.984366 -1.230628 0.787089
-3.989952 -1.215827 0.792052
-3.990500 -1.200218 0.794567
-3.986607 -1.183970 0.794917
-3.981783 -1.167616 0.794804
-3.983530 -1.152112 0.797892
-3.981368 -1.136113 0.799069
-3.978932 -1.120100 0.800110
-3.976975 -1.104166 0.801384
-3.974522 -1.088206 0.802414
-3.971563 -1.072231 0.803195
-3.967882 -1.056234 0.803620
-3.964643 -1.040330 0.804264
-3.960722 -1.024421 0.804571
-3.955729 -1.008492 0.804349
-3.949661 -0.992559 0.803593
-3.949410 -0.977095 0.805727
-3.953925 -0.961945 0.810241
-3.956057 -0.946638 0.813583
-3.949941 -0.930918 0.812822
-3.947649 -0.915456 0.813972
-3.945815 -0.900058 0.815360
-3.946858 -0.884799 0.818199
-3.942900 -0.869403 0.818538
-3.941604 -0.854132 0.820222
-3.928523 -0.838671 0.815978
-3.929121 -0.823549 0.818628
-3.945261 -0.808566 0.829151
-3.940140 -0.793362 0.828945
-3.930995 -0.778232 0.826703
-3.924962 -0.763186 0.826041
-3.920216 -0.748196 0.826037
-3.917823 -0.733221 0.827237
-3.918973 -0.718197 0.830255
-3.919109 -0.703195 0.832771
-3.929332 -0.687860 0.840467
-3.927969 -0.672864 0.842251
-3.920140 -0.658163 0.840722
-3.920823 -0.643127 0.843577
-3.917879 -0.628276 0.844576
-3.917235 -0.613315 0.846772
-3.915527 -0.598421 0.848431
-3.896669 -0.584726 0.841212
-3.907887 -0.568975 0.849590
-3.911993 -0.553663 0.854303
-3.912720 -0.538582 0.857277
-3.910220 -0.523769 0.858583
-3.906298 -0.509102 0.859156
-3.907765 -0.493916 0.862558
-3.904659 -0.479179 0.863579
-3.902312 -0.464370 0.865007
-3.900957 -0.449449 0.866967
-3.892631 -0.435364 0.865264
-3.876840 -0.422288 0.859615
-3.880752 -0.406752 0.864380
-3.886156 -0.390943 0.869958
-3.891391 -0.375072 0.875470
-3.886250 -0.360650 0.875486
-3.877239 -0.346843 0.873444
-3.880489 -0.331157 0.877947
-3.879529 -0.316093 0.880219
-3.869717 -0.302501 0.877758
-3.867465 -0.287659 0.879353
-3.860307 -0.273687 0.878319
-3.864185 -0.257710 0.883233
-3.871624 -0.240974 0.890093
-3.870326 -0.225829 0.892256
-3.865051 -0.211459 0.892275
-3.861176 -0.196814 0.893058
-3.859611 -0.181678 0.895105
-3.855521 -0.167065 0.895788
-3.855298 -0.151588 0.898588
-3.850837 -0.137038 0.899084
-3.846950 -0.122355 0.899900
-3.842383 -0.107831 0.900350
-3.851696 -0.089905 0.908443
-3.850978 -0.074342 0.911039
-3.841475 -0.060990 0.908796
-3.838857 -0.045890 0.910358
-3.837669 -0.030384 0.912724
-3.832351 -0.015968 0.912806
-3.826771 -0.001632 0.912746
-3.824796 0.013721 0.914701
-3.821436 0.028703 0.915891
-3.814894 0.042761 0.915308
-3.819614 0.060197 0.921045
-3.823725 0.077558 0.926465
-3.821153 0.092929 0.928145
-3.819858 0.108737 0.930556
-3.810049 0.121823 0.928164
-3.799216 0.134515 0.925185
-3.799827 0.150992 0.928696
-3.801671 0.167959 0.932926
-3.796415 0.182536 0.933129
-3.786174 0.195347 0.930487
-3.782388 0.210425 0.931533
-3.786047 0.228247 0.936857
-3.785717 0.244692 0.939914
-3.784280 0.260780 0.942349
-3.781546 0.276418 0.944049
-3.781550 0.293158 0.947344
-3.777690 0.308434 0.948416
-3.771748 0.322892 0.948287
-3.765725 0.337314 0.948115
-3.762046 0.352703 0.949313
-3.761910 0.369608 0.952591
-3.759995 0.385823 0.954846
-3.755770 0.401085 0.955758
-3.751554 0.416371 0.956685
-3.746115 0.431132 0.956899
-3.744174 0.447482 0.959186
-3.745578 0.465416 0.963469
-3.740894 0.480614 0.964163
-3.739634 0.497444 0.966902
-3.735170 0.512806 0.967750
-3.725832 0.525829 0.965697
-3.718264 0.539680 0.964701
-3.712460 0.554392 0.964766
-3.710963 0.571282 0.967426
-3.709658 0.588335 0.970222
-3.709418 0.606007 0.973680
-3.700018 0.618964 0.971620
-3.689628 0.631359 0.968959
-3.684043 0.646286 0.969214
-3.687689 0.666250 0.975103
-3.686302 0.683583 0.977956
-3.677086 0.696627 0.976040
-3.667381 0.709365 0.973826
-3.664457 0.725941 0.975781
-3.660207 0.741808 0.976940
-3.653733 0.756416 0.976742
-3.642471 0.768201 0.973590
-3.634474 0.781888 0.972463
-3.625432 0.794934 0.970693
-3.624026 0.812646 0.973690
-3.627322 0.833366 0.979654
-3.628279 0.852778 0.984196
-3.625052 0.869661 0.986147
-3.621411 0.886350 0.987863
-3.590670 0.885496 0.972500
-3.581792 0.898678 0.970911
-3.584516 0.919566 0.976691
-3.587102 0.940529 0.982430
-3.575948 0.952321 0.979457
-3.570001 0.967658 0.979818
-3.578381 0.992997 0.989380
-3.575473 1.010672 0.991761
-3.574163 1.029581 0.995206
-3.563510 1.041906 0.992658
-3.558950 1.058638 0.994065
-3.546025 1.069309 0.990071
-3.533419 1.080168 0.986289
-3.528187 1.096517 0.987325
-3.515407 1.107221 0.983452
-3.508909 1.122698 0.983709
-3.506636 1.141513 0.986775
-3.511747 1.166249 0.994761
-3.511154 1.186735 0.999046
-3.502372 1.200843 0.997949
-3.498587 1.219033 1.000205
-3.490321 1.233688 0.999512
-3.484081 1.250071 1.000205
-3.473854 1.263218 0.998257
-3.490497 1.299061 1.014434
-3.442024 1.279891 0.986740
-3.440212 1.300271 0.990540
-3.428788 1.312466 0.987864
-3.444643 1.348683 1.003814
-3.431443 1.359581 1.000021
-3.425556 1.377038 1.001260
-3.401603 1.378208 0.990102
-3.410680 1.409484 1.001731
-3.393673 1.416981 0.995391
-3.392881 1.439598 1.000325
-3.392399 1.462746 1.005546
-3.379136 1.473899 1.001888
-3.363455 1.482703 0.996543
-3.348225 1.491887 0.991513
-3.333477 1.501494 0.986823
-3.323421 1.515740 0.985464
-3.352821 1.569875 1.012241
-3.330809 1.572438 1.002472
-3.321542 1.587931 1.001806
-3.310910 1.602058 1.000175
-3.303622 1.619729 1.000971
-3.306666 1.648485 1.009287
-3.294137 1.660802 1.006333
-3.296494 1.689253 1.014248
-3.260999 1.676400 0.994447
-3.260065 1.701314 0.999952
-3.259498 1.726820 1.005760
-3.251497 1.744073 1.006078
-3.248413 1.766942 1.010037
-3.223042 1.764095 0.997328
-3.202860 1.766845 0.988378
-3.223295 1.817206 1.009915
-3.223220 1.843673 1.016046
-3.191226 1.831719 0.997925
-3.161803 1.822162 0.981554
-3.167318 1.854872 0.991694
-3.161248 1.873313 0.992923
-3.155746 1.892276 0.994495
-3.136461 1.918985 0.990908
-3.126641 1.956599 0.994150
-3.105206 1.953272 0.982639
-4.005638 -1.479708 0.740633
-3.992040 -1.463427 0.736781
-3.995419 -1.450833 0.740823
-3.999121 -1.438049 0.745005
-4.008171 -1.426156 0.751683
-4.003759 -1.411135 0.752034
-3.995189 -1.395100 0.750403
-3.991880 -1.380012 0.751222
-3.991601 -1.365373 0.753449
-3.994320 -1.351145 0.757078
-3.999982 -1.337284 0.762090
-4.003027 -1.322757 0.765854
-3.999339 -1.306892 0.766410
-3.992734 -1.290456 0.765559
-3.987923 -1.274288 0.765542
-3.985527 -1.258471 0.766661
-3.985343 -1.242948 0.768826
-3.985450 -1.227410 0.771123
-3.988796 -1.212287 0.774968
-3.991595 -1.197011 0.778551
-3.990591 -1.181165 0.780304
-3.986470 -1.164906 0.780550
-3.982944 -1.148748 0.781076
-3.978247 -1.132480 0.781029
-3.973495 -1.116252 0.780951
-3.974027 -1.100644 0.783431
-3.974634 -1.085043 0.785951
-3.973020 -1.069232 0.787395
-3.967836 -1.053126 0.787101
-3.964119 -1.037217 0.787521
-3.963056 -1.021580 0.789239
-3.954684 -1.005422 0.787383
-3.951244 -0.989721 0.787941
-3.963864 -0.975120 0.796391
-3.961303 -0.959504 0.797400
-3.955935 -0.943785 0.797031
-3.949501 -0.928092 0.796136
-3.942141 -0.912449 0.794785
-3.944897 -0.897296 0.798440
-3.951293 -0.882258 0.803916
-3.951801 -0.867006 0.806488
-3.950522 -0.851727 0.808183
-3.949538 -0.836486 0.810035
-3.938843 -0.821148 0.807051
-3.947719 -0.806083 0.813845
-3.945840 -0.790916 0.815280
-3.933646 -0.775809 0.811552
-3.928945 -0.760780 0.811580
-3.926042 -0.745786 0.812518
-3.918696 -0.730910 0.811225
-3.922647 -0.715851 0.815635
-3.926110 -0.700770 0.819819
-3.934392 -0.685493 0.826464
-3.931189 -0.670580 0.827307
-3.933422 -0.655459 0.830922
-3.926296 -0.640774 0.829791
-3.927717 -0.625694 0.833018
-3.925071 -0.610836 0.834185
-3.915080 -0.596475 0.831602
-3.908495 -0.581970 0.830762
-3.898100 -0.567809 0.827967
-3.916659 -0.551418 0.840061
-3.911952 -0.536811 0.840213
-3.913932 -0.521631 0.843823
-3.915842 -0.506421 0.847414
-3.908986 -0.492060 0.846483
-3.904242 -0.477526 0.846649
-3.903035 -0.462626 0.848659
-3.903823 -0.447484 0.851720
-3.897723 -0.433150 0.851203
-3.884112 -0.419811 0.846765
-3.875790 -0.405888 0.845085
-3.884168 -0.389724 0.852160
-3.897998 -0.372664 0.862129
-3.892253 -0.358331 0.861837
-3.885730 -0.344146 0.861138
-3.882097 -0.329539 0.861967
-3.879740 -0.314728 0.863479
-3.864391 -0.302109 0.858113
-3.857438 -0.288150 0.857190
-3.867168 -0.271222 0.865145
-3.863560 -0.256627 0.866024
-3.873097 -0.239522 0.873930
-3.869663 -0.224821 0.874928
-3.868688 -0.209619 0.877253
-3.870112 -0.193889 0.880878
-3.867876 -0.178879 0.882551
-3.861956 -0.164652 0.882248
-3.858264 -0.149947 0.883151
-3.857652 -0.134531 0.885727
-3.851217 -0.120441 0.885160
-3.844659 -0.106404 0.884526
-3.839620 -0.092018 0.884721
-3.827476 -0.079423 0.881045
-3.844880 -0.059329 0.893501
-3.831406 -0.047088 0.889107
-3.823733 -0.033393 0.887879
-3.831477 -0.015515 0.895122
-3.826426 -0.001069 0.895352
-3.821157 0.013312 0.895465
-3.817406 0.028128 0.896421
-3.820870 0.045093 0.901379
-3.826671 0.062860 0.907656
-3.826945 0.079049 0.910888
-3.817941 0.092391 0.908967
-3.805120 0.104468 0.904910
-3.806408 0.121041 0.908732
-3.810818 0.138721 0.914322
-3.803606 0.152600 0.913410
-3.797151 0.166714 0.912923
-3.791829 0.181208 0.913076
-3.794875 0.198667 0.917962
-3.792560 0.214292 0.919834
-3.791053 0.230250 0.922176
-3.788937 0.246026 0.924184
-3.788933 0.262642 0.927408
-3.786807 0.278507 0.929436
-3.785642 0.294788 0.932026
-3.782000 0.310140 0.933210
-3.777558 0.325194 0.933944
-3.773771 0.340529 0.935061
-3.770355 0.356041 0.936401
-3.771333 0.373431 0.940289
-3.768298 0.389190 0.941875
-3.765981 0.405294 0.943888
-3.759724 0.419710 0.943622
-3.755607 0.435074 0.944607
-3.753207 0.451239 0.946604
-3.758122 0.470803 0.952897
-3.757201 0.487792 0.955799
-3.751018 0.502367 0.955624
-3.745184 0.517109 0.955661
-3.738356 0.531373 0.955117
-3.731243 0.545490 0.954408
-3.732252 0.563635 0.958519
-3.727452 0.578950 0.959203
-3.723479 0.594707 0.960388
-3.722042 0.611810 0.963101
-3.717450 0.627328 0.963946
-3.709464 0.641073 0.962768
-3.707217 0.657883 0.965041
-3.706872 0.675788 0.968479
-3.701579 0.691057 0.968956
-3.693352 0.704713 0.967668
-3.686363 0.719052 0.967135
-3.684786 0.736481 0.969900
-3.681621 0.753071 0.971721
-3.675613 0.768055 0.971826
-3.665917 0.780876 0.969685
-3.649243 0.789486 0.963265
-3.645042 0.805525 0.964499
-3.646159 0.824872 0.969029
-3.645281 0.843109 0.972363
-3.656768 0.869203 0.983385
-3.663790 0.892746 0.991704
-3.630686 0.890752 0.975102
-3.613440 0.898691 0.968330
-3.604349 0.911852 0.966642
-3.614331 0.937669 0.976923
-3.610374 0.954402 0.978510
-3.608455 0.972590 0.981408
-3.604457 0.989456 0.983027
-3.595659 1.003066 0.981633
-3.592350 1.020533 0.983738
-3.590732 1.039293 0.986953
-3.589785 1.058656 0.990634
-3.580804 1.072326 0.989215
-3.569428 1.084253 0.986274
-3.562773 1.099655 0.986380
-3.551693 1.111795 0.983657
-3.537683 1.121702 0.979048
-3.526712 1.133873 0.976411
-3.548209 1.171160 0.994912
-3.548016 1.192015 0.999393
-3.533261 1.201537 0.994400
-3.522765 1.214398 0.992203
-3.516066 1.230335 0.992522
-3.507977 1.245218 0.991956
-3.498978 1.259407 0.990818
-3.519960 1.298634 1.009608
-3.488976 1.294659 0.993941
-3.493620 1.320679 1.002010
-3.466425 1.319604 0.988833
-3.477281 1.351342 1.001179
-3.472568 1.369824 1.003143
-3.460304 1.381744 1.000050
-3.433741 1.380836 0.987275
-3.456375 1.424285 1.007934
-3.424788 1.418712 0.991745
-3.415360 1.433300 0.990666
-3.418789 1.459991 0.998453
-3.426673 1.491217 1.009400
-3.404576 1.494197 0.999714
-3.390296 1.504545 0.995427
-3.373445 1.512354 0.989353
-3.358076 1.521541 0.984307
-3.361008 1.548922 0.992097
-3.354653 1.567269 0.993434
-3.368148 1.605963 1.008834
-3.350118 1.612765 1.002020
-3.322754 1.609728 0.988538
-3.333432 1.646338 1.002149
-3.324640 1.662756 1.001921
-3.333493 1.698169 1.014400
-3.318847 1.708529 1.010012
-3.294821 1.708501 0.998795
-3.287030 1.726130 0.999305
-3.288869 1.754569 1.006844
-3.280100 1.771243 1.006649
-3.276304 1.793574 1.010091
-3.263535 1.805612 1.006903
-3.241987 1.807240 0.997144
-3.240517 1.832143 1.002208
-3.234111 1.851228 1.003569
-3.220332 1.861358 0.999349
-3.202439 1.866201 0.991931
-3.195477 1.884046 0.992631
-3.182005 1.893644 0.988312
-3.176781 1.913205 0.990137
-3.177853 1.940527 0.996671
-3.152538 1.959592 0.988417
-3.157569 1.991450 0.997691
-3.984759 -1.471735 0.714864
-3.994283 -1.460789 0.721696
-3.985887 -1.445521 0.720250
-3.983016 -1.431308 0.721332
-3.998105 -1.420743 0.730718
-4.007796 -1.408696 0.737606
-3.997904 -1.392356 0.735384
-3.990863 -1.376493 0.734460
-3.994163 -1.362536 0.738336
-4.000683 -1.348997 0.743707
-4.002605 -1.334396 0.746922
-4.005206 -1.319763 0.750445
-4.001455 -1.303874 0.750976
-3.990893 -1.286764 0.748285
-3.989589 -1.271187 0.749931
-3.988440 -1.255566 0.751640
-3.985376 -1.239594 0.752434
-3.981953 -1.223542 0.753047
-3.983223 -1.208149 0.755876
-3.984981 -1.192772 0.758933
-3.988636 -1.177599 0.762894
-3.989102 -1.161960 0.765338
-3.979596 -1.145085 0.763022
-3.973344 -1.128683 0.762248
-3.977255 -1.113479 0.766332
-3.978067 -1.097907 0.768938
-3.974638 -1.081907 0.769511
-3.965775 -1.065436 0.767468
-3.964605 -1.049768 0.769124
-3.964585 -1.034227 0.771338
-3.964686 -1.018715 0.773618
-3.961120 -1.002949 0.774127
-3.961845 -0.987541 0.776721
-3.965823 -0.972355 0.780902
-3.971475 -0.957249 0.785913
-3.961493 -0.941271 0.783324
-3.955877 -0.925632 0.782859
-3.947363 -0.909949 0.780979
-3.941107 -0.894462 0.780201
-3.950859 -0.879584 0.787273
-3.955224 -0.864477 0.791724
-3.955086 -0.849244 0.793979
-3.952453 -0.833988 0.795015
-3.953230 -0.818817 0.797741
-3.956646 -0.803670 0.801785
-3.941256 -0.788475 0.796535
-3.929985 -0.773435 0.793315
-3.924400 -0.758473 0.792913
-3.927395 -0.743458 0.796783
-3.931074 -0.728406 0.801011
-3.924278 -0.713577 0.800029
-3.934584 -0.698319 0.807600
-3.920588 -0.683797 0.803029
-3.925489 -0.668671 0.807927
-3.928093 -0.653596 0.811693
-3.928696 -0.638592 0.814469
-3.928303 -0.623633 0.816757
-3.927994 -0.608667 0.819100
-3.927501 -0.593710 0.821363
-3.918416 -0.579356 0.819284
-3.912836 -0.564819 0.818981
-3.890805 -0.551661 0.810316
-3.911138 -0.535066 0.823209
-3.908198 -0.520372 0.824273
-3.909639 -0.505268 0.827586
-3.906096 -0.490639 0.828362
-3.902669 -0.476015 0.829205
-3.899272 -0.461402 0.830071
-3.903346 -0.445926 0.834791
-3.900535 -0.431227 0.835982
-3.892332 -0.417221 0.834394
-3.884543 -0.403221 0.833020
-3.885545 -0.388058 0.836203
-3.891062 -0.372208 0.841749
-3.896397 -0.356297 0.847223
-3.889953 -0.342113 0.846580
-3.887755 -0.327288 0.848157
-3.877879 -0.313717 0.845725
-3.868922 -0.300060 0.843770
-3.872652 -0.284238 0.848476
-3.878860 -0.267891 0.854506
-3.865369 -0.255105 0.850177
-3.861147 -0.240650 0.850732
-3.863414 -0.224923 0.854726
-3.868099 -0.208642 0.860020
-3.874175 -0.191980 0.866076
-3.872051 -0.176955 0.867795
-3.867795 -0.162375 0.868387
-3.866035 -0.147238 0.870318
-3.860547 -0.132928 0.870264
-3.855566 -0.118514 0.870485
-3.847286 -0.104899 0.868938
-3.842600 -0.090444 0.869323
-3.846360 -0.073868 0.874266
-3.840639 -0.059637 0.874108
-3.836311 -0.045053 0.874708
-3.841824 -0.027828 0.880650
-3.834152 -0.014097 0.879453
-3.829232 0.000368 0.879752
-3.825125 0.015064 0.880499
-3.823654 0.030533 0.882692
-3.821529 0.045847 0.884539
-3.831251 0.064772 0.892896
-3.827141 0.079606 0.893684
-3.822938 0.094422 0.894426
-3.805147 0.104907 0.887673
-3.814933 0.124212 0.896150
-3.815013 0.140477 0.899284
-3.810857 0.155376 0.900080
-3.786454 0.163349 0.889616
-3.801199 0.184742 0.900941
-3.801682 0.201315 0.904346
-3.800754 0.217447 0.906977
-3.797779 0.232882 0.908474
-3.794141 0.248099 0.909608
-3.793959 0.264645 0.912696
-3.792070 0.280597 0.914836
-3.791752 0.297206 0.917876
-3.790793 0.313624 0.920570
-3.788849 0.329702 0.922718
-3.784356 0.344783 0.923429
-3.777150 0.358753 0.922598
-3.774135 0.374468 0.924163
-3.772066 0.390621 0.926281
-3.768818 0.406309 0.927734
-3.765039 0.421796 0.928893
-3.760979 0.437183 0.929899
-3.760781 0.454339 0.933144
-3.765038 0.473610 0.938987
-3.762820 0.490003 0.941104
-3.753684 0.503185 0.939214
-3.747565 0.517768 0.939078
-3.744370 0.533769 0.940655
-3.743407 0.550903 0.943551
-3.740011 0.566896 0.945038
-3.736879 0.583062 0.946694
-3.730513 0.597620 0.946460
-3.727849 0.614093 0.948416
-3.725489 0.630776 0.950569
-3.723021 0.647459 0.952675
-3.717408 0.662510 0.952929
-3.715096 0.679371 0.955159
-3.711466 0.695567 0.956621
-3.705893 0.710726 0.956936
-3.702632 0.727208 0.958650
-3.700397 0.744329 0.960997
-3.699314 0.762182 0.964059
-3.695652 0.778614 0.965589
-3.688083 0.792788 0.964774
-3.676104 0.804321 0.961291
-3.671526 0.820274 0.962305
-3.667717 0.836741 0.963804
-3.674117 0.859590 0.971561
-3.677599 0.880816 0.977582
-3.667200 0.893406 0.975125
-3.652938 0.903486 0.970294
-3.632671 0.909584 0.961751
-3.645651 0.937316 0.973742
-3.634459 0.949329 0.970823
-3.631078 0.966544 0.972762
-3.630918 0.986024 0.976735
-3.628376 1.004003 0.979259
-3.617685 1.016428 0.976713
-3.606786 1.028683 0.974042
-3.608091 1.049567 0.979061
-3.608972 1.070312 0.983858
-3.603719 1.086777 0.984823
-3.591818 1.098444 0.981597
-3.596476 1.122340 0.988911
-3.591384 1.139175 0.990071
-3.550205 1.128795 0.968183
-3.566824 1.162105 0.983266
-3.571710 1.186793 0.990913
-3.570781 1.207196 0.994881
-3.558207 1.218572 0.991370
-3.541373 1.226523 0.985104
-3.541444 1.248011 0.989827
-3.542663 1.270629 0.995357
-3.528404 1.280719 0.990825
-3.539685 1.312023 1.003055
-3.536666 1.331705 1.005980
-3.503109 1.325586 0.988802
-3.494389 1.340420 0.987995
-3.500076 1.367827 0.996786
-3.497012 1.387886 0.999837
-3.488842 1.403592 0.999530
-3.487864 1.425827 1.004079
-3.473711 1.436355 0.999835
-3.446858 1.435238 0.987033
-3.439405 1.451790 0.987315
-3.468967 1.503039 1.012767
-3.455566 1.514554 1.009156
-3.434309 1.518568 1.000189
-3.407240 1.516812 0.987211
-3.403037 1.537055 0.989915
-3.427917 1.586124 1.012756
-3.419139 1.602477 1.012465
-3.394606 1.603069 1.001247
-3.381554 1.615081 0.997992
-3.374873 1.633627 0.999204
-3.369812 1.653976 1.001589
-3.359183 1.668635 1.000085
-3.365853 1.701659 1.010836
-3.356856 1.718299 1.010549
-3.335620 1.721730 1.001540
-3.318790 1.729737 0.995625
-3.309873 1.746332 0.995352
-3.297639 1.759228 0.992679
-3.310058 1.799872 1.007822
-3.295167 1.809837 1.003215
-3.282376 1.822035 1.000078
-3.265735 1.829592 0.994065
-3.251552 1.839769 0.989770
-3.246809 1.860929 0.992357
-3.245607 1.886301 0.997524
-3.246166 1.913831 1.003968
-3.237704 1.930351 1.003654
-3.219663 1.934816 0.996081
-3.192403 1.927299 0.981434
-3.193282 1.954549 0.987788
-3.175677 2.009539 0.990988
-3.997641 -1.471605 0.704731
-3.996950 -1.458245 0.706834
-3.987051 -1.442609 0.704719
-3.987365 -1.429056 0.707244
-4.003837 -1.418721 0.717157
-4.006083 -1.405063 0.720554
-3.992946 -1.388059 0.716869
-3.984554 -1.371941 0.715334
-3.989659 -1.358345 0.719998
-3.997118 -1.344984 0.725744
-4.004156 -1.331327 0.731294
-4.004726 -1.316313 0.733846
-3.996840 -1.299711 0.732460
-3.988679 -1.283040 0.730926
-3.991178 -1.268098 0.734336
-3.993185 -1.252975 0.737512
-3.986874 -1.236495 0.736797
-3.982343 -1.220286 0.736900
-3.986544 -1.205321 0.741086
-3.984717 -1.189451 0.742443
-3.981342 -1.173370 0.743068
-3.978071 -1.157319 0.743735
-3.974990 -1.141313 0.744486
-3.977762 -1.126011 0.748000
-3.981920 -1.110834 0.752174
-3.984763 -1.095479 0.755734
-3.972725 -1.078618 0.752236
-3.962975 -1.062113 0.749811
-3.959426 -1.046280 0.750330
-3.968261 -1.031543 0.756757
-3.965987 -1.015858 0.757896
-3.964728 -1.000293 0.759522
-3.965456 -0.984899 0.762107
-3.965547 -0.969481 0.764394
-3.965424 -0.954074 0.766587
-3.971450 -0.939013 0.771749
-3.962854 -0.923223 0.769876
-3.949284 -0.907335 0.765595
-3.937494 -0.891676 0.762165
-3.954611 -0.877077 0.772738
-3.957661 -0.861948 0.776518
-3.954387 -0.846673 0.777239
-3.950465 -0.831438 0.777649
-3.954410 -0.816347 0.781902
-3.950224 -0.801184 0.782199
-3.932092 -0.786069 0.775674
-3.925718 -0.771100 0.774896
-3.924755 -0.756155 0.776778
-3.922885 -0.741243 0.778223
-3.927616 -0.726225 0.782929
-3.925959 -0.711326 0.784503
-3.954298 -0.695541 0.800915
-3.914939 -0.681860 0.783862
-3.913511 -0.667050 0.785571
-3.922178 -0.651792 0.792307
-3.928165 -0.636579 0.797736
-3.927897 -0.621650 0.800069
-3.922030 -0.607060 0.799618
-3.922581 -0.592098 0.802380
-3.922082 -0.577196 0.804631
-3.905742 -0.563500 0.798941
-3.903810 -0.548785 0.800481
-3.916178 -0.532834 0.809235
-3.913850 -0.518092 0.810607
-3.904777 -0.504012 0.808579
-3.907787 -0.488772 0.812666
-3.901947 -0.474433 0.812283
-3.903144 -0.459340 0.815479
-3.898843 -0.444860 0.815891
-3.897361 -0.430054 0.817746
-3.902344 -0.414409 0.822916
-3.901334 -0.399486 0.825040
-3.897206 -0.384978 0.825576
-3.893230 -0.370463 0.826198
-3.889213 -0.355965 0.826803
-3.891118 -0.340563 0.830469
-3.886736 -0.326112 0.830903
-3.876103 -0.312707 0.828109
-3.860221 -0.300274 0.822586
-3.870943 -0.283299 0.830864
-3.875529 -0.267283 0.835984
-3.875625 -0.252017 0.838785
-3.867034 -0.238377 0.837063
-3.859356 -0.224609 0.835816
-3.869688 -0.207235 0.844007
-3.869521 -0.191890 0.846720
-3.871134 -0.176125 0.850382
-3.867103 -0.161532 0.851086
-3.864092 -0.146710 0.852334
-3.860166 -0.132085 0.853105
-3.848397 -0.119300 0.849725
-3.842376 -0.105214 0.849387
-3.850582 -0.087644 0.856623
-3.849418 -0.072293 0.858893
-3.842852 -0.058294 0.858288
-3.847050 -0.041489 0.863445
-3.849388 -0.025084 0.867628
-3.853695 -0.008062 0.872888
-3.829234 0.001017 0.862681
-3.834495 0.018354 0.868471
-3.831143 0.033298 0.869631
-3.821551 0.046408 0.867419
-3.808914 0.058545 0.863548
-3.831835 0.081545 0.878997
-3.822695 0.094807 0.877044
-3.823775 0.111286 0.880664
-3.809752 0.122923 0.876040
-3.814072 0.140530 0.881454
-3.810154 0.155472 0.882368
-3.810781 0.171985 0.885788
-3.807260 0.187122 0.886939
-3.810288 0.204600 0.891715
-3.804815 0.219113 0.891806
-3.801597 0.234450 0.893152
-3.798012 0.249676 0.894301
-3.796237 0.265608 0.896466
-3.791223 0.280340 0.896836
-3.792659 0.297594 0.900818
-3.793144 0.314556 0.904286
-3.792352 0.331077 0.907054
-3.790431 0.347196 0.909202
-3.783628 0.361335 0.908609
-3.776568 0.375353 0.907871
-3.771150 0.390055 0.908064
-3.770759 0.406939 0.911115
-3.767563 0.422657 0.912588
-3.764954 0.438671 0.914405
-3.764984 0.455918 0.917742
-3.762662 0.472162 0.919750
-3.758253 0.487484 0.920576
-3.750265 0.501140 0.919353
-3.745850 0.516479 0.920188
-3.746374 0.534228 0.923883
-3.745736 0.551495 0.926927
-3.742030 0.567310 0.928212
-3.736755 0.582370 0.928597
-3.731087 0.597244 0.928761
-3.726939 0.612914 0.929820
-3.727572 0.631115 0.933687
-3.725886 0.648183 0.936219
-3.724843 0.665663 0.939148
-3.720464 0.681408 0.940134
-3.715522 0.696876 0.940800
-3.712664 0.713531 0.942711
-3.710894 0.730854 0.945285
-3.712289 0.750055 0.949760
-3.708524 0.766396 0.951194
-3.711564 0.786760 0.956706
-3.699664 0.798441 0.953317
-3.695009 0.814391 0.954267
-3.693189 0.832098 0.956939
-3.701936 0.856354 0.966002
-3.686044 0.865591 0.960240
-3.679323 0.880458 0.960016
-3.679486 0.899704 0.963982
-3.678029 0.918033 0.966997
-3.681265 0.939502 0.972904
-3.669708 0.951447 0.969812
-3.657860 0.963155 0.966542
-3.650410 0.977763 0.965976
-3.656685 1.001691 0.973876
-3.644358 1.013101 0.970349
-3.638558 1.028985 0.970864
-3.631311 1.043906 0.970502
-3.627970 1.061625 0.972589
-3.629003 1.082570 0.977436
-3.624835 1.099918 0.979077
-3.618484 1.115758 0.979380
-3.612650 1.132036 0.980033
-3.610384 1.151050 0.982962
-3.600156 1.164177 0.980900
-3.594730 1.180974 0.981894
-3.589029 1.197645 0.982746
-3.589344 1.219090 0.987463
-3.582848 1.235353 0.987881
-3.574291 1.250051 0.987010
-3.567787 1.266448 0.987482
-3.566658 1.287303 0.991452
-3.568707 1.310952 0.997529
-3.563449 1.328767 0.998936
-3.550471 1.340215 0.995364
-3.519263 1.336174 0.979915
-3.509321 1.350034 0.978317
-3.517088 1.379287 0.988363
-3.516433 1.401531 0.992963
-3.507410 1.416587 0.992102
-3.503527 1.436310 0.994674
-3.492884 1.450090 0.992808
-3.483655 1.465207 0.991910
-3.496243 1.500535 1.005629
-3.482820 1.512098 1.002026
-3.476899 1.530731 1.003485
-3.469287 1.547897 1.003849
-3.464218 1.567624 1.005973
-3.460545 1.588876 1.009097
-3.452421 1.605947 1.009240
-3.435725 1.614609 1.003551
-3.418603 1.622765 0.997560
-3.396842 1.626125 0.988361
-3.392867 1.647527 0.991428
-3.388767 1.668983 0.994456
-3.374870 1.680354 0.990702
-3.396142 1.728900 1.011535
-3.377533 1.735527 1.004545
-3.357135 1.740053 0.996256
-3.341198 1.749231 0.991068
-3.332435 1.766189 0.990933
-3.339015 1.800273 1.001724
-3.295526 1.778299 0.976788
-3.314504 1.826615 0.996477
-3.307055 1.845149 0.997255
-3.292441 1.855329 0.992826
-3.275346 1.862381 0.986524
-3.269986 1.883050 0.988676
-3.276914 1.918398 0.999770
-3.274297 1.942418 1.003877
-3.265189 1.985551 1.009081
-3.241642 1.983255 0.997490
-3.194066 1.950097 0.967833
-3.218788 2.033812 0.997394
-3.192396 2.025758 0.983006
-3.229412 2.099732 1.016216
-4.003667 -1.469874 0.691429
-4.011687 -1.458421 0.697432
-3.998820 -1.442043 0.694013
-3.991545 -1.426767 0.693089
-4.006263 -1.415998 0.702095
-4.011528 -1.402928 0.706826
-3.993655 -1.384935 0.701042
-3.988190 -1.369382 0.700863
-3.995404 -1.356153 0.706443
-4.001832 -1.342551 0.711663
-3.997533 -1.326787 0.711976
-4.001180 -1.312346 0.715912
-4.001225 -1.297135 0.718192
-3.987486 -1.279519 0.714127
-3.990230 -1.264625 0.717623
-3.986231 -1.248570 0.718006
-3.979005 -1.232005 0.716887
-3.985871 -1.217522 0.722271
-3.990003 -1.202539 0.726394
-3.988346 -1.186694 0.727834
-3.981185 -1.170124 0.726712
-3.978033 -1.154114 0.727443
-3.977508 -1.138442 0.729396
-3.979012 -1.123005 0.732295
-3.981082 -1.107615 0.735464
-3.982671 -1.092159 0.738412
-3.974066 -1.075691 0.736582
-3.963943 -1.059185 0.734029
-3.967872 -1.044042 0.738082
-3.969927 -1.028722 0.741261
-3.970623 -1.013295 0.743808
-3.962195 -0.997221 0.742046
-3.966194 -0.982094 0.746166
-3.965114 -0.966635 0.747888
-3.954038 -0.950642 0.744866
-3.944134 -0.934850 0.742393
-3.932791 -0.919117 0.739226
-3.928897 -0.903832 0.739609
-3.944210 -0.889301 0.749184
-3.961565 -0.874696 0.759770
-3.968739 -0.859670 0.765507
-3.949162 -0.844042 0.758404
-3.923322 -0.828538 0.748266
-3.942521 -0.813774 0.759819
-3.946304 -0.798751 0.763967
-3.932987 -0.783706 0.759856
-3.926908 -0.768771 0.759244
-3.925860 -0.753856 0.761075
-3.932378 -0.738844 0.766595
-3.931885 -0.723918 0.768723
-3.932557 -0.708971 0.771429
-3.909327 -0.694762 0.762466
-3.912156 -0.679853 0.766234
-3.922330 -0.664613 0.773621
-3.929051 -0.649429 0.779341
-3.926033 -0.634673 0.780292
-3.916428 -0.620317 0.778003
-3.917694 -0.605383 0.781078
-3.910538 -0.590991 0.780002
-3.902925 -0.576696 0.778699
-3.914656 -0.560977 0.786997
-3.917768 -0.545834 0.791043
-3.919831 -0.530737 0.794584
-3.913919 -0.516341 0.794163
-3.909626 -0.501832 0.794552
-3.905832 -0.487297 0.795197
-3.911002 -0.471812 0.800345
-3.899740 -0.458114 0.797257
-3.894254 -0.443826 0.797070
-3.893110 -0.429035 0.799075
-3.900608 -0.413116 0.805457
-3.913376 -0.396386 0.814533
-3.908920 -0.381894 0.814913
-3.895412 -0.368728 0.810699
-3.883760 -0.355395 0.807418
-3.887372 -0.339786 0.811911
-3.884245 -0.325187 0.812981
-3.867102 -0.312908 0.806887
-3.867679 -0.297748 0.809857
-3.868054 -0.282581 0.812738
-3.870872 -0.266929 0.816889
-3.876626 -0.250661 0.822572
-3.878069 -0.235121 0.826054
-3.860998 -0.223182 0.819973
-3.856199 -0.208896 0.820233
-3.871481 -0.190436 0.830925
-3.855139 -0.178526 0.825207
-3.855975 -0.162985 0.828424
-3.853012 -0.148244 0.829672
-3.863100 -0.130487 0.837757
-3.858817 -0.115957 0.838341
-3.851148 -0.102243 0.837151
-3.849030 -0.087197 0.838882
-3.849363 -0.071508 0.841912
-3.846439 -0.056603 0.843238
-3.844948 -0.041303 0.845329
-3.853420 -0.023293 0.852713
-3.837348 -0.011866 0.847089
-3.830180 0.001925 0.846185
-3.829531 0.017550 0.848757
-3.830669 0.033742 0.852296
-3.819101 0.046231 0.849047
-3.812789 0.060234 0.848608
-3.811033 0.075625 0.850620
-3.836504 0.099599 0.867307
-3.813757 0.108510 0.858038
-3.813188 0.124435 0.860729
-3.809968 0.139533 0.861996
-3.815233 0.157514 0.867878
-3.813607 0.173253 0.870036
-3.816209 0.190509 0.874510
-3.817419 0.207363 0.878245
-3.809532 0.221014 0.877018
-3.797909 0.233267 0.873739
-3.798959 0.250164 0.877415
-3.797207 0.266077 0.879564
-3.789941 0.279916 0.878683
-3.793954 0.298135 0.884038
-3.793614 0.314743 0.887006
-3.794260 0.331811 0.890536
-3.791796 0.347685 0.892354
-3.787966 0.363031 0.893421
-3.779432 0.376420 0.891867
-3.775753 0.391848 0.893029
-3.772322 0.407408 0.894339
-3.770910 0.423884 0.896792
-3.768105 0.439795 0.898475
-3.764815 0.455525 0.899896
-3.760991 0.471043 0.901025
-3.758446 0.487183 0.902888
-3.749867 0.500525 0.901335
-3.748909 0.517473 0.904121
-3.749951 0.535454 0.908064
-3.747973 0.552048 0.910303
-3.742890 0.567155 0.910778
-3.737600 0.582174 0.911141
-3.733856 0.597995 0.912403
-3.729599 0.613586 0.913380
-3.727682 0.630430 0.915722
-3.729107 0.649104 0.920017
-3.732639 0.669015 0.925563
-3.730514 0.685993 0.927849
-3.724886 0.701110 0.928109
-3.720248 0.716794 0.928958
-3.719087 0.734468 0.931857
-3.709337 0.747328 0.929733
-3.715975 0.769602 0.937257
-3.715076 0.787671 0.940380
-3.708900 0.802713 0.940405
-3.702361 0.817556 0.940227
-3.709296 0.840557 0.948065
-3.703757 0.856138 0.948523
-3.696240 0.870526 0.947814
-3.687174 0.883950 0.946188
-3.689779 0.904746 0.951568
-3.693300 0.926284 0.957540
-3.689964 0.943554 0.959421
-3.689054 0.962486 0.962794
-3.677722 0.974630 0.959885
-3.672419 0.990770 0.960639
-3.669442 1.008539 0.962831
-3.667477 1.027088 0.965667
-3.651895 1.036321 0.960206
-3.652470 1.056762 0.964647
-3.652002 1.076618 0.968487
-3.647681 1.093857 0.969993
-3.643374 1.111190 0.971536
-3.633104 1.124253 0.969414
-3.623832 1.138048 0.967924
-3.626761 1.160965 0.974049
-3.629804 1.184180 0.980302
-3.620150 1.197929 0.978661
-3.622134 1.220667 0.984347
-3.609060 1.231883 0.980607
-3.598651 1.245163 0.978555
-3.591522 1.261064 0.978597
-3.587706 1.279701 0.980773
-3.586688 1.300741 0.984772
-3.586825 1.322913 0.989562
-3.576015 1.336205 0.987398
-3.559415 1.344661 0.981534
-3.574114 1.379568 0.995835
-3.580239 1.407612 1.004714
-3.548302 1.403046 0.989005
-3.535076 1.414494 0.985402
-3.531884 1.434803 0.988357
-3.513430 1.441657 0.981379
-3.505787 1.458166 0.981489
-3.523669 1.498055 0.998441
-3.506999 1.506694 0.992716
-3.498525 1.522899 0.992420
-3.490718 1.539826 0.992603
-3.486073 1.559870 0.994933
-3.483153 1.581745 0.998467
-3.484286 1.607767 1.004783
-3.465038 1.614084 0.997444
-3.462897 1.637244 1.001654
-3.448358 1.648209 0.997514
-3.424981 1.650192 0.987358
-3.408785 1.659301 0.982065
-3.410633 1.686993 0.989133
-3.415313 1.717955 0.998225
-3.402372 1.730674 0.995234
-3.392136 1.746254 0.994113
-3.380907 1.760787 0.992306
-3.370911 1.776655 0.991355
-3.366823 1.799039 0.994543
-3.349925 1.807294 0.988741
-3.340374 1.823631 0.988076
-3.344321 1.855274 0.996956
-3.334567 1.871459 0.996136
-3.323394 1.885926 0.994268
-3.308376 1.895759 0.989596
-3.302404 1.916056 0.991349
-3.300534 1.941204 0.996023
-3.286030 1.951111 0.991515
-3.274711 1.964592 0.989220
-3.272336 1.988825 0.993353
-3.255352 1.994809 0.986730
-3.251392 2.016692 0.989532
-4.027373 -1.472181 0.685969
-4.020506 -1.457243 0.685293
-4.010038 -1.441339 0.682991
-3.992697 -1.423827 0.677592
-3.993531 -1.410089 0.680285
-4.007728 -1.398891 0.688955
-4.004193 -1.383801 0.689677
-3.998753 -1.368192 0.689527
-4.006459 -1.354985 0.695278
-4.006047 -1.340037 0.697368
-3.997273 -1.323438 0.695670
-3.999225 -1.308693 0.698803
-4.004123 -1.294321 0.703267
-3.999136 -1.278161 0.703241
-3.988460 -1.261052 0.700613
-3.981775 -1.244601 0.699782
-3.975812 -1.228268 0.699265
-3.981693 -1.213666 0.704149
-3.990434 -1.199361 0.710348
-3.989841 -1.183677 0.712277
-3.985277 -1.167463 0.712379
-3.982529 -1.151508 0.713309
-3.977461 -1.135298 0.713166
-3.977235 -1.119688 0.715252
-3.975809 -1.103955 0.716784
-3.974949 -1.088302 0.718579
-3.973753 -1.072637 0.720219
-3.969758 -1.056741 0.720561
-3.968145 -1.041112 0.722010
-3.964042 -1.025315 0.722301
-3.948642 -1.008716 0.717318
-3.960821 -0.994273 0.725212
-3.970378 -0.979552 0.731903
-3.955372 -0.963256 0.727094
-3.956745 -0.948055 0.729965
-3.954890 -0.932700 0.731326
-3.927505 -0.916228 0.720660
-3.944219 -0.901838 0.730779
-3.954702 -0.887080 0.737986
-3.967267 -0.872297 0.746205
-3.966682 -0.857079 0.748213
-3.951336 -0.841596 0.743216
-3.934914 -0.826274 0.737692
-3.943121 -0.811368 0.743895
-3.942551 -0.796355 0.745930
-3.935465 -0.781368 0.744857
-3.931781 -0.766446 0.745413
-3.941604 -0.751420 0.752457
-3.935478 -0.736563 0.751859
-3.936885 -0.721614 0.754891
-3.937276 -0.706683 0.757446
-3.930104 -0.691992 0.756358
-3.931414 -0.677064 0.759376
-3.935770 -0.661996 0.763883
-3.932279 -0.647251 0.764599
-3.932643 -0.632338 0.767196
-3.921999 -0.618046 0.764441
-3.917489 -0.603475 0.764674
-3.916881 -0.588680 0.766820
-3.922104 -0.573457 0.771833
-3.917645 -0.558923 0.772116
-3.925199 -0.543427 0.778308
-3.921813 -0.528802 0.779140
-3.910196 -0.514963 0.775916
-3.902851 -0.500806 0.774796
-3.908572 -0.485355 0.780144
-3.907809 -0.470529 0.782299
-3.903261 -0.456121 0.782584
-3.895340 -0.442139 0.781195
-3.891525 -0.427705 0.781851
-3.888309 -0.413207 0.782813
-3.906627 -0.395818 0.794556
-3.907784 -0.380610 0.797742
-3.893401 -0.367613 0.793140
-3.889351 -0.353184 0.793722
-3.895362 -0.337202 0.799380
-3.890822 -0.322819 0.799735
-3.867165 -0.311625 0.790424
-3.880402 -0.294325 0.799778
-3.876170 -0.279933 0.800302
-3.867602 -0.266339 0.798624
-3.865303 -0.251623 0.800137
-3.874621 -0.234656 0.807590
-3.871364 -0.220038 0.808642
-3.854811 -0.208117 0.802887
-3.850787 -0.193717 0.803545
-3.857351 -0.177051 0.809655
-3.848469 -0.163660 0.807830
-3.856176 -0.146590 0.814566
-3.869905 -0.128004 0.824446
-3.866555 -0.113248 0.825513
-3.856248 -0.100160 0.822975
-3.852513 -0.085515 0.823848
-3.850022 -0.070548 0.825376
-3.848059 -0.055423 0.827188
-3.847439 -0.039916 0.829711
-3.849648 -0.023603 0.833730
-3.845094 -0.009070 0.834214
-3.836830 0.004426 0.832750
-3.830875 0.018542 0.832499
-3.824019 0.032383 0.831774
-3.821803 0.047579 0.833504
-3.817461 0.062162 0.834116
-3.822647 0.079689 0.839796
-3.827573 0.097250 0.845363
-3.822074 0.111592 0.845391
-3.804776 0.122086 0.839112
-3.812307 0.140668 0.846112
-3.812204 0.156821 0.849045
-3.812672 0.173229 0.852298
-3.816224 0.190779 0.857229
-3.818178 0.207866 0.861319
-3.809950 0.221366 0.859918
-3.798356 0.233598 0.856689
-3.797585 0.249787 0.859329
-3.802269 0.268094 0.864952
-3.799342 0.283598 0.866450
-3.795019 0.298586 0.867192
-3.794049 0.314918 0.869777
-3.795408 0.332242 0.873654
-3.791003 0.347295 0.874379
-3.789206 0.363445 0.876547
-3.780364 0.376678 0.874837
-3.779910 0.393452 0.877765
-3.775104 0.408407 0.878295
-3.774441 0.425194 0.881134
-3.767988 0.439466 0.880763
-3.769017 0.457110 0.884571
-3.764221 0.472173 0.885141
-3.760994 0.487980 0.886597
-3.755614 0.502808 0.886855
-3.754287 0.519579 0.889400
-3.753595 0.536717 0.892318
-3.752360 0.553660 0.894947
-3.744110 0.567185 0.893618
-3.740930 0.583234 0.895169
-3.739909 0.600425 0.897960
-3.736423 0.616414 0.899364
-3.735062 0.633552 0.901995
-3.736249 0.652107 0.906104
-3.736249 0.670129 0.909557
-3.733063 0.686514 0.911199
-3.729056 0.702496 0.912383
-3.725690 0.718873 0.913951
-3.719742 0.733846 0.914039
-3.716307 0.750266 0.915596
-3.713008 0.766813 0.917247
-3.718048 0.788277 0.923779
-3.724600 0.810806 0.931237
-3.711194 0.821613 0.927043
-3.707671 0.838309 0.928647
-3.705710 0.856016 0.931189
-3.698909 0.870814 0.930898
-3.697989 0.889306 0.934098
-3.699529 0.909452 0.938784
-3.700059 0.929093 0.942906
-3.699083 0.947887 0.946165
-3.696912 0.966006 0.948739
-3.692705 0.982873 0.950124
-3.684442 0.997093 0.949097
-3.679926 1.013855 0.950336
-3.668529 1.025977 0.947447
-3.676949 1.051764 0.956544
-3.677148 1.072073 0.960723
-3.666132 1.084604 0.958125
-3.661824 1.101904 0.959622
-3.658186 1.119771 0.961555
-3.633507 1.122377 0.950635
-3.656114 1.159638 0.968713
-3.650281 1.176210 0.969401
-3.647689 1.195295 0.972115
-3.655525 1.222454 0.981324
-3.649402 1.239167 0.981944
-3.631208 1.246564 0.975080
-3.615229 1.255586 0.969588
-3.605613 1.269586 0.968075
-3.606129 1.291750 0.972939
-3.605430 1.313132 0.977095
-3.603012 1.333292 0.980219
-3.601970 1.354755 0.984262
-3.574952 1.354653 0.971871
-3.593581 1.392925 0.988499
-3.593221 1.415506 0.993135
-3.584925 1.431446 0.992747
-3.573886 1.445071 0.990629
-3.560105 1.456310 0.986766
-3.540704 1.462521 0.979282
-3.548621 1.493230 0.989498
-3.538207 1.507644 0.987891
-3.525781 1.520261 0.984996
-3.514706 1.534151 0.983004
-3.507562 1.551781 0.983616
-3.501403 1.570468 0.984917
-3.498556 1.592476 0.988451
-3.503099 1.621864 0.996945
-3.501666 1.645764 1.001554
-3.483126 1.652974 0.994804
-3.464741 1.660233 0.988144
-3.454608 1.675726 0.987018
-3.445193 1.692014 0.986397
-3.442080 1.714879 0.990066
-3.433782 1.732540 0.990262
-3.416814 1.741149 0.984567
-3.407329 1.757618 0.983972
-3.405495 1.782368 0.988642
-3.393037 1.795769 0.986032
-3.382853 1.811626 0.984982
-3.384991 1.841164 0.992482
-3.377043 1.859647 0.993001
-3.369479 1.878581 0.993780
-3.360560 1.895967 0.993595
-3.350076 1.911496 0.992278
-3.339942 1.927328 0.991166
-3.338584 1.953408 0.996235
-3.318533 1.957244 0.987970
-3.298892 1.961160 0.979877
-3.282870 1.969053 0.974255
-3.275915 1.987722 0.975049
-3.275205 2.013963 0.980279
-3.257727 2.072593 0.984377
-3.254189 2.094581 0.987211
-3.268221 2.139188 1.002858
-4.046389 -1.473374 0.678249
-4.028498 -1.455868 0.672749
-4.015405 -1.439340 0.669326
-4.007798 -1.423883 0.668293
-3.999480 -1.408135 0.666924
-3.997620 -1.393587 0.668392
-3.998563 -1.379428 0.671090
-4.006489 -1.366446 0.676882
-4.009391 -1.352268 0.680441
-4.005413 -1.336638 0.680929
-3.992923 -1.319379 0.677603
-3.996643 -1.304961 0.681499
-3.999505 -1.290252 0.685009
-3.995786 -1.274334 0.685563
-3.989146 -1.257905 0.684793
-3.981105 -1.241259 0.683378
-3.977110 -1.225242 0.683770
-3.984922 -1.210918 0.689487
-3.988323 -1.195864 0.693215
-3.977319 -1.178821 0.690420
-3.982044 -1.163890 0.694746
-3.981774 -1.148283 0.696808
-3.972632 -1.131627 0.694830
-3.976045 -1.116479 0.698566
-3.979516 -1.101305 0.702335
-3.970440 -1.084825 0.700371
-3.972911 -1.069569 0.703688
-3.971254 -1.053926 0.705117
-3.960386 -1.037524 0.702312
-3.954387 -1.021651 0.701739
-3.949483 -1.005946 0.701668
-3.948778 -0.990611 0.703534
-3.955728 -0.975807 0.708949
-3.970273 -0.961412 0.717902
-3.959446 -0.945496 0.715102
-3.968794 -0.930721 0.721677
-3.963376 -0.915215 0.721394
-3.959664 -0.899855 0.721908
-3.962091 -0.884767 0.725293
-3.956414 -0.869439 0.724897
-3.960272 -0.854419 0.728972
-3.955415 -0.839214 0.728969
-3.947563 -0.824036 0.727558
-3.939722 -0.808956 0.726150
-3.940736 -0.794001 0.728919
-3.938531 -0.779055 0.730178
-3.947986 -0.764063 0.736965
-3.938181 -0.749216 0.734641
-3.934184 -0.734378 0.735071
-3.934801 -0.719486 0.737702
-3.940351 -0.704458 0.742697
-3.943817 -0.689445 0.746715
-3.940116 -0.674667 0.747321
-3.930968 -0.660160 0.745323
-3.944067 -0.644683 0.754000
-3.925014 -0.630768 0.747248
-3.922915 -0.616060 0.748643
-3.925245 -0.601088 0.752183
-3.923476 -0.586364 0.753758
-3.907489 -0.572690 0.748456
-3.907991 -0.557877 0.751137
-3.933613 -0.540948 0.766037
-3.928299 -0.526484 0.765934
-3.903729 -0.513865 0.756443
-3.900863 -0.499334 0.757524
-3.906261 -0.483954 0.762656
-3.909968 -0.468683 0.766981
-3.905327 -0.454307 0.767224
-3.906629 -0.439247 0.770396
-3.891781 -0.426162 0.765621
-3.892525 -0.411180 0.768532
-3.892495 -0.396269 0.771072
-3.902578 -0.379911 0.778637
-3.893808 -0.366162 0.776872
-3.888237 -0.351992 0.776694
-3.885968 -0.337334 0.778165
-3.873773 -0.324267 0.774689
-3.895292 -0.305681 0.788062
-3.884843 -0.292324 0.785472
-3.884742 -0.277210 0.788068
-3.872594 -0.264256 0.784619
-3.867407 -0.250086 0.784667
-3.866483 -0.235109 0.786869
-3.863787 -0.220454 0.788186
-3.866772 -0.204630 0.792388
-3.856362 -0.191531 0.789810
-3.868830 -0.173596 0.798858
-3.849011 -0.162580 0.791493
-3.852830 -0.146409 0.796168
-3.854205 -0.130716 0.799614
-3.855848 -0.114897 0.803212
-3.854504 -0.099735 0.805294
-3.853733 -0.084398 0.807679
-3.853988 -0.068761 0.810605
-3.849952 -0.054179 0.811329
-3.854614 -0.037298 0.816557
-3.852331 -0.022184 0.818208
-3.847985 -0.007610 0.818795
-3.845281 0.007429 0.820242
-3.833676 0.019947 0.817055
-3.827525 0.033977 0.816707
-3.817111 0.046726 0.814129
-3.825854 0.065214 0.821588
-3.832599 0.083241 0.828029
-3.831641 0.098980 0.830442
-3.819998 0.111348 0.827230
-3.810161 0.124228 0.824962
-3.812499 0.141088 0.829135
