ply
format ascii 1.0
comment ---
element vertex 1600
property float x
property float y
property float z
element face 0
property list uchar uint vertex_indices
end_header
-4.148345 -2.340777 -1.207487
-4.141909 -2.321772 -1.202616
-4.139868 -2.304336 -1.199658
-4.142647 -2.288537 -1.198788
-4.143183 -2.272048 -1.196966
-4.132435 -2.252089 -1.190320
-4.125854 -2.233586 -1.185491
-4.129401 -2.218266 -1.185022
-4.135409 -2.203694 -1.185621
-4.140326 -2.188800 -1.185769
-4.140945 -2.172690 -1.184105
-4.137804 -2.155585 -1.180867
-4.128214 -2.136810 -1.174922
-4.125378 -2.120010 -1.171877
-4.120664 -2.102808 -1.168068
-4.112953 -2.084943 -1.163024
-4.104111 -2.066933 -1.157540
-4.097968 -2.049739 -1.153230
-4.109982 -2.037049 -1.156595
-4.114690 -2.022560 -1.156903
-4.107884 -2.005416 -1.152400
-4.096648 -1.987397 -1.146077
-4.086540 -1.969793 -1.140263
-4.081459 -1.953425 -1.136589
-4.079767 -1.937868 -1.134362
-4.086344 -1.924065 -1.135610
-4.095177 -1.910687 -1.137815
-4.093808 -1.895279 -1.135795
-4.099784 -1.881314 -1.136852
-4.092060 -1.864809 -1.132242
-4.081705 -1.847951 -1.126574
-4.074097 -1.831713 -1.122076
-4.077644 -1.817467 -1.122222
-4.085082 -1.803855 -1.123995
-4.080897 -1.788360 -1.120988
-4.053547 -1.769390 -1.108456
-4.072637 -1.757606 -1.115095
-4.078658 -1.743788 -1.116362
-4.080686 -1.729384 -1.116004
-4.085277 -1.715328 -1.116717
-4.081323 -1.700157 -1.113940
-4.066365 -1.683699 -1.106677
-4.072026 -1.669842 -1.107887
-4.073551 -1.655484 -1.107419
-4.055010 -1.638968 -1.098768
-4.046493 -1.623687 -1.094240
-4.045710 -1.609266 -1.092892
-4.062744 -1.596524 -1.098824
-4.066621 -1.582472 -1.099403
-4.047094 -1.566458 -1.090471
-4.043413 -1.551887 -1.088011
-4.045253 -1.537768 -1.087812
-4.046452 -1.523601 -1.087368
-4.039023 -1.508889 -1.083437
-4.041155 -1.494817 -1.083402
-4.031675 -1.480117 -1.078676
-4.036502 -1.466209 -1.079760
-4.034244 -1.451956 -1.077990
-4.035978 -1.437885 -1.077849
-4.032975 -1.423647 -1.075806
-4.029959 -1.409444 -1.073774
-4.026700 -1.395270 -1.071657
-4.032447 -1.381301 -1.073185
-4.024696 -1.367095 -1.069286
-4.019929 -1.352995 -1.066605
-4.020893 -1.338967 -1.066242
-4.017355 -1.324936 -1.064083
-4.017988 -1.310916 -1.063611
-4.013993 -1.296942 -1.061294
-4.016212 -1.282909 -1.061482
-4.014971 -1.268926 -1.060294
-4.001548 -1.255269 -1.054236
-4.000593 -1.241359 -1.053189
-4.003810 -1.227308 -1.053823
-4.001600 -1.213442 -1.052295
-3.993558 -1.199861 -1.048449
-3.993259 -1.185965 -1.047710
-3.996634 -1.171864 -1.048449
-3.987141 -1.158501 -1.044062
-3.970747 -1.145677 -1.036936
-3.976829 -1.131430 -1.038790
-3.980443 -1.117302 -1.039668
-3.977996 -1.103617 -1.038142
-3.986089 -1.089051 -1.040823
-3.985753 -1.075155 -1.040158
-3.978680 -1.061895 -1.036825
-3.972445 -1.048610 -1.033839
-3.956794 -1.036365 -1.027123
-3.958500 -1.022357 -1.027319
-3.964550 -1.007823 -1.029250
-3.974133 -0.992792 -1.032593
-3.965381 -0.979941 -1.028670
-3.958998 -0.966857 -1.025701
-3.950441 -0.954115 -1.021884
-3.951929 -0.940039 -1.022061
-3.955618 -0.925615 -1.023123
-3.953354 -0.912028 -1.021838
-3.947225 -0.899046 -1.019036
-3.949766 -0.884722 -1.019679
-3.947034 -0.871222 -1.018249
-3.944593 -0.857681 -1.016946
-3.945199 -0.843611 -1.016863
-3.946763 -0.829341 -1.017171
-3.945375 -0.815580 -1.016326
-3.948128 -0.801022 -1.017132
-3.942369 -0.788073 -1.014588
-3.935628 -0.775355 -1.011673
-3.933180 -0.761797 -1.010469
-3.933349 -0.747687 -1.010312
-3.923861 -0.735628 -1.006360
-3.923001 -0.721734 -1.005829
-3.922698 -0.707693 -1.005533
-3.923601 -0.693345 -1.005729
-3.915155 -0.681162 -1.002254
-3.910222 -0.668185 -1.000182
-3.914574 -0.652937 -1.001788
-3.920194 -0.637289 -1.003910
-3.918926 -0.623313 -1.003335
-3.912907 -0.610558 -1.000904
-3.908811 -0.597311 -0.999250
-3.898339 -0.585804 -0.995101
-3.902487 -0.570303 -0.996733
-3.907035 -0.554601 -0.998542
-3.899925 -0.542168 -0.995774
-3.901301 -0.527271 -0.996372
-3.907339 -0.510918 -0.998826
-3.906197 -0.496635 -0.998471
-3.899387 -0.484070 -0.995900
-3.895739 -0.470529 -0.994596
-3.891235 -0.457247 -0.992976
-3.891651 -0.442355 -0.993315
-3.890678 -0.427863 -0.993128
-3.895919 -0.411228 -0.995414
-3.891182 -0.397894 -0.993783
-3.883139 -0.385701 -0.990868
-3.880607 -0.371587 -0.990148
-3.884068 -0.355286 -0.991816
-3.881110 -0.341222 -0.990970
-3.869208 -0.330437 -0.986607
-3.866890 -0.316117 -0.986052
-3.866243 -0.301118 -0.986177
-3.867472 -0.285331 -0.987064
-3.862187 -0.272023 -0.985392
-3.857239 -0.258571 -0.983870
-3.853792 -0.244499 -0.982959
-3.856299 -0.227956 -0.984423
-3.856415 -0.212309 -0.984956
-3.856632 -0.196549 -0.985544
-3.851515 -0.183001 -0.984027
-3.845853 -0.169683 -0.982305
-3.844049 -0.154671 -0.982122
-3.999233 -0.069676 -1.044355
-4.047948 -0.030839 -1.064312
-4.052302 -0.011651 -1.066640
-4.042404 0.001044 -1.063298
-4.040401 0.017380 -1.063096
-4.040863 0.034914 -1.063871
-4.042105 0.052875 -1.064950
-4.037833 0.068200 -1.063818
-4.034057 0.083749 -1.062868
-4.029521 0.098898 -1.061594
-4.023780 0.113397 -1.059813
-4.026927 0.132386 -1.061556
-4.033015 0.152935 -1.064443
-4.035879 0.171856 -1.066006
-4.031010 0.186689 -1.064433
-4.024253 0.200418 -1.062057
-4.018650 0.214645 -1.060089
-4.022115 0.233723 -1.061696
-4.028493 0.254389 -1.064408
-4.021211 0.267395 -1.061584
-4.007484 0.276571 -1.056109
-4.006821 0.292957 -1.055792
-4.016332 0.315101 -1.059471
-4.011390 0.328787 -1.057281
-4.007082 0.342651 -1.055261
-3.980989 0.343341 -1.044437
-3.972490 0.354152 -1.040569
-3.982397 0.375871 -1.043973
-3.978522 0.404463 -1.041029
-3.969397 0.413964 -1.036551
-4.181633 -2.895500 -1.283691
-4.194011 -2.887646 -1.289441
-4.210737 -2.881686 -1.297047
-4.221418 -2.872293 -1.301799
-4.230576 -2.861821 -1.305743
-4.216997 -2.839761 -1.299271
-4.161673 -2.797116 -1.273786
-4.176503 -2.788976 -1.279951
-4.184419 -2.777173 -1.282869
-4.194840 -2.766302 -1.286801
-4.195897 -2.750743 -1.286386
-4.204214 -2.738392 -1.289139
-4.202636 -2.721247 -1.287316
-4.206409 -2.706409 -1.287803
-4.205730 -2.689401 -1.286184
-4.201560 -2.670731 -1.282901
-4.172092 -2.640923 -1.268169
-4.191515 -2.632479 -1.275322
-4.185735 -2.612979 -1.271081
-4.182015 -2.594337 -1.267696
-4.183172 -2.577700 -1.266430
-4.180820 -2.559559 -1.263535
-4.186144 -2.544504 -1.264012
-4.185922 -2.527149 -1.261964
-4.168048 -2.502851 -1.252030
-4.163996 -2.484088 -1.248216
-4.167292 -2.468168 -1.247633
-4.167046 -2.450887 -1.245454
-4.156354 -2.429763 -1.238640
-4.151120 -2.410767 -1.234233
-4.152470 -2.394212 -1.232722
-4.146283 -2.375020 -1.227890
-4.148485 -2.358841 -1.226745
-4.145380 -2.340871 -1.223274
-4.141010 -2.322557 -1.219258
-4.140530 -2.305622 -1.216954
-4.146503 -2.290834 -1.217476
-4.145627 -2.273853 -1.215021
-4.135922 -2.254178 -1.208745
-4.126641 -2.234799 -1.202683
-4.129228 -2.219159 -1.201796
-4.134690 -2.204400 -1.202170
-4.137653 -2.188915 -1.201479
-4.134702 -2.171773 -1.198256
-4.131532 -2.154662 -1.194967
-4.124971 -2.136717 -1.190249
-4.122604 -2.120029 -1.187366
-4.124292 -2.104491 -1.186251
-4.126449 -2.089115 -1.185361
-4.097756 -2.065989 -1.171306
-4.091528 -2.048775 -1.166904
-4.101699 -2.035643 -1.169528
-4.118596 -2.024046 -1.175032
-4.115551 -2.007716 -1.172063
-4.099432 -1.988520 -1.163574
-4.089666 -1.970944 -1.157824
-4.088328 -1.955331 -1.155681
-4.094832 -1.941426 -1.156884
-4.098451 -1.926908 -1.156887
-4.104253 -1.912832 -1.157833
-4.105761 -1.897904 -1.156990
-4.094668 -1.880620 -1.150866
-4.095563 -1.865695 -1.149819
-4.088333 -1.849347 -1.145383
-4.078081 -1.832585 -1.139710
-4.088122 -1.819385 -1.142576
-4.087085 -1.804305 -1.140818
-4.077720 -1.787951 -1.135601
-4.072865 -1.772415 -1.132298
-4.068706 -1.757061 -1.129312
-4.073901 -1.743117 -1.130253
-4.076745 -1.728824 -1.130230
-4.079851 -1.714563 -1.130335
-4.075245 -1.699310 -1.127252
-4.069828 -1.684028 -1.123856
-4.072224 -1.669744 -1.123726
-4.072790 -1.655252 -1.122854
-4.069050 -1.640310 -1.120217
-4.047361 -1.623581 -1.110175
-4.030942 -1.607603 -1.102345
-4.058722 -1.595907 -1.112801
-4.059993 -1.581623 -1.112314
-4.054648 -1.566794 -1.109115
-4.043875 -1.551611 -1.103700
-4.050146 -1.537790 -1.105325
-4.044176 -1.523088 -1.101926
-4.035743 -1.508304 -1.097534
-4.047206 -1.494766 -1.101334
-4.045150 -1.480409 -1.099594
-4.035228 -1.465704 -1.094644
-4.037976 -1.451652 -1.094906
-4.037052 -1.437441 -1.093677
-4.030526 -1.423060 -1.090170
-4.022843 -1.408717 -1.086207
-4.028148 -1.394758 -1.087569
-4.027949 -1.380651 -1.086694
-4.037465 -1.366680 -1.089796
-4.014817 -1.352347 -1.079789
-4.024711 -1.338355 -1.083069
-4.029016 -1.324275 -1.084079
-4.024455 -1.310211 -1.081492
-4.018988 -1.296204 -1.078550
-4.020455 -1.282138 -1.078441
-4.015647 -1.268190 -1.075794
-4.000981 -1.254546 -1.069159
-3.997590 -1.240696 -1.067117
-3.999516 -1.226686 -1.067245
-4.002468 -1.212612 -1.067799
-3.985475 -1.199420 -1.060283
-3.986212 -1.185492 -1.059965
-3.992789 -1.171226 -1.062021
-3.994926 -1.157161 -1.062290
-3.983699 -1.143945 -1.057166
-3.986176 -1.129867 -1.057596
-3.989239 -1.115714 -1.058272
-3.990324 -1.101682 -1.058160
-3.985489 -1.088137 -1.055670
-3.984375 -1.074296 -1.054694
-3.977339 -1.061021 -1.051343
-3.970173 -1.047818 -1.047953
-3.980000 -1.032888 -1.051421
-3.976297 -1.019341 -1.049451
-3.974597 -1.005588 -1.048299
-3.970149 -0.992169 -1.046055
-3.962536 -0.979179 -1.042551
-3.958125 -0.965833 -1.040348
-3.958688 -0.951845 -1.040158
-3.952778 -0.938744 -1.037380
-3.948466 -0.925454 -1.035258
-3.947850 -0.911635 -1.034632
-3.945377 -0.898093 -1.033275
-3.944682 -0.884273 -1.032645
-3.944371 -0.870377 -1.032182
-3.937849 -0.857523 -1.029242
-3.944919 -0.842330 -1.031765
-3.948812 -0.827617 -1.033027
-3.952084 -0.812957 -1.034054
-3.950361 -0.799193 -1.033095
-3.945987 -0.785940 -1.031088
-3.938252 -0.773381 -1.027752
-3.932604 -0.760445 -1.025268
-3.929754 -0.746949 -1.023919
-3.926864 -0.733462 -1.022571
-3.920489 -0.720747 -1.019844
-3.925428 -0.705505 -1.021660
-3.923753 -0.691712 -1.020847
-3.918202 -0.678821 -1.018501
-3.923794 -0.663258 -1.020627
-3.918820 -0.650213 -1.018546
-3.920918 -0.635398 -1.019310
-3.913728 -0.622916 -1.016380
-3.913019 -0.608766 -1.016058
-3.912952 -0.594412 -1.016012
-3.906738 -0.581697 -1.013527
-3.906270 -0.567403 -1.013358
-3.913711 -0.550826 -1.016370
-3.911191 -0.537004 -1.015420
-3.897737 -0.526380 -1.010119
-3.897738 -0.511819 -1.010216
-3.905423 -0.494862 -1.013406
-3.901880 -0.481258 -1.012127
-3.900617 -0.466919 -1.011781
-3.898714 -0.452745 -1.011200
-3.896380 -0.438677 -1.010467
-3.893298 -0.424825 -1.009456
-3.890670 -0.410796 -1.008647
-3.888741 -0.396495 -1.008139
-3.890308 -0.380936 -1.009051
-3.893735 -0.364638 -1.010731
-3.884504 -0.352794 -1.007360
-3.873517 -0.341629 -1.003305
-3.873614 -0.326409 -1.003711
-3.866621 -0.313794 -1.001294
-3.862782 -0.299984 -1.000160
-3.862170 -0.284897 -1.000341
-3.861039 -0.269954 -1.000331
-3.847368 -0.259967 -0.995301
-3.845879 -0.245130 -0.995180
-3.845808 -0.229659 -0.995644
-3.848776 -0.212854 -0.997347
-3.853420 -0.195238 -0.999739
-3.849443 -0.181198 -0.998674
-3.845950 -0.166930 -0.997813
-3.869092 -0.140905 -1.007697
-4.035282 -0.050665 -1.075294
-4.064273 -0.020468 -1.087600
-4.054381 -0.007691 -1.084223
-4.044252 0.004913 -1.080746
-4.043027 0.021635 -1.080860
-4.039738 0.037406 -1.080132
-4.036457 0.053181 -1.079397
-4.035044 0.069864 -1.079404
-4.035387 0.087426 -1.080103
-4.030977 0.102631 -1.078855
-4.022299 0.115631 -1.075850
-4.021176 0.132402 -1.075874
-4.021531 0.149921 -1.076462
-4.026150 0.169667 -1.078741
-4.026189 0.187008 -1.079118
-4.023151 0.202656 -1.078194
-4.013193 0.214458 -1.074405
-4.009972 0.229779 -1.073291
-4.014928 0.249530 -1.075435
-4.012511 0.265115 -1.074515
-4.004943 0.277652 -1.071429
-4.017883 0.301746 -1.076599
-4.016162 0.317381 -1.075731
-4.016585 0.334117 -1.075650
-4.021245 0.353218 -1.077201
-3.999063 0.356212 -1.067769
-3.983837 0.378657 -1.060465
-3.988757 0.397170 -1.061756
-3.993711 0.415573 -1.062963
-3.982384 0.423679 -1.057485
-4.226656 -2.946390 -1.319591
-4.195517 -2.902080 -1.306089
-4.204085 -2.877809 -1.310333
-4.243124 -2.882903 -1.328216
-4.249545 -2.871044 -1.331026
-4.162957 -2.797647 -1.290730
-4.171084 -2.786332 -1.293975
-4.193610 -2.781680 -1.303695
-4.193758 -2.765960 -1.303048
-4.189641 -2.748061 -1.300339
-4.198460 -2.736063 -1.303433
-4.197846 -2.719477 -1.302104
-4.191782 -2.700274 -1.298185
-4.195209 -2.685267 -1.298496
-4.189380 -2.665992 -1.294491
-4.197102 -2.652603 -1.296565
-4.182449 -2.629351 -1.288376
-4.193571 -2.617173 -1.291820
-4.189212 -2.598270 -1.288158
-4.178680 -2.576783 -1.281636
-4.181008 -2.560628 -1.280877
-4.186523 -2.545688 -1.281497
-4.175126 -2.523911 -1.274432
-4.162154 -2.501620 -1.266626
-4.154395 -2.481478 -1.261141
-4.171391 -2.470854 -1.266746
-4.158090 -2.448660 -1.258718
-4.150651 -2.428794 -1.253309
-4.146499 -2.410225 -1.249361
-4.144197 -2.392390 -1.246230
-4.136494 -2.372703 -1.240688
-4.143337 -2.358184 -1.241620
-4.151167 -2.343961 -1.242978
-4.147025 -2.325675 -1.239022
-4.145400 -2.308312 -1.236192
-4.145085 -2.291441 -1.233952
-4.144571 -2.274562 -1.231634
-4.136914 -2.255508 -1.226187
-4.132980 -2.237739 -1.222403
-4.127906 -2.219727 -1.218141
-4.133692 -2.205045 -1.218667
-4.136285 -2.189431 -1.217808
-4.131660 -2.171788 -1.213815
-4.120735 -2.152494 -1.207102
-4.121491 -2.136581 -1.205517
-4.123967 -2.121181 -1.204705
-4.126723 -2.105886 -1.204037
-4.131109 -2.091039 -1.204099
-4.127001 -2.074057 -1.200504
-4.088044 -2.048562 -1.181865
-4.108036 -2.037793 -1.188766
-4.118076 -2.024512 -1.191378
-4.122225 -2.009813 -1.191467
-4.109431 -1.991297 -1.184288
-4.112830 -1.976536 -1.184110
-4.106560 -1.959708 -1.179806
-4.105057 -1.943993 -1.177579
-4.101087 -1.927836 -1.174325
-4.097534 -1.911848 -1.171279
-4.097615 -1.896646 -1.169815
-4.097232 -1.881398 -1.168180
-4.093841 -1.865640 -1.165288
-4.092416 -1.850307 -1.163261
-4.085398 -1.834056 -1.158883
-4.084276 -1.818907 -1.157040
-4.086556 -1.804359 -1.156665
-4.078266 -1.788148 -1.151832
-4.073800 -1.772640 -1.148649
-4.074714 -1.758005 -1.147766
-4.063912 -1.741714 -1.141957
-4.067863 -1.727597 -1.142403
-4.069900 -1.713212 -1.142061
-4.068807 -1.698431 -1.140420
-4.071050 -1.684096 -1.140204
-4.071101 -1.669503 -1.139085
-4.068610 -1.654646 -1.136918
-4.059743 -1.639148 -1.132097
-4.067080 -1.625423 -1.134094
-4.065082 -1.610731 -1.132195
-4.052843 -1.595128 -1.126029
-4.051155 -1.580590 -1.124302
-4.045536 -1.565759 -1.120950
-4.041924 -1.551155 -1.118457
-4.038693 -1.536629 -1.116143
-4.038684 -1.522367 -1.115189
-4.036656 -1.507990 -1.113411
-4.026670 -1.493184 -1.108338
-4.028016 -1.479087 -1.107999
-4.030499 -1.465041 -1.108147
-4.034308 -1.451035 -1.108858
-4.031678 -1.436756 -1.106910
-4.032429 -1.422621 -1.106379
-4.033430 -1.408493 -1.105966
-4.022725 -1.394090 -1.100719
-4.021715 -1.379974 -1.099503
-4.009897 -1.365731 -1.093833
-4.022174 -1.351806 -1.098137
-4.021519 -1.337720 -1.097109
-4.025879 -1.323635 -1.098163
-4.017151 -1.309595 -1.093830
-4.018693 -1.295524 -1.093746
-4.018692 -1.281463 -1.093038
-4.011679 -1.267553 -1.089457
-3.996696 -1.253921 -1.082612
-3.994247 -1.240043 -1.080939
-3.999228 -1.225919 -1.082333
-3.991510 -1.212265 -1.078521
-3.989502 -1.198421 -1.077068
-3.983080 -1.184819 -1.073816
-3.991145 -1.170464 -1.076521
-3.995492 -1.156251 -1.077708
-3.989019 -1.142703 -1.074474
-3.989164 -1.128744 -1.073964
-3.993332 -1.114471 -1.075112
-3.990772 -1.100693 -1.073517
-3.993421 -1.086486 -1.074065
-3.986964 -1.073070 -1.070903
-3.968738 -1.060835 -1.062946
-3.962764 -1.047538 -1.060011
-3.980136 -1.031823 -1.066619
-3.986150 -1.017180 -1.068600
-3.974964 -1.004455 -1.063575
-3.966301 -0.991524 -1.059595
-3.959970 -0.978373 -1.056581
-3.963490 -0.963985 -1.057594
-3.965508 -0.949751 -1.058007
-3.958640 -0.936731 -1.054815
-3.959390 -0.922654 -1.054737
-3.943738 -0.911023 -1.048000
-3.942967 -0.897216 -1.047333
-3.946405 -0.882721 -1.048390
-3.945445 -0.868901 -1.047672
-3.945122 -0.854962 -1.047228
-3.935905 -0.842570 -1.043184
-3.949329 -0.826152 -1.048352
-3.949442 -0.812051 -1.048126
-3.946148 -0.798576 -1.046533
-3.943614 -0.784961 -1.045264
-3.942956 -0.770969 -1.044772
-3.933021 -0.758871 -1.040532
-3.931002 -0.745172 -1.039521
-3.933668 -0.730450 -1.040425
-3.936478 -0.715640 -1.041404
-3.929230 -0.703051 -1.038321
-3.917399 -0.691569 -1.033399
-3.930567 -0.674245 -1.038628
-3.923617 -0.661627 -1.035719
-3.924056 -0.647215 -1.035824
-3.906952 -0.637199 -1.028836
-3.910410 -0.622015 -1.030201
-3.907859 -0.608339 -1.029149
-3.902172 -0.595492 -1.026845
-3.905012 -0.580326 -1.028016
-3.905648 -0.565703 -1.028313
-3.915124 -0.548513 -1.032213
-3.914353 -0.534146 -1.031980
-3.898774 -0.524110 -1.025765
-3.896763 -0.510114 -1.025070
-3.898246 -0.495021 -1.025811
-3.895121 -0.481294 -1.024706
-3.896554 -0.466105 -1.025470
-3.892408 -0.452643 -1.023992
-3.894068 -0.437268 -1.024891
-3.888103 -0.424357 -1.022717
-3.884589 -0.410623 -1.021558
-3.886425 -0.395027 -1.022593
-3.890824 -0.378454 -1.024690
-3.892569 -0.362713 -1.025731
-3.891234 -0.347998 -1.025543
-3.878056 -0.337574 -1.020561
-3.875875 -0.323142 -1.020068
-3.875318 -0.308054 -1.020255
-3.865515 -0.296451 -1.016699
-3.864583 -0.281440 -1.016771
-3.870059 -0.263842 -1.019472
-3.878627 -0.244875 -1.023452
-3.856121 -0.238369 -1.014783
-3.843087 -0.228152 -1.009985
-3.845227 -0.211677 -1.011389
-3.846687 -0.195400 -1.012529
-3.846642 -0.179687 -1.013067
-3.851920 -0.161594 -1.015790
-3.857516 -0.143236 -1.018654
-4.045427 -0.043151 -1.096121
-4.053906 -0.022148 -1.100219
-4.054168 -0.004761 -1.100956
-4.046506 0.008991 -1.098444
-4.045815 0.025987 -1.098782
-4.037256 0.039259 -1.095884
-4.034451 0.055247 -1.095331
-4.035333 0.073037 -1.096274
-4.036205 0.090855 -1.097195
-4.027569 0.103926 -1.094182
-4.023570 0.119254 -1.093045
-4.020307 0.134910 -1.092175
-4.018918 0.151487 -1.092036
-4.022955 0.170881 -1.094089
-4.027373 0.190493 -1.096250
-4.021591 0.204623 -1.094158
-4.014080 0.217687 -1.091294
-4.009113 0.231993 -1.089415
-4.010736 0.249827 -1.090184
-4.002923 0.262283 -1.086993
-4.005477 0.280436 -1.087998
-4.002172 0.295141 -1.086510
-4.013281 0.318042 -1.090876
-4.010235 0.332645 -1.089325
-4.017265 0.353026 -1.091833
-4.035578 0.380066 -1.098890
-4.027071 0.390983 -1.094815
-4.001196 0.391067 -1.083507
-4.006239 0.424993 -1.083961
-4.008060 0.441271 -1.083753
-3.986742 0.442797 -1.073965
-3.901628 0.458129 -1.032665
-4.245051 -2.955234 -1.344204
-4.224375 -2.930440 -1.335138
-4.217557 -2.912837 -1.332381
-4.194154 -2.886528 -1.321819
-4.207734 -2.864530 -1.328353
-4.274149 -2.883026 -1.359100
-4.234055 -2.847776 -1.340328
-4.186308 -2.808965 -1.317895
-4.153314 -2.777620 -1.302193
-4.213138 -2.791103 -1.329392
-4.206132 -2.771968 -1.325499
-4.191138 -2.748972 -1.317798
-4.184629 -2.729920 -1.313916
-4.190290 -2.716381 -1.315554
-4.184464 -2.697409 -1.311774
-4.185339 -2.681375 -1.310989
-4.189223 -2.666538 -1.311489
-4.186684 -2.648727 -1.308934
-4.197150 -2.636464 -1.312274
-4.198410 -2.620057 -1.311287
-4.191885 -2.600269 -1.306645
-4.178251 -2.577525 -1.298677
-4.181314 -2.561722 -1.298302
-4.190990 -2.548506 -1.300887
-4.189310 -2.530609 -1.298216
-4.160110 -2.501885 -1.282949
-4.167559 -2.487667 -1.284364
-4.165020 -2.469540 -1.281190
-4.165202 -2.452460 -1.279223
-4.148778 -2.429236 -1.269701
-4.147797 -2.411838 -1.267169
-4.151630 -2.396197 -1.266798
-4.143882 -2.376448 -1.261183
-4.145501 -2.360069 -1.259792
-4.156180 -2.346802 -1.262469
-4.153539 -2.328978 -1.259150
-4.145333 -2.309390 -1.253343
-4.142128 -2.291564 -1.249793
-4.143057 -2.275142 -1.248105
-4.142462 -2.258285 -1.245748
-4.134964 -2.239363 -1.240330
-4.136732 -2.223380 -1.239062
-4.135345 -2.206498 -1.236408
-4.135132 -2.190030 -1.234298
-4.128735 -2.171857 -1.229471
-4.123564 -2.154157 -1.225218
-4.123728 -2.138035 -1.223350
-4.128496 -2.123209 -1.223536
-4.120203 -2.104945 -1.217993
-4.124698 -2.090131 -1.218108
-4.130427 -2.075636 -1.218785
-4.117781 -2.056589 -1.211428
-4.111155 -2.039190 -1.206750
-4.113602 -2.024064 -1.206072
-4.103430 -2.006044 -1.199911
-4.110360 -1.992049 -1.201244
-4.103395 -1.974964 -1.196548
-4.107817 -1.960455 -1.196839
-4.110744 -1.945632 -1.196502
-4.097315 -1.927473 -1.189096
-4.080536 -1.908830 -1.180279
-4.090121 -1.895533 -1.182913
-4.101903 -1.882595 -1.186513
-4.096308 -1.866375 -1.182626
-4.084929 -1.849218 -1.176278
-4.078255 -1.833033 -1.171990
-4.079086 -1.818219 -1.170964
-4.082463 -1.803848 -1.171054
-4.076786 -1.788042 -1.167279
-4.067888 -1.771833 -1.162152
-4.079112 -1.758727 -1.165674
-4.097976 -1.746629 -1.172480
-4.055836 -1.725951 -1.153212
-4.059681 -1.711839 -1.153641
-4.061299 -1.697430 -1.153138
-4.073374 -1.684312 -1.157112
-4.070290 -1.669312 -1.154641
-4.054245 -1.652905 -1.146679
-4.053596 -1.638339 -1.145293
-4.059607 -1.624482 -1.146755
-4.057491 -1.609792 -1.144784
-4.053059 -1.594926 -1.141850
-4.046271 -1.579915 -1.137941
-4.033419 -1.564488 -1.131487
-4.033565 -1.550213 -1.130557
-4.033951 -1.535967 -1.129745
-4.034691 -1.521756 -1.129099
-4.053142 -1.508658 -1.135940
-4.031764 -1.493093 -1.125996
-4.032710 -1.478926 -1.125485
-4.032278 -1.464695 -1.124409
-4.027612 -1.450295 -1.121567
-4.036297 -1.436455 -1.124355
-4.040320 -1.422383 -1.125195
-4.048780 -1.408402 -1.127909
-4.048424 -1.394140 -1.126935
-4.028119 -1.379530 -1.117613
-4.016263 -1.365235 -1.111855
-4.016582 -1.351160 -1.111214
-4.016008 -1.337081 -1.110213
-4.008184 -1.323025 -1.106194
-4.007609 -1.308998 -1.105222
-4.010967 -1.294932 -1.105905
-4.013102 -1.280853 -1.106088
-4.012805 -1.266806 -1.105269
-3.994972 -1.253228 -1.097153
-3.997873 -1.239171 -1.097696
-3.996306 -1.225246 -1.096389
-3.994703 -1.211335 -1.095081
-3.977746 -1.198150 -1.087399
-3.987931 -1.183735 -1.091020
-3.992346 -1.169539 -1.092251
-3.987502 -1.155862 -1.089648
-3.989432 -1.141778 -1.089870
-3.995685 -1.127362 -1.091897
-3.991975 -1.113635 -1.089802
-3.994022 -1.099470 -1.090108
-3.992891 -1.085551 -1.089107
-3.986603 -1.072103 -1.085985
-3.974114 -1.059305 -1.080310
-3.961878 -1.046595 -1.074756
-3.974587 -1.031352 -1.079536
-3.979243 -1.016864 -1.080994
-3.961187 -1.004953 -1.073078
-3.972756 -0.989624 -1.077419
-3.969342 -0.976055 -1.075581
-3.956274 -0.963770 -1.069772
-3.954031 -0.950128 -1.068447
-3.963300 -0.934870 -1.071885
-3.959696 -0.921383 -1.070025
-3.953248 -0.908344 -1.067008
-3.940065 -0.896404 -1.061229
-3.948803 -0.881045 -1.064500
-3.958650 -0.865393 -1.068240
-3.947538 -0.853211 -1.063362
-3.952452 -0.838295 -1.065097
-3.933364 -0.827661 -1.056968
-3.942748 -0.811887 -1.060573
-3.941453 -0.798040 -1.059798
-3.920330 -0.788081 -1.050884
-3.946328 -0.768802 -1.061367
-3.935975 -0.756752 -1.056916
-3.930701 -0.743703 -1.054570
-3.935629 -0.728463 -1.056435
-3.934409 -0.714509 -1.055790
-3.929295 -0.701422 -1.053561
-3.916616 -0.690116 -1.048243
-3.918354 -0.675478 -1.048866
-3.922153 -0.660286 -1.050354
-3.903726 -0.650536 -1.042729
-3.915109 -0.633385 -1.047369
-3.905781 -0.621435 -1.043520
-3.909280 -0.606157 -1.044960
-3.910738 -0.591350 -1.045580
-3.898819 -0.580159 -1.040725
-3.908257 -0.563072 -1.044663
-3.910388 -0.547924 -1.045620
-3.917814 -0.531169 -1.048774
-3.916782 -0.516788 -1.048473
-3.899415 -0.507290 -1.041479
-3.894345 -0.494157 -1.039559
-3.893585 -0.479682 -1.039432
-3.888772 -0.466449 -1.037659
-3.884954 -0.452892 -1.036317
-3.885196 -0.437987 -1.036666
-3.881546 -0.424322 -1.035435
-3.877552 -0.410755 -1.034083
-3.925314 -0.379320 -1.054062
-3.880574 -0.379714 -1.035977
-3.886947 -0.362345 -1.038960
-3.889124 -0.346358 -1.040236
-3.884319 -0.332847 -1.038655
-3.876227 -0.320551 -1.035738
-3.868397 -0.308181 -1.032948
-3.865822 -0.293814 -1.032343
-3.867643 -0.277696 -1.033571
-3.876854 -0.258564 -1.037871
-3.867974 -0.246525 -1.034715
-3.867387 -0.231142 -1.035001
-3.857875 -0.219388 -1.031609
-3.846615 -0.208412 -1.027504
-3.846206 -0.192893 -1.027900
-3.844211 -0.177999 -1.027649
-3.849798 -0.159756 -1.030549
-3.864491 -0.137358 -1.037235
-4.042944 -0.041260 -1.111895
-4.050251 -0.020778 -1.115571
-4.047184 -0.004933 -1.114939
-4.045100 0.011382 -1.114710
-4.049576 0.030817 -1.117202
-4.045550 0.046275 -1.116147
-4.040175 0.061063 -1.114513
-4.040139 0.078430 -1.115082
-4.035800 0.093678 -1.113835
-4.028531 0.107409 -1.111337
-4.027615 0.124287 -1.111454
-4.029337 0.142504 -1.112635
-4.029737 0.160035 -1.113222
-4.029346 0.177126 -1.113433
-4.033213 0.196443 -1.115369
-4.034606 0.214423 -1.116217
-4.017075 0.239034 -1.109233
-4.004680 0.249040 -1.104120
-3.992484 0.291927 -1.098760
-3.996704 0.310696 -1.100269
-3.992975 0.324713 -1.098369
-4.020519 0.373086 -1.108902
-4.005688 0.395606 -1.101370
-4.011753 0.430018 -1.102162
-3.982242 0.426645 -1.088878
-4.169118 -2.914062 -1.324770
-4.221627 -2.928119 -1.349963
-4.225100 -2.915974 -1.352070
-4.219049 -2.898674 -1.349600
-4.157787 -2.838736 -1.321246
-4.195219 -2.843027 -1.338828
-4.244604 -2.852688 -1.361900
-4.175814 -2.803582 -1.329411
-4.175038 -2.788057 -1.328714
-4.210740 -2.789912 -1.345002
-4.234701 -2.785628 -1.355657
-4.186230 -2.746809 -1.332255
-4.173592 -2.725018 -1.325539
-4.185321 -2.714418 -1.330117
-4.193921 -2.702121 -1.333117
-4.189225 -2.683612 -1.329792
-4.189581 -2.667267 -1.328727
-4.194908 -2.652976 -1.329881
-4.207444 -2.641636 -1.334294
-4.204717 -2.623532 -1.331504
-4.191707 -2.601033 -1.323853
-4.188474 -2.582669 -1.320678
-4.181767 -2.562848 -1.315824
-4.185724 -2.547362 -1.315849
-4.203430 -2.537271 -1.322168
-4.171114 -2.507264 -1.305310
-4.174170 -2.491311 -1.304757
-4.173076 -2.473720 -1.302248
-4.161713 -2.452270 -1.294983
-4.154161 -2.432361 -1.289452
-4.152856 -2.414823 -1.286770
-4.155534 -2.398743 -1.285892
-4.155857 -2.381822 -1.283920
-4.152175 -2.363530 -1.280108
-4.154388 -2.347328 -1.278982
-4.152452 -2.329741 -1.275962
-4.143029 -2.309741 -1.269546
-4.133863 -2.289974 -1.263265
-4.140390 -2.275369 -1.264109
-4.142142 -2.259242 -1.262795
-4.141897 -2.242531 -1.260591
-4.139371 -2.225187 -1.257375
-4.142740 -2.209675 -1.256831
-4.136264 -2.191315 -1.251880
-4.132904 -2.173974 -1.248356
-4.131582 -2.157298 -1.245771
-4.137209 -2.142603 -1.246319
-4.128314 -2.123993 -1.240399
-4.114154 -2.104149 -1.232169
-4.116614 -2.088810 -1.231382
-4.123931 -2.074729 -1.232778
-4.119320 -2.057671 -1.228896
-4.106047 -2.038619 -1.221206
-4.099892 -2.021449 -1.216712
-4.100840 -2.006042 -1.215393
-4.105358 -1.991483 -1.215677
-4.101390 -1.975052 -1.212241
-4.099447 -1.959148 -1.209729
-4.106942 -1.945298 -1.211399
-4.111848 -1.930884 -1.211949
-4.073685 -1.907856 -1.193624
-4.090968 -1.896063 -1.199667
-4.108848 -1.884244 -1.205978
-4.101766 -1.867682 -1.201384
-4.083356 -1.849205 -1.191875
-4.065959 -1.831133 -1.182853
-4.069528 -1.816813 -1.183008
-4.090631 -1.805361 -1.190817
-4.086730 -1.789763 -1.187759
-4.068774 -1.772085 -1.178623
-4.062579 -1.756364 -1.174630
-4.088581 -1.745343 -1.184622
-4.077898 -1.729024 -1.178729
-4.064864 -1.712528 -1.171850
-4.066016 -1.698005 -1.171135
-4.074049 -1.684341 -1.173412
-4.074020 -1.669670 -1.172226
-4.045378 -1.651798 -1.158729
-4.047780 -1.637578 -1.158641
-4.051631 -1.623503 -1.159196
-4.047371 -1.608618 -1.156280
-4.050840 -1.594509 -1.156706
-4.074765 -1.582172 -1.165925
-4.066810 -1.566982 -1.161477
-4.034340 -1.549988 -1.146552
-4.037799 -1.535938 -1.147047
-4.050962 -1.522521 -1.151705
-4.030173 -1.506864 -1.141863
-4.039258 -1.493145 -1.144808
-4.048705 -1.479365 -1.147917
-4.069167 -1.466024 -1.155735
-4.050504 -1.450823 -1.146884
-4.039630 -1.436110 -1.141377
-4.043965 -1.422008 -1.142363
-4.049738 -1.407911 -1.143972
-4.053629 -1.393719 -1.144794
-4.047022 -1.379308 -1.141171
-4.026566 -1.364791 -1.131689
-4.018641 -1.350578 -1.127547
-4.013514 -1.336455 -1.124607
-4.005899 -1.322391 -1.120632
-4.000082 -1.308392 -1.117434
-4.003501 -1.294340 -1.118161
-4.007378 -1.280248 -1.119092
-4.011097 -1.266120 -1.119967
-4.008717 -1.252119 -1.118278
-4.002186 -1.238273 -1.114852
-3.995410 -1.224498 -1.111339
-3.985798 -1.210906 -1.106645
-3.986185 -1.196939 -1.106182
-3.991206 -1.182725 -1.107682
-4.002531 -1.168100 -1.111847
-3.993716 -1.154598 -1.107546
-3.994481 -1.140539 -1.107290
-3.997049 -1.126338 -1.107804
-3.999180 -1.112138 -1.108146
-3.988887 -1.098922 -1.103283
-3.983589 -1.085367 -1.100533
-3.989707 -1.070813 -1.102587
-3.974180 -1.058275 -1.095574
-3.971780 -1.044551 -1.094083
-3.977661 -1.029958 -1.096075
-3.971074 -1.016684 -1.092855
-3.961442 -1.003818 -1.088376
-3.969056 -0.988942 -1.091132
-3.966314 -0.975285 -1.089565
-3.944047 -0.964208 -1.079847
-3.956581 -0.948589 -1.084698
-3.957777 -0.934433 -1.084822
-3.957263 -0.920500 -1.084244
-3.956426 -0.906602 -1.083545
-3.957253 -0.892434 -1.083556
-3.952089 -0.879208 -1.081080
-3.956348 -0.864442 -1.082552
-3.966276 -0.848639 -1.086404
-3.961521 -0.835310 -1.084144
-3.949587 -0.823313 -1.078905
-3.936389 -0.811650 -1.073158
-3.936237 -0.797590 -1.072868
-3.943693 -0.782006 -1.075764
-3.935291 -0.769528 -1.072068
-3.936653 -0.755083 -1.072457
-3.933764 -0.741499 -1.071092
-3.925161 -0.729160 -1.067364
-3.926663 -0.714625 -1.067863
-3.929911 -0.699646 -1.069106
-3.930178 -0.685295 -1.069126
-3.911189 -0.675499 -1.061146
-3.927363 -0.657297 -1.067827
-3.923877 -0.643783 -1.066340
-3.916512 -0.631254 -1.063256
-3.908259 -0.618993 -1.059823
-3.909174 -0.604352 -1.060226
-3.910661 -0.589505 -1.060889
-3.914257 -0.574020 -1.062448
-3.909434 -0.560814 -1.060523
-3.906682 -0.547021 -1.059481
-3.913020 -0.530564 -1.062246
-3.922672 -0.513007 -1.066413
-3.887995 -0.508684 -1.052132
-3.894151 -0.492131 -1.054884
-3.894756 -0.477197 -1.055346
-3.888752 -0.464305 -1.053074
-3.880165 -0.452260 -1.049746
-3.882740 -0.436578 -1.051094
-3.879223 -0.422850 -1.049922
-3.880898 -0.407335 -1.050939
-3.880465 -0.392471 -1.051098
-3.879493 -0.377739 -1.051053
-3.877207 -0.363426 -1.050481
-3.885305 -0.345310 -1.054268
-3.879450 -0.332177 -1.052246
-3.869844 -0.320446 -1.048674
-3.867427 -0.306032 -1.048126
-3.868116 -0.290382 -1.048897
-3.874290 -0.272514 -1.051984
-3.862624 -0.261586 -1.047617
-3.859046 -0.247472 -1.046651
-3.866688 -0.228752 -1.050405
-3.869705 -0.211793 -1.052236
-3.869683 -0.196012 -1.052806
-3.836129 -0.194450 -1.039304
-3.835623 -0.178951 -1.039684
-3.839242 -0.161594 -1.041804
-4.061190 -0.030032 -1.136432
-4.049748 -0.017963 -1.132273
-4.040851 -0.004805 -1.129178
-4.041358 0.012690 -1.130037
-4.043212 0.030868 -1.131454
-4.047485 0.050264 -1.133880
-4.047813 0.067823 -1.134624
-4.039117 0.080968 -1.131535
-4.039064 0.098325 -1.132068
-4.028952 0.110615 -1.128318
-4.022735 0.124764 -1.126176
-4.022437 0.141880 -1.126497
-4.029148 0.162629 -1.129739
-4.034168 0.182532 -1.132217
-4.036051 0.200774 -1.133312
-4.036954 0.218454 -1.133932
-4.038894 0.236643 -1.134927
-4.023170 0.245022 -1.128368
-4.013635 0.256580 -1.124357
-4.004586 0.268198 -1.120474
-4.002061 0.283316 -1.119274
-3.994738 0.295521 -1.115957
-3.999424 0.314491 -1.117639
-3.992392 0.326491 -1.114269
-3.980304 0.335262 -1.108669
-3.973712 0.347027 -1.105303
-3.989029 0.371783 -1.111106
-4.005391 0.397168 -1.117244
-4.010722 0.415766 -1.118619
-3.966780 0.418403 -1.098054
-4.025374 0.484525 -1.120293
-4.217219 -2.911019 -1.364485
-4.214797 -2.881469 -1.364109
-4.204086 -2.861596 -1.359241
-4.210648 -2.850279 -1.362452
-4.190220 -2.825304 -1.352737
-4.182140 -2.806400 -1.348763
-4.193822 -2.796998 -1.354049
-4.231694 -2.799895 -1.371636
-4.248340 -2.792115 -1.379027
-4.200964 -2.753834 -1.355948
-4.180304 -2.728320 -1.345429
-4.197325 -2.720212 -1.352647
-4.225016 -2.716624 -1.364791
-4.214023 -2.695200 -1.358519
-4.186848 -2.666571 -1.344504
-4.197589 -2.654748 -1.348304
-4.209868 -2.643358 -1.352724
-4.205997 -2.624819 -1.349432
-4.199190 -2.604990 -1.344675
-4.189231 -2.583842 -1.338363
-4.172375 -2.559899 -1.328748
-4.179308 -2.545721 -1.330235
-4.164862 -2.522873 -1.321641
-4.169293 -2.507580 -1.321833
-4.170916 -2.491115 -1.320657
-4.174165 -2.475230 -1.320191
-4.163896 -2.454202 -1.313386
-4.152717 -2.432950 -1.306139
-4.155497 -2.416924 -1.305358
-4.157790 -2.400700 -1.304323
-4.161281 -2.384890 -1.303822
-4.152177 -2.364678 -1.297480
-4.152950 -2.347979 -1.295700
-4.153285 -2.331156 -1.293712
-4.146968 -2.312166 -1.288663
-4.135271 -2.291537 -1.281153
-4.137777 -2.275624 -1.280179
-4.145464 -2.261357 -1.281581
-4.144616 -2.244421 -1.279082
-4.142957 -2.227300 -1.276228
-4.142077 -2.210483 -1.273747
-4.143029 -2.194263 -1.272119
-4.135190 -2.175575 -1.266516
-4.134696 -2.159089 -1.264275
-4.134398 -2.142719 -1.262147
-4.131285 -2.125650 -1.258770
-4.112783 -2.104607 -1.248472
-4.113196 -2.088715 -1.246753
-4.117567 -2.073876 -1.246842
-4.109455 -2.055950 -1.241338
-4.106709 -2.039468 -1.238281
-4.101086 -2.022385 -1.233965
-4.106219 -2.007908 -1.234500
-4.104811 -1.991947 -1.232132
-4.103945 -1.976170 -1.230034
-4.094576 -1.958616 -1.224172
-4.099273 -1.944171 -1.224616
-4.108365 -1.930624 -1.227037
-4.101079 -1.913752 -1.222198
-4.093117 -1.896867 -1.217092
-4.102682 -1.883431 -1.219794
-4.106928 -1.868956 -1.220157
-4.096038 -1.851765 -1.213846
-4.044425 -1.827642 -1.189579
-4.079304 -1.818688 -1.203563
-4.098024 -1.806765 -1.210413
-4.098124 -1.791733 -1.209071
-4.090509 -1.775551 -1.204359
-4.072302 -1.757908 -1.195023
-4.067949 -1.742464 -1.191810
-4.068844 -1.727819 -1.190926
-4.070879 -1.713344 -1.190563
-4.072954 -1.698880 -1.190238
-4.066511 -1.683375 -1.186209
-4.071720 -1.669330 -1.187298
-4.041628 -1.651281 -1.172994
-4.045038 -1.637161 -1.173346
-4.042692 -1.622438 -1.171207
-4.042877 -1.608005 -1.170192
-4.062731 -1.595407 -1.177752
-4.070125 -1.581538 -1.179901
-4.067769 -1.566808 -1.177830
-4.042480 -1.550343 -1.165830
-4.048515 -1.536413 -1.167445
-4.047998 -1.521996 -1.166235
-4.028448 -1.506409 -1.156805
-4.029855 -1.492232 -1.156469
-4.072700 -1.480224 -1.174059
-4.050918 -1.464735 -1.163727
-4.050763 -1.450390 -1.162759
-4.045114 -1.435849 -1.159437
-4.043417 -1.421501 -1.157838
-4.039320 -1.407111 -1.155223
-4.036981 -1.392807 -1.153381
-4.045719 -1.378728 -1.156319
-4.031112 -1.364272 -1.149235
-4.015370 -1.349957 -1.141685
-4.009861 -1.335829 -1.138550
-4.011362 -1.321741 -1.138440
-3.999729 -1.307737 -1.132713
-4.001902 -1.293681 -1.132921
-4.002715 -1.279627 -1.132559
-4.007460 -1.265477 -1.133894
-4.003231 -1.251524 -1.131400
-4.003883 -1.237454 -1.131009
-3.995042 -1.223728 -1.126575
-3.985866 -1.210102 -1.122016
-3.985535 -1.196147 -1.121249
-4.008792 -1.180966 -1.130557
-4.013390 -1.166612 -1.131913
-4.005944 -1.152952 -1.128147
-3.998249 -1.139378 -1.124291
-4.002536 -1.125012 -1.125553
-3.997066 -1.111347 -1.122674
-3.996107 -1.097359 -1.121729
-3.993045 -1.083555 -1.119904
-3.986293 -1.070111 -1.116525
-3.982583 -1.056430 -1.114453
-3.981342 -1.042524 -1.113445
-3.984618 -1.028138 -1.114368
-3.968714 -1.015851 -1.107165
-3.960353 -1.002830 -1.103179
-3.952165 -0.989859 -1.099284
-3.961668 -0.974712 -1.102903
-3.963300 -0.960493 -1.103198
-3.959279 -0.947015 -1.101113
-3.969211 -0.931582 -1.104951
-3.962170 -0.918527 -1.101615
-3.967391 -0.903660 -1.103486
-3.962553 -0.890302 -1.101114
-3.955381 -0.877352 -1.097771
-3.953430 -0.863581 -1.096652
-3.961136 -0.848146 -1.099632
-3.959423 -0.834280 -1.098645
-3.949387 -0.821928 -1.094157
-3.938864 -0.809745 -1.089480
-3.941804 -0.795050 -1.090509
-3.947150 -0.779824 -1.092570
-3.942149 -0.766616 -1.090278
-3.946786 -0.751426 -1.092073
-3.933851 -0.739906 -1.086466
-3.927501 -0.727051 -1.083658
-3.922394 -0.713953 -1.081393
-3.937754 -0.696194 -1.087785
-3.932752 -0.683005 -1.085600
-3.926047 -0.670241 -1.082716
-3.928217 -0.655342 -1.083597
-3.916210 -0.643922 -1.078513
-3.906274 -0.632062 -1.074324
-3.915645 -0.615246 -1.078302
-3.911524 -0.601870 -1.076607
-3.912563 -0.587099 -1.077109
-3.912367 -0.572615 -1.077111
-3.908602 -0.559092 -1.075627
-3.903210 -0.546029 -1.073477
-3.909678 -0.529514 -1.076355
-3.911908 -0.514140 -1.077467
-3.899376 -0.503163 -1.072365
-3.899826 -0.488268 -1.072767
-3.897225 -0.474273 -1.071902
-3.893376 -0.460650 -1.070531
-3.890712 -0.446629 -1.069683
-3.882471 -0.434422 -1.066499
-3.887745 -0.417712 -1.069050
-3.897715 -0.399284 -1.073612
-3.905805 -0.381336 -1.077403
-3.884061 -0.373746 -1.068587
-3.879089 -0.360335 -1.066890
-3.870460 -0.348246 -1.063664
-3.868197 -0.333841 -1.063153
-3.869591 -0.318026 -1.064212
-3.869162 -0.302825 -1.064518
-3.871167 -0.286624 -1.065876
-3.873949 -0.270029 -1.067582
-3.869151 -0.256352 -1.066088
-3.865219 -0.242316 -1.064975
-3.865565 -0.226510 -1.065695
-3.861566 -0.212440 -1.064579
-3.858264 -0.198061 -1.063770
-3.840988 -0.189627 -1.057019
-3.827651 -0.179633 -1.051946
-3.832747 -0.161651 -1.054732
-4.009538 -0.067191 -1.130760
-4.053067 -0.030635 -1.149998
-4.051917 -0.013914 -1.150174
-4.045734 0.000512 -1.148195
-4.044502 0.017227 -1.148322
-4.045414 0.034980 -1.149352
-4.043469 0.051400 -1.149143
-4.045137 0.069579 -1.150460
-4.049171 0.088960 -1.152766
-4.043415 0.103513 -1.150849
-4.029661 0.113955 -1.145468
-4.015739 0.124136 -1.139971
-4.009627 0.138167 -1.137776
-4.021130 0.161312 -1.143090
-4.031768 0.184099 -1.147984
-4.041947 0.206718 -1.152623
-4.039453 0.222537 -1.151758
-4.020714 0.246251 -1.143912
-4.013239 0.258864 -1.140689
-4.016453 0.277321 -1.141976
-4.009014 0.289620 -1.138604
-4.012146 0.307800 -1.139683
-4.016959 0.326858 -1.141393
-4.049946 0.362387 -1.155095
-3.975840 0.350158 -1.122131
-3.990897 0.374679 -1.127851
-4.006067 0.399258 -1.133512
-4.010448 0.417175 -1.134450
-3.993689 0.421827 -1.126251
-4.040437 0.480676 -1.143836
-3.985689 0.474583 -1.117755
-4.158764 -2.893209 -1.351902
-4.183961 -2.892812 -1.364603
-4.223332 -2.899284 -1.384005
-4.238677 -2.892920 -1.391777
-4.236822 -2.877509 -1.391183
-4.248370 -2.868627 -1.396905
-4.208610 -2.833974 -1.377880
-4.204245 -2.816902 -1.375724
-4.240791 -2.819574 -1.393084
-4.244452 -2.805865 -1.394537
-4.241882 -2.788968 -1.392879
-4.206966 -2.756683 -1.375591
-4.189541 -2.732737 -1.366582
-4.194885 -2.719296 -1.368372
-4.218008 -2.713734 -1.378558
-4.208373 -2.693044 -1.372946
-4.179169 -2.663623 -1.357876
-4.190828 -2.652326 -1.362244
-4.201902 -2.640529 -1.366222
-4.202013 -2.623809 -1.364869
-4.197058 -2.604850 -1.361012
-4.177872 -2.579927 -1.350304
-4.170315 -2.559922 -1.345063
-4.158965 -2.538398 -1.337958
-4.171638 -2.526547 -1.342185
-4.161784 -2.505630 -1.335671
-4.171149 -2.492249 -1.338200
-4.175827 -2.476942 -1.338454
-4.169348 -2.457355 -1.333398
-4.158510 -2.436214 -1.326260
-4.154603 -2.417727 -1.322363
-4.169355 -2.406002 -1.327201
-4.153351 -2.383231 -1.317583
-4.152636 -2.365987 -1.315125
-4.152369 -2.348927 -1.312864
-4.154688 -2.332772 -1.311802
-4.152088 -2.314993 -1.308441
-4.138310 -2.293642 -1.299886
-4.137712 -2.276705 -1.297473
-4.141740 -2.261273 -1.297212
-4.143125 -2.245028 -1.295732
-4.139633 -2.227337 -1.292006
-4.140163 -2.210934 -1.290157
-4.142004 -2.194961 -1.288927
-4.139655 -2.177820 -1.285785
-4.124720 -2.157225 -1.276884
-4.133754 -2.143451 -1.279021
-4.131445 -2.126572 -1.275972
-4.123722 -2.108341 -1.270474
-4.125831 -2.092797 -1.269502
-4.113149 -2.073535 -1.261806
-4.110494 -2.056953 -1.258720
-4.116469 -2.042547 -1.259588
-4.122219 -2.028077 -1.260375
-4.111639 -2.009809 -1.253775
-4.101851 -1.991886 -1.247573
-4.084080 -1.972350 -1.237801
-4.092942 -1.958804 -1.240109
-4.097610 -1.944328 -1.240543
-4.093878 -1.928124 -1.237214
-4.096092 -1.913195 -1.236593
-4.091648 -1.896988 -1.233003
-4.093094 -1.881988 -1.232090
-4.099028 -1.867842 -1.233217
-4.093736 -1.851662 -1.229333
-4.062068 -1.830985 -1.213679
-4.084691 -1.819842 -1.222351
-4.085128 -1.804868 -1.221120
-4.094687 -1.791371 -1.223982
-4.086841 -1.775139 -1.219105
-4.076284 -1.758618 -1.213054
-4.060283 -1.741457 -1.204616
-4.062253 -1.726970 -1.204199
-4.070333 -1.713302 -1.206514
-4.077002 -1.699399 -1.208220
-4.077514 -1.684699 -1.207217
-4.056891 -1.667531 -1.196882
-4.049658 -1.652103 -1.192506
-4.035166 -1.635991 -1.184952
-4.045973 -1.622638 -1.188593
-4.055896 -1.609111 -1.191857
-4.057436 -1.594728 -1.191440
-4.062605 -1.580664 -1.192639
-4.047346 -1.564884 -1.184870
-4.051579 -1.550780 -1.185697
-4.058285 -1.536827 -1.187625
-4.050354 -1.521837 -1.183146
-4.048410 -1.507312 -1.181314
-4.066811 -1.493984 -1.188413
-4.039260 -1.478082 -1.175404
-4.041194 -1.463860 -1.175326
-4.042269 -1.449591 -1.174889
-4.048470 -1.435512 -1.176707
-4.028422 -1.420532 -1.167080
-4.021688 -1.406122 -1.163288
-4.025934 -1.392031 -1.164303
-4.035607 -1.377998 -1.167694
-4.034381 -1.363738 -1.166350
-4.002476 -1.349268 -1.151677
-4.019495 -1.335238 -1.158305
-4.014454 -1.321097 -1.155355
-4.015792 -1.306960 -1.155192
-4.005082 -1.292962 -1.149814
-4.012133 -1.278762 -1.152158
-4.002344 -1.264869 -1.147214
-3.998603 -1.250906 -1.144909
-4.001368 -1.236770 -1.145436
-3.999601 -1.222773 -1.144015
-3.987168 -1.209242 -1.137995
-3.982504 -1.195465 -1.135353
-4.010186 -1.180039 -1.146703
-4.013937 -1.165703 -1.147719
-4.004591 -1.152139 -1.143094
-3.996593 -1.138573 -1.139068
-3.988805 -1.125064 -1.135149
-3.997464 -1.110356 -1.138337
-3.995647 -1.096415 -1.137021
-3.991152 -1.082717 -1.134566
-3.981555 -1.069525 -1.129929
-3.981835 -1.055459 -1.129561
-3.980944 -1.041500 -1.128703
-3.977438 -1.027818 -1.126734
-3.993247 -1.011993 -1.133082
-3.936374 -1.004516 -1.108209
-3.952152 -0.988716 -1.114574
-3.967242 -0.972830 -1.120653
-3.964780 -0.959101 -1.119208
-3.965990 -0.944876 -1.119353
-3.965982 -0.930795 -1.118991
-3.969083 -0.916240 -1.119977
-3.965630 -0.902634 -1.118167
-3.965869 -0.888462 -1.117956
-3.955172 -0.876047 -1.113074
-3.953787 -0.862159 -1.112199
-3.956264 -0.847595 -1.112994
-3.956097 -0.833454 -1.112673
-3.947594 -0.820817 -1.108799
-3.938365 -0.808379 -1.104633
-3.943740 -0.793188 -1.106735
-3.954877 -0.776773 -1.111319
-3.967333 -0.759948 -1.116483
-3.962051 -0.746667 -1.114076
-3.949478 -0.734970 -1.108567
-3.935626 -0.723652 -1.102530
-3.937214 -0.708985 -1.103118
-3.923121 -0.697865 -1.097016
-3.924006 -0.683344 -1.097341
-3.926672 -0.668353 -1.098445
-3.942219 -0.650141 -1.105078
-3.911243 -0.643372 -1.091835
-3.919230 -0.626933 -1.095275
-3.915648 -0.613388 -1.093787
-3.914658 -0.599150 -1.093429
-3.915449 -0.584396 -1.093853
-3.914788 -0.569992 -1.093676
-3.907527 -0.557412 -1.090698
-3.906905 -0.542954 -1.090581
-3.910558 -0.527205 -1.092315
-3.907987 -0.513222 -1.091407
-3.899627 -0.500974 -1.088043
-3.895587 -0.487430 -1.086550
-3.897167 -0.472110 -1.087485
-3.885496 -0.460957 -1.082767
-3.892681 -0.443742 -1.086147
-3.890675 -0.429432 -1.085612
-3.885859 -0.416031 -1.083895
-3.892369 -0.398752 -1.087055
-3.892083 -0.383703 -1.087324
-3.888244 -0.369850 -1.086090
-3.881518 -0.357014 -1.083637
-3.873688 -0.344593 -1.080728
-3.864264 -0.332787 -1.077153
-3.869711 -0.315437 -1.079986
-3.873916 -0.298434 -1.082306
-3.868208 -0.285157 -1.080382
-3.867533 -0.269904 -1.080639
-3.883809 -0.247835 -1.088212
-3.872583 -0.236639 -1.083959
-3.864382 -0.224269 -1.081018
-3.865729 -0.207959 -1.082204
-3.851602 -0.198104 -1.076723
-3.853807 -0.181367 -1.078296
-3.865047 -0.160625 -1.083781
-3.887135 -0.134925 -1.093963
-4.011233 -0.063430 -1.148274
-4.040006 -0.033471 -1.161395
-4.050248 -0.011604 -1.166503
-4.052355 0.006656 -1.168084
-4.053928 0.024728 -1.169423
-4.047967 0.039266 -1.167482
-4.041900 0.053705 -1.165471
-4.041146 0.070683 -1.165742
-4.049158 0.091993 -1.169790
-4.045475 0.107553 -1.168728
-4.032968 0.118598 -1.163792
-4.014045 0.126190 -1.156021
-4.010250 0.141367 -1.154776
-4.012950 0.159869 -1.156304
-4.021544 0.181483 -1.160340
-4.031429 0.203836 -1.164878
-4.020612 0.248733 -1.160459
-4.014370 0.261953 -1.157684
-4.006207 0.273902 -1.153990
-4.018523 0.297341 -1.159122
-4.011900 0.309858 -1.155922
-4.022745 0.332342 -1.160228
-3.998534 0.365560 -1.147897
-4.003705 0.384132 -1.149345
-4.009389 0.402894 -1.150912
-4.006568 0.416293 -1.148690
-4.008643 0.432514 -1.148490
-4.014878 0.465747 -1.148690
-4.226787 -2.900161 -1.401813
-4.249156 -2.897453 -1.413156
-4.229397 -2.858495 -1.404204
-4.245656 -2.851822 -1.412237
-4.236144 -2.832138 -1.407642
-4.169761 -2.784706 -1.375321
-4.193961 -2.781332 -1.386849
-4.192254 -2.765199 -1.385683
-4.205645 -2.756017 -1.391720
-4.192903 -2.734354 -1.384964
-4.183486 -2.714190 -1.379707
-4.180627 -2.696953 -1.377515
-4.193182 -2.686533 -1.382674
-4.191741 -2.669616 -1.380944
-4.194999 -2.654646 -1.381380
-4.201222 -2.640803 -1.383143
-4.197240 -2.622410 -1.379878
-4.182276 -2.599317 -1.371229
-4.178195 -2.580835 -1.367746
-4.173294 -2.561979 -1.363790
-4.172399 -2.544730 -1.361687
-4.180849 -2.531168 -1.363996
-4.175111 -2.511862 -1.359431
-4.163022 -2.490110 -1.351773
-4.168211 -2.475079 -1.352335
-4.169644 -2.458548 -1.351049
-4.162349 -2.438741 -1.345559
-4.157972 -2.420077 -1.341431
-4.142612 -2.397509 -1.332059
-4.151031 -2.383550 -1.333966
-4.156961 -2.368641 -1.334661
-4.156522 -2.351499 -1.332319
-4.149438 -2.332146 -1.326828
-4.150790 -2.315701 -1.325318
-4.148876 -2.298210 -1.322265
-4.142418 -2.279324 -1.317080
-4.145535 -2.263565 -1.316402
-4.148239 -2.247689 -1.315534
-4.143497 -2.229569 -1.311187
-4.141152 -2.212266 -1.307979
-4.140244 -2.195459 -1.305460
-4.133122 -2.176934 -1.300064
-4.129643 -2.159564 -1.296391
-4.131982 -2.143892 -1.295446
-4.129748 -2.127012 -1.292399
-4.130483 -2.110997 -1.290753
-4.129039 -2.094465 -1.288123
-4.125169 -2.077386 -1.284398
-4.119841 -2.060041 -1.280033
-4.123457 -2.044981 -1.279820
-4.122822 -2.028924 -1.277674
-4.117733 -2.011892 -1.273510
-4.083789 -1.988420 -1.256143
-4.096672 -1.975734 -1.260299
-4.105630 -1.962110 -1.262670
-4.097084 -1.944747 -1.257061
-4.104314 -1.930765 -1.258689
-4.091770 -1.912791 -1.251324
-4.089643 -1.897025 -1.248742
-4.088092 -1.881434 -1.246453
-4.087351 -1.866049 -1.244560
-4.088942 -1.851131 -1.243753
-4.090176 -1.836173 -1.242810
-4.075321 -1.818522 -1.234608
-4.084428 -1.804985 -1.237283
-4.077430 -1.788835 -1.232700
-4.076325 -1.773695 -1.230808
-4.065587 -1.757169 -1.224600
-4.071166 -1.743122 -1.225774
-4.067020 -1.727704 -1.222593
-4.080248 -1.714667 -1.227247
-4.090642 -1.701160 -1.230640
-4.074538 -1.684322 -1.222163
-4.047662 -1.666405 -1.208896
-4.046804 -1.651713 -1.207321
-4.053767 -1.637894 -1.209266
-4.063636 -1.624323 -1.212526
-4.058306 -1.609193 -1.209013
-4.053198 -1.594157 -1.205624
-4.047760 -1.579162 -1.202112
-4.044498 -1.564418 -1.199593
-4.047077 -1.550175 -1.199696
-4.050412 -1.535975 -1.200151
-4.052673 -1.521684 -1.200147
-4.058273 -1.507591 -1.201641
-4.055493 -1.492976 -1.199434
-4.042549 -1.477871 -1.192740
-4.040030 -1.463398 -1.190690
-4.047202 -1.449367 -1.192949
-4.058817 -1.435440 -1.197185
-4.003325 -1.419248 -1.171771
-4.006716 -1.405216 -1.172414
-4.026014 -1.391509 -1.180094
-4.021847 -1.377212 -1.177427
-4.028987 -1.363100 -1.179762
-4.037812 -1.348934 -1.182852
-4.026790 -1.334639 -1.177215
-4.018863 -1.320448 -1.172961
-4.015126 -1.306306 -1.170568
-4.020221 -1.292090 -1.172074
-3.992779 -1.278401 -1.159301
-4.012406 -1.263917 -1.167219
-4.010025 -1.249846 -1.165485
-3.997409 -1.236132 -1.159280
-3.999629 -1.221983 -1.159596
-3.982022 -1.208654 -1.151242
-3.986614 -1.194441 -1.152628
-3.992247 -1.180123 -1.154482
-3.998281 -1.165722 -1.156522
-3.997276 -1.151695 -1.155497
-3.989482 -1.138132 -1.151520
-3.989549 -1.124069 -1.150993
-3.993227 -1.109718 -1.152057
-3.988816 -1.095990 -1.149604
-3.979351 -1.082741 -1.144962
-3.974349 -1.069163 -1.142283
-3.977469 -1.054833 -1.143161
-3.978321 -1.040694 -1.143063
-3.975886 -1.026889 -1.141548
-3.972304 -1.013225 -1.139549
-3.957556 -1.000898 -1.132706
-3.973076 -0.984993 -1.139050
-3.975255 -0.970621 -1.139602
-3.964608 -0.957914 -1.134592
-3.960934 -0.944338 -1.132631
-3.959605 -0.930448 -1.131705
-3.958151 -0.916572 -1.130741
-3.958941 -0.902349 -1.130766
-3.956781 -0.888565 -1.129527
-3.955391 -0.874657 -1.128638
-3.950862 -0.861271 -1.126404
-3.955971 -0.846239 -1.128368
-3.956609 -0.831929 -1.128409
-3.950347 -0.818856 -1.125473
-3.938073 -0.806956 -1.119948
-3.940654 -0.792277 -1.120884
-3.961807 -0.773853 -1.129888
-3.967226 -0.758392 -1.132087
-3.958870 -0.745729 -1.128334
-3.948832 -0.733483 -1.123870
