ply
format ascii 1.0
comment ---
element vertex 1688
property float x
property float y
property float z
element face 0
property list uchar uint vertex_indices
end_header
-3.895719 1.148403 0.234479
-3.888345 1.161907 0.235556
-3.804504 1.141963 0.230928
-3.849601 1.178262 0.235958
-3.872032 1.204967 0.239342
-3.861969 1.217246 0.240288
-3.854519 1.230688 0.241449
-3.859289 1.249801 0.243574
-3.761719 1.220898 0.237719
-3.846805 1.277925 0.246171
-3.823286 1.283672 0.246118
-3.837208 1.307473 0.249051
-3.798337 1.305480 0.247761
-3.802378 1.324517 0.249927
-3.820380 1.350715 0.253255
-3.831588 1.373727 0.256057
-3.809548 1.379786 0.256119
-3.795492 1.389827 0.256830
-3.784820 1.401559 0.257815
-3.834210 1.445274 0.263898
-3.834500 1.463155 0.265836
-3.799781 1.462019 0.264752
-3.802660 1.481256 0.266886
-3.846415 1.523357 0.272596
-3.603567 1.589884 0.270460
-3.579265 1.591402 0.269473
-3.527948 1.591783 0.266990
-3.636765 1.679396 0.278553
-3.574865 1.655681 0.273643
-3.549226 1.688380 0.273821
-3.517043 1.715242 0.272582
-3.509335 1.757928 0.272945
-3.903362 -0.778626 0.171016
-3.897989 -0.754217 0.173530
-3.927753 -0.747928 0.176438
-3.945373 -0.739064 0.178630
-3.936761 -0.725241 0.179311
-3.882407 -0.703352 0.177370
-3.856765 -0.686698 0.176919
-3.906957 -0.682818 0.180633
-3.909612 -0.670665 0.181618
-3.907241 -0.657584 0.182243
-3.907470 -0.644820 0.182940
-3.924329 -0.634458 0.184510
-3.918927 -0.620595 0.184738
-3.931686 -0.609267 0.185934
-3.867081 -0.587060 0.182613
-3.889202 -0.576917 0.184205
-3.912076 -0.566599 0.185778
-3.890266 -0.550415 0.184709
-3.864421 -0.533860 0.183342
-3.851935 -0.519015 0.182688
-3.882112 -0.508988 0.184443
-3.898062 -0.497105 0.185323
-3.927655 -0.486427 0.186939
-3.937839 -0.473519 0.187384
-3.905141 -0.456437 0.185310
-3.879627 -0.440246 0.183613
-3.866153 -0.425268 0.182574
-3.862584 -0.411172 0.182072
-3.883993 -0.398974 0.182971
-3.830446 -0.381195 0.179551
-3.841840 -0.368221 0.179825
-3.848333 -0.354814 0.179794
-3.866055 -0.341975 0.180381
-3.885994 -0.329075 0.181073
-3.877237 -0.314581 0.180124
-3.866629 -0.300072 0.179062
-3.875261 -0.286408 0.179077
-3.861723 -0.271883 0.177841
-3.848610 -0.257487 0.176630
-3.822682 -0.242877 0.174708
-3.839887 -0.229408 0.175192
-3.870862 -0.216005 0.176436
-3.847533 -0.201670 0.174674
-3.824162 -0.187547 0.172923
-3.833704 -0.173726 0.172996
-3.838947 -0.159825 0.172839
-3.862283 -0.145757 0.173681
-3.899046 -0.131325 0.175260
-4.027868 -0.026419 0.179576
-4.036976 -0.011202 0.179750
-4.033896 0.003460 0.179290
-4.039506 0.018591 0.179314
-4.018711 0.032145 0.177951
-4.015223 0.046659 0.177534
-4.034821 0.062781 0.178366
-4.051658 0.078878 0.179072
-4.036633 0.092581 0.178106
-3.981923 0.102787 0.175060
-3.975272 0.116789 0.174587
-4.047236 0.138123 0.178301
-4.033354 0.151666 0.177489
-3.992033 0.162256 0.175249
-4.020101 0.179954 0.176704
-4.029842 0.195861 0.177211
-4.021891 0.209796 0.176807
-4.021030 0.224532 0.176799
-3.998353 0.236516 0.175661
-3.965927 0.247026 0.174027
-3.967420 0.261847 0.174213
-4.006470 0.281963 0.176414
-4.015709 0.298137 0.177058
-3.998701 0.310488 0.176332
-4.000479 0.325595 0.176627
-4.017551 0.343165 0.177760
-4.011065 0.357060 0.177661
-3.985382 0.367685 0.176559
-3.976861 0.381056 0.176394
-3.969537 0.394581 0.176315
-3.980223 0.411341 0.177225
-3.994388 0.428874 0.178348
-4.008285 0.446512 0.179483
-3.980092 0.456039 0.178368
-3.960849 0.467126 0.177754
-3.958013 0.481433 0.178049
-3.962030 0.497182 0.178741
-3.929204 0.505064 0.177443
-3.940052 0.522273 0.178552
-3.942799 0.537793 0.179243
-3.921900 0.547939 0.178653
-3.942840 0.567724 0.180396
-3.947663 0.583885 0.181275
-3.951728 0.599939 0.182137
-3.965081 0.618378 0.183545
-3.960228 0.632361 0.183958
-3.933508 0.640680 0.183160
-3.932092 0.655439 0.183808
-3.942507 0.673395 0.185152
-3.947646 0.690049 0.186225
-3.936169 0.702174 0.186371
-3.943174 0.719454 0.187602
-3.956126 0.738554 0.189207
-3.981388 0.777074 0.192477
-3.937346 0.779436 0.190827
-3.915739 0.788307 0.190503
-3.922656 0.805924 0.191887
-3.928829 0.823420 0.193258
-3.898317 0.829191 0.192454
-3.894187 0.843347 0.193251
-3.879547 0.854015 0.193432
-3.891286 0.873493 0.195243
-3.889029 0.888344 0.196228
-3.889136 0.904046 0.197385
-3.900909 0.923922 0.199295
-3.914418 0.944594 0.201352
-3.910551 0.959149 0.202350
-3.914809 0.976715 0.203890
-3.886367 0.982166 0.203372
-3.890380 0.999675 0.204945
-3.899644 1.019304 0.206891
-3.897831 1.034778 0.208150
-3.869206 1.039717 0.207675
-3.856801 1.050903 0.208276
-3.872089 1.073242 0.210737
-3.867712 1.087737 0.211921
-3.870834 1.105370 0.213637
-3.878906 1.125189 0.215720
-3.884287 1.144017 0.217655
-3.885778 1.161291 0.219354
-3.880492 1.175689 0.220610
-3.878663 1.191632 0.222130
-3.867103 1.203264 0.222987
-3.856315 1.215194 0.223912
-3.858311 1.232951 0.225768
-3.850634 1.246307 0.226951
-3.844649 1.260448 0.228272
-3.833338 1.272062 0.229217
-3.834518 1.289643 0.231097
-3.831617 1.305323 0.232693
-3.833364 1.323338 0.234656
-3.833831 1.340811 0.236541
-3.830121 1.356256 0.238123
-3.829337 1.373228 0.239941
-3.831820 1.391952 0.242025
-3.826540 1.406726 0.243514
-3.816023 1.418747 0.244589
-3.818180 1.437481 0.246668
-3.820392 1.456340 0.248758
-3.822502 1.475237 0.250842
-3.813641 1.488177 0.252032
-3.802763 1.499951 0.253038
-3.789874 1.510525 0.253854
-3.587153 1.581178 0.254744
-3.557535 1.579290 0.253452
-3.553750 1.593633 0.254406
-3.602760 1.659189 0.261277
-3.613612 1.683380 0.263392
-3.536992 1.715462 0.260723
-3.511088 1.713824 0.258929
-3.556752 1.778551 0.264188
-3.554343 1.793187 0.264324
-3.550723 1.823032 0.264431
-3.923719 -0.785053 0.160194
-3.916836 -0.771917 0.161222
-3.904816 -0.757723 0.161913
-3.952394 -0.730012 0.167755
-3.937891 -0.714944 0.168005
-3.867395 -0.690256 0.165265
-3.904848 -0.684134 0.168032
-3.908784 -0.672111 0.168987
-3.899226 -0.657795 0.169158
-3.899794 -0.645027 0.169783
-3.914595 -0.634305 0.171087
-3.945011 -0.625655 0.173150
-3.902381 -0.606231 0.171265
-3.888614 -0.591076 0.170837
-3.931273 -0.583517 0.173349
-3.919359 -0.568430 0.172887
-3.897658 -0.552142 0.171836
-3.868513 -0.535072 0.170326
-3.876636 -0.522534 0.170751
-3.916941 -0.513468 0.172840
-3.916121 -0.499558 0.172679
-3.881626 -0.482126 0.170673
-3.894824 -0.469659 0.171166
-3.891757 -0.455496 0.170751
-3.869286 -0.439578 0.169267
-3.861066 -0.425039 0.168508
-3.866479 -0.411639 0.168439
-3.860188 -0.397270 0.167724
-3.859930 -0.383361 0.167302
-3.847557 -0.368621 0.166222
-3.852476 -0.355051 0.166032
-3.858091 -0.341458 0.165860
-3.867068 -0.327976 0.165847
-3.854581 -0.313357 0.164709
-3.851949 -0.299274 0.164075
-3.864019 -0.285786 0.164194
-3.873320 -0.272083 0.164164
-3.852564 -0.257382 0.162590
-3.840995 -0.243102 0.161493
-3.851155 -0.229382 0.161508
-3.877220 -0.215827 0.162330
-3.847194 -0.201370 0.160316
-3.828782 -0.187274 0.158905
-3.823798 -0.173381 0.158183
-3.829403 -0.159513 0.158002
-3.847503 -0.145512 0.158456
-3.898031 -0.130980 0.160531
-4.015214 -0.041284 0.163921
-4.018293 -0.026424 0.163728
-4.014357 -0.011874 0.163213
-4.036868 0.004034 0.164007
-4.036446 0.018836 0.163702
-4.026375 0.033039 0.162951
-4.026187 0.047808 0.162702
-4.035724 0.063269 0.162945
-4.035083 0.078052 0.162717
-4.038066 0.093123 0.162687
-3.975826 0.102690 0.159533
-3.987172 0.118274 0.159953
-4.022353 0.136212 0.161542
-4.015229 0.150305 0.161116
-3.985663 0.162021 0.159633
-4.037698 0.182282 0.162098
-4.043698 0.197850 0.162372
-4.031872 0.211395 0.161811
-4.009017 0.223498 0.160743
-3.973092 0.233748 0.159068
-3.972889 0.248361 0.159134
-3.969082 0.262496 0.159049
-3.966127 0.276729 0.159028
-4.003177 0.296750 0.160959
-3.998261 0.310852 0.160889
-3.994958 0.325173 0.160920
-4.001793 0.341093 0.161464
-4.004202 0.356370 0.161817
-3.984668 0.367995 0.161128
-3.972003 0.380646 0.160792
-3.976732 0.396290 0.161324
-3.980129 0.411757 0.161815
-3.972026 0.425126 0.161767
-3.945139 0.434840 0.160816
-3.989320 0.458290 0.163380
-3.962568 0.467907 0.162477
-3.984864 0.487400 0.164018
-3.952773 0.495671 0.162887
-3.931539 0.506003 0.162311
-3.925766 0.519566 0.162523
-3.927903 0.534883 0.163152
-3.927898 0.549757 0.163697
-3.934769 0.566275 0.164612
-3.952556 0.585503 0.166106
-3.957779 0.601866 0.166990
-3.961809 0.618016 0.167840
-3.957333 0.632080 0.168278
-3.945201 0.644156 0.168344
-3.930460 0.655462 0.168293
-3.943030 0.673992 0.169678
-3.928910 0.685388 0.169700
-3.937795 0.703084 0.170946
-3.939046 0.718746 0.171819
-3.954636 0.738590 0.173476
-3.971173 0.774503 0.176108
-3.954744 0.785170 0.176139
-3.928847 0.792805 0.175674
-3.923748 0.806731 0.176351
-3.922973 0.822028 0.177286
-3.928329 0.839342 0.178586
-3.935384 0.857316 0.180009
-3.912098 0.865313 0.179771
-3.888994 0.873186 0.179555
-3.894749 0.890774 0.180978
-3.898525 0.907784 0.182319
-3.907328 0.926661 0.183978
-3.911655 0.944079 0.185413
-3.907800 0.958625 0.186405
-3.881602 0.964952 0.186117
-3.888947 0.983605 0.187808
-3.901659 1.004426 0.189851
-3.917291 1.026563 0.192106
-3.917978 1.043105 0.193506
-3.902474 1.053326 0.193955
-3.860871 1.053009 0.192828
-3.869134 1.072526 0.194754
-3.869890 1.089115 0.196252
-3.849518 1.096989 0.196460
-3.849922 1.113467 0.197983
-3.884098 1.144431 0.201675
-3.889321 1.196862 0.206810
-3.860904 1.200994 0.206606
-3.844743 1.227237 0.208892
-3.856961 1.249780 0.211423
-3.857674 1.267118 0.213213
-3.843645 1.277518 0.214021
-3.844518 1.295020 0.215863
-3.843162 1.311523 0.217573
-3.848371 1.331327 0.219762
-3.847323 1.348145 0.221535
-3.838339 1.361023 0.222758
-3.832461 1.375461 0.224211
-3.842813 1.398288 0.226848
-3.846563 1.417865 0.229028
-3.829311 1.426471 0.229673
-3.818923 1.438614 0.230816
-3.821129 1.457506 0.232897
-3.823912 1.476811 0.235028
-3.816653 1.490679 0.236397
-3.800637 1.499645 0.237079
-3.780810 1.506336 0.237439
-3.587108 1.582712 0.240468
-3.603520 1.661637 0.247217
-3.612308 1.684579 0.249162
-3.612777 1.702061 0.250320
-3.604054 1.713334 0.250602
-3.587260 1.718984 0.250092
-3.593955 1.740503 0.251557
-3.584035 1.750566 0.251477
-3.563394 1.752980 0.250358
-3.546206 1.774004 0.249970
-3.561823 1.834418 0.252385
-3.562547 1.851243 0.252605
-3.991055 -0.824727 0.148368
-3.930879 -0.776911 0.149802
-3.921391 -0.763054 0.150583
-3.929020 -0.752370 0.152076
-3.949258 -0.743827 0.154087
-3.959509 -0.733200 0.155561
-3.933841 -0.716034 0.155255
-3.909787 -0.699236 0.154933
-3.906531 -0.686020 0.155520
-3.916137 -0.674832 0.156647
-3.879390 -0.656041 0.155457
-3.893091 -0.645313 0.156629
-3.901997 -0.633643 0.157498
-3.908979 -0.621518 0.158202
-3.928517 -0.611037 0.159451
-3.997811 -0.607199 0.163071
-3.946079 -0.586417 0.160694
-3.935194 -0.571314 0.160253
-3.926806 -0.556544 0.159871
-3.904086 -0.540042 0.158726
-3.899265 -0.525765 0.158405
-3.913393 -0.513596 0.158959
-3.892971 -0.497522 0.157772
-3.883587 -0.482719 0.157080
-3.888135 -0.469329 0.157027
-3.899157 -0.456465 0.157249
-3.885701 -0.441266 0.156243
-3.868474 -0.425833 0.155025
-3.864918 -0.411628 0.154443
-3.865318 -0.397729 0.154027
-3.855603 -0.383079 0.153103
-3.860960 -0.369505 0.152883
-3.853662 -0.355075 0.152041
-3.856166 -0.341263 0.151654
-3.856326 -0.327290 0.151144
-3.851188 -0.313048 0.150375
-3.845966 -0.298841 0.149599
-3.851439 -0.285096 0.149322
-3.853759 -0.271185 0.148895
-3.840686 -0.256787 0.147752
-3.841262 -0.242854 0.147249
-3.873314 -0.229572 0.148202
-3.865464 -0.215345 0.147317
-3.836640 -0.200947 0.145481
-3.832883 -0.186992 0.144809
-3.842660 -0.173106 0.144763
-3.861384 -0.159113 0.145132
-3.865933 -0.145045 0.144868
-3.893230 -0.130680 0.145641
-4.017874 -0.026040 0.148388
-4.031479 -0.010644 0.148655
-4.063118 0.005829 0.149733
-4.020415 0.018328 0.147568
-4.034320 0.033943 0.147908
-4.030438 0.048504 0.147491
-4.022834 0.062767 0.146934
-4.028656 0.077980 0.146985
-4.014760 0.091666 0.146200
-3.998821 0.105054 0.145351
-4.000854 0.119912 0.145305
-4.020759 0.136479 0.146056
-3.995333 0.148755 0.144865
-3.997238 0.163632 0.144880
-4.036613 0.182585 0.146541
-4.042622 0.198150 0.146779
-4.021490 0.210597 0.145865
-3.998149 0.222591 0.144879
-3.970513 0.233836 0.143729
-3.978714 0.249540 0.144153
-3.974776 0.263684 0.144073
-3.989245 0.280392 0.144813
-4.003513 0.297221 0.145569
-3.989267 0.309926 0.145109
-3.987125 0.324385 0.145197
-4.002548 0.341637 0.146072
-3.998823 0.355915 0.146136
-3.970886 0.366098 0.145163
-3.964394 0.379753 0.145147
-3.986583 0.398468 0.146412
-3.990014 0.413989 0.146878
-3.964532 0.424152 0.146091
-3.959720 0.438065 0.146235
-3.968342 0.454599 0.146996
-3.979475 0.471745 0.147893
-3.988812 0.488652 0.148735
-3.971728 0.500102 0.148420
-3.951491 0.510739 0.147980
-3.940594 0.523269 0.147978
-3.934515 0.536809 0.148212
-3.939230 0.552802 0.148957
-3.941226 0.568233 0.149602
-3.957905 0.587231 0.150943
-3.966596 0.604470 0.151945
-3.955671 0.616939 0.152068
-3.948825 0.630373 0.152399
-3.935464 0.642090 0.152447
-3.918267 0.652702 0.152333
-3.910639 0.665752 0.152684
-3.943516 0.689840 0.154970
-3.937335 0.703418 0.155439
-3.923853 0.714907 0.155581
-3.951465 0.738144 0.157713
-3.969531 0.774487 0.160290
-3.947310 0.783391 0.160097
-3.931077 0.793963 0.160211
-3.923466 0.807116 0.160766
-3.918360 0.821035 0.161466
-3.927475 0.839543 0.162901
-3.916726 0.851676 0.163367
-3.899919 0.861734 0.163544
-3.915420 0.882593 0.165385
-3.909050 0.896157 0.166140
-3.904282 0.910267 0.166999
-3.908483 0.927550 0.168349
-3.907947 0.943234 0.169481
-3.899971 0.956263 0.170247
-3.888208 0.967870 0.170831
-3.903102 0.989381 0.172865
-3.906141 1.006613 0.174298
-3.910111 1.024294 0.175812
-3.917977 1.043597 0.177572
-3.903991 1.054417 0.178157
-3.885515 1.063357 0.178508
-3.866835 1.072084 0.178859
-3.864284 1.087304 0.180137
-3.860597 1.102091 0.181375
-3.858059 1.117391 0.182705
-3.866789 1.137543 0.184716
-3.896269 1.166832 0.187982
-3.890749 1.181191 0.189234
-3.871834 1.189625 0.189709
-3.850366 1.196781 0.190037
-3.825973 1.219131 0.191843
-3.851528 1.247785 0.195103
-3.853003 1.265459 0.196912
-3.850487 1.281327 0.198497
-3.846773 1.296667 0.200026
-3.840326 1.310710 0.201400
-3.837323 1.326458 0.203010
-3.843082 1.346626 0.205212
-3.832695 1.358785 0.206374
-3.829388 1.374520 0.208013
-3.835856 1.395345 0.210323
-3.841380 1.415832 0.212591
-3.826042 1.425439 0.213451
-3.815793 1.437662 0.214653
-3.815809 1.455383 0.216567
-3.819802 1.475350 0.218767
-3.807906 1.486667 0.219847
-3.865794 1.555145 0.227869
-3.573535 1.575648 0.225023
-3.566701 1.588334 0.225941
-3.579262 1.613426 0.228353
-3.589364 1.637080 0.230524
-3.590160 1.654757 0.231890
-3.593262 1.691118 0.234553
-3.607515 1.717866 0.236825
-3.589100 1.739587 0.237278
-3.534765 1.752189 0.235056
-3.980739 -0.836866 0.134257
-3.970126 -0.822868 0.135293
-3.967534 -0.810456 0.136573
-3.910411 -0.786989 0.135511
-3.907687 -0.774538 0.136606
-3.927262 -0.766282 0.138563
-3.951627 -0.758653 0.140659
-3.952700 -0.746396 0.141691
-3.950591 -0.733431 0.142507
-3.918191 -0.715003 0.141926
-3.905128 -0.700064 0.142093
-3.927726 -0.691137 0.143742
-3.885520 -0.671245 0.142465
-3.899389 -0.660595 0.143578
-3.889210 -0.645969 0.143552
-3.887837 -0.632670 0.143841
-3.902317 -0.621628 0.144766
-3.899644 -0.607913 0.144856
-3.910148 -0.595966 0.145467
-3.914859 -0.583067 0.145755
-3.931859 -0.571650 0.146529
-3.936517 -0.558457 0.146690
-3.942244 -0.545284 0.146841
-3.913983 -0.528025 0.145420
-3.882075 -0.510550 0.143790
-3.884346 -0.496997 0.143637
-3.877446 -0.482427 0.143034
-3.892748 -0.470069 0.143375
-3.894864 -0.456290 0.143094
-3.886426 -0.441508 0.142314
-3.875827 -0.426587 0.141411
-3.872003 -0.412280 0.140782
-3.871666 -0.398250 0.140283
-3.869875 -0.384097 0.139700
-3.872222 -0.370219 0.139280
-3.869360 -0.355979 0.138621
-3.858354 -0.341284 0.137603
-3.855619 -0.327118 0.136933
-3.863689 -0.313493 0.136717
-3.857484 -0.299161 0.135891
-3.842610 -0.284541 0.134700
-3.837472 -0.270393 0.133924
-3.831012 -0.256250 0.133098
-3.856028 -0.242967 0.133588
-3.873327 -0.229292 0.133756
-3.857364 -0.214921 0.132553
-3.844155 -0.200731 0.131479
-3.845973 -0.186770 0.131035
-3.857856 -0.172818 0.131012
-3.866463 -0.158767 0.130865
-3.885350 -0.144570 0.131146
-3.991727 -0.056037 0.132787
-4.007364 -0.040800 0.133027
-4.035993 -0.024854 0.133795
-4.046658 -0.009513 0.133874
-4.040281 0.005025 0.133304
-4.035108 0.019573 0.132804
-4.022678 0.033623 0.132045
-4.039333 0.049501 0.132440
-4.025111 0.063333 0.131657
-4.028848 0.078400 0.131593
-4.024461 0.092851 0.131237
-4.006892 0.106144 0.130395
-4.017722 0.121829 0.130673
-3.991442 0.134119 0.129542
-4.017896 0.151392 0.130466
-4.001423 0.164470 0.129759
-4.000598 0.179098 0.129677
-4.024433 0.196510 0.130567
-4.000324 0.208521 0.129634
-3.999248 0.223132 0.129610
-4.000719 0.238068 0.129706
-4.012098 0.254331 0.130206
-3.989339 0.266072 0.129413
-3.984927 0.280195 0.129349
-4.008186 0.298312 0.130375
-3.998501 0.311723 0.130151
-3.970150 0.322175 0.129226
-4.003237 0.342164 0.130702
-3.996941 0.356024 0.130675
-3.975320 0.367262 0.130072
-3.954413 0.378440 0.129516
-3.982191 0.398108 0.130880
-3.994296 0.415196 0.131657
-3.978057 0.427109 0.131346
-3.973120 0.441063 0.131498
-3.975878 0.456510 0.131974
-3.982920 0.472870 0.132643
-3.974987 0.486235 0.132740
-3.973748 0.500964 0.133125
-3.968219 0.514782 0.133359
-3.961147 0.528236 0.133551
-3.953874 0.541607 0.133755
-3.950275 0.555783 0.134127
-3.948117 0.570294 0.134579
-3.951781 0.586211 0.135291
-3.961069 0.603570 0.136257
-3.954224 0.617031 0.136583
-3.937464 0.627940 0.136519
-3.909306 0.635771 0.135995
-3.919434 0.653464 0.137085
-3.928311 0.670956 0.138150
-3.936404 0.688357 0.139208
-3.928775 0.701499 0.139624
-3.934170 0.718296 0.140618
-3.906277 0.725590 0.140204
-3.964064 0.773337 0.144355
-3.924677 0.777010 0.143495
-3.925305 0.792662 0.144404
-3.904277 0.801587 0.144376
-3.922018 0.822678 0.146094
-3.913649 0.835559 0.146672
-3.900062 0.846692 0.147034
-3.902046 0.862925 0.148123
-3.926212 0.886729 0.150261
-3.918186 0.899781 0.150948
-3.904909 0.910973 0.151411
-3.882577 0.918884 0.151465
-3.900560 0.941076 0.153441
-3.910436 0.960561 0.155070
-3.910874 0.976723 0.156279
-3.899647 0.988584 0.156949
-3.886404 0.999623 0.157540
-3.861724 1.006187 0.157582
-3.884442 1.031028 0.159993
-3.891375 1.049935 0.161658
-3.887395 1.064610 0.162804
-3.874201 1.075571 0.163504
-3.869219 1.089833 0.164645
-3.882495 1.111710 0.166759
-3.870198 1.123014 0.167572
-3.861215 1.135671 0.168577
-3.877687 1.175989 0.172505
-3.869344 1.189040 0.173620
-3.855516 1.199613 0.174453
-3.832188 1.222516 0.176401
-3.832991 1.239692 0.178103
-3.840819 1.260264 0.180234
-3.843221 1.278415 0.182086
-3.853732 1.300585 0.184440
-3.827272 1.304909 0.184651
-3.804990 1.311074 0.185102
-3.836267 1.343817 0.188770
-3.836889 1.361512 0.190635
-3.838554 1.379828 0.192585
-3.834658 1.395369 0.194211
-3.824674 1.407764 0.195467
-3.815121 1.420350 0.196754
-3.815712 1.438323 0.198689
-3.821552 1.459219 0.200974
-3.816054 1.474066 0.202537
-3.807494 1.487232 0.203897
-3.802539 1.502383 0.205490
-3.837519 1.540077 0.209753
-3.564941 1.571657 0.209993
-3.571789 1.593096 0.212003
-3.592055 1.623275 0.214977
-3.589598 1.638940 0.216206
-3.570797 1.643850 0.216136
-3.549731 1.647022 0.215814
-3.561924 1.672167 0.217961
-3.578013 1.700079 0.220350
-3.575115 1.715233 0.221207
-3.579051 1.752089 0.223444
-3.571819 1.764056 0.223719
-3.546374 1.763029 0.222468
-3.547144 1.780303 0.223191
-3.522305 1.779136 0.221794
-3.560843 1.840119 0.225723
-3.567536 1.861589 0.226553
-3.558120 1.871101 0.226002
-3.994729 -0.854155 0.121076
-3.964094 -0.835846 0.121437
-3.932876 -0.817509 0.121673
-3.888572 -0.796589 0.121320
-3.886794 -0.784441 0.122452
-3.883162 -0.771811 0.123435
-3.911203 -0.765213 0.125549
-3.940550 -0.758516 0.127653
-3.964565 -0.750469 0.129487
-3.932026 -0.731837 0.129040
-3.904649 -0.714264 0.128700
-3.910410 -0.702546 0.129580
-3.909305 -0.689505 0.130109
-3.935767 -0.680913 0.131662
-3.888955 -0.660207 0.130209
-3.893695 -0.647869 0.130741
-3.890850 -0.634238 0.130896
-3.887570 -0.620474 0.130962
-3.900571 -0.608990 0.131615
-3.887271 -0.593645 0.131141
-3.886126 -0.579977 0.131094
-3.912750 -0.569868 0.132106
-3.920777 -0.557110 0.132309
-3.939268 -0.545488 0.132878
-3.863667 -0.522626 0.129610
-3.881056 -0.510856 0.130037
-3.892628 -0.498250 0.130183
-3.877849 -0.482767 0.129234
-3.876952 -0.468750 0.128803
-3.878362 -0.454923 0.128431
-3.871955 -0.440348 0.127719
-3.857970 -0.425158 0.126684
-3.853898 -0.410870 0.126018
-3.862861 -0.397589 0.125841
-3.877867 -0.384640 0.125878
-3.877685 -0.370521 0.125309
-3.876834 -0.356350 0.124702
-3.919889 -0.344706 0.125765
-3.859925 -0.327195 0.122888
-3.863438 -0.313305 0.122432
-3.862756 -0.299193 0.121816
-3.848041 -0.284536 0.120674
-3.841905 -0.270310 0.119861
-3.850645 -0.256587 0.119606
-3.851564 -0.242585 0.119066
-3.852113 -0.228569 0.118520
-3.857362 -0.214627 0.118155
-3.847244 -0.200463 0.117240
-3.849271 -0.186479 0.116780
-3.852477 -0.172483 0.116376
-3.860250 -0.158451 0.116147
-3.859306 -0.144412 0.115621
-4.028936 -0.024776 0.118176
-4.015483 -0.010633 0.117367
-4.020222 0.004351 0.117208
-4.018543 0.019009 0.116849
-4.022872 0.034026 0.116718
-4.009881 0.047926 0.116018
-4.044729 0.065127 0.116970
-4.033493 0.079147 0.116374
-4.023467 0.093165 0.115843
-4.022781 0.107891 0.115651
-4.026559 0.123018 0.115633
-4.015197 0.136755 0.115126
-3.990635 0.149086 0.114197
-3.987654 0.163436 0.114020
-4.007941 0.180288 0.114648
-4.000296 0.194182 0.114357
-3.995820 0.208388 0.114195
-3.997125 0.223271 0.114249
-4.011701 0.239860 0.114773
-4.006314 0.253973 0.114647
-3.986466 0.266081 0.114055
-3.996913 0.282283 0.114506
-3.995520 0.296876 0.114579
-3.999974 0.312350 0.114872
-4.011621 0.328995 0.115431
-3.974485 0.337991 0.114357
-3.997871 0.356588 0.115358
-3.994761 0.370952 0.115481
-3.987346 0.384561 0.115478
-3.989943 0.399904 0.115838
-3.958509 0.409073 0.115051
-3.968119 0.425665 0.115693
-3.965192 0.439961 0.115925
-3.987173 0.459158 0.117042
-3.960088 0.468694 0.116478
-3.973276 0.486311 0.117335
-3.975471 0.501759 0.117831
-3.969450 0.515482 0.118061
-3.964170 0.529339 0.118336
-3.960561 0.543552 0.118691
-3.959800 0.558416 0.119168
-3.951043 0.571424 0.119380
-3.946282 0.585339 0.119754
-3.947866 0.600792 0.120378
-3.946919 0.615662 0.120932
-3.959977 0.634117 0.122020
-3.968941 0.651674 0.122985
-3.955423 0.663420 0.123144
-3.945094 0.675928 0.123440
-3.926689 0.686164 0.123452
-3.925023 0.700921 0.124107
-3.918282 0.714262 0.124593
-3.939921 0.735762 0.126179
-3.956138 0.771456 0.128411
-3.932702 0.779923 0.128342
-3.923117 0.792470 0.128826
-3.923794 0.808181 0.129735
-3.920097 0.822553 0.130494
-3.913586 0.836026 0.131164
-3.918658 0.853284 0.132321
-3.927828 0.872008 0.133673
-3.904087 0.879740 0.133708
-3.916748 0.899783 0.135257
-3.912650 0.914168 0.136142
-3.905022 0.927316 0.136902
-3.892806 0.938794 0.137489
-3.919894 0.964506 0.139773
-3.909211 0.976614 0.140476
-3.891821 0.986160 0.140906
-3.879371 0.997459 0.141567
-3.872303 1.010759 0.142484
-3.872986 1.027068 0.143770
-3.888392 1.049266 0.145747
-3.890752 1.066466 0.147172
-3.883018 1.079660 0.148164
-3.878990 1.094362 0.149349
-3.884753 1.113167 0.151018
-3.878102 1.126865 0.152133
-3.868994 1.139512 0.153153
-3.897331 1.185122 0.157525
-3.870373 1.190026 0.157747
-3.840399 1.226830 0.161007
-3.837679 1.242416 0.162501
-3.815633 1.248942 0.163016
-3.845010 1.279825 0.166233
-3.847566 1.298176 0.168085
-3.838769 1.311093 0.169357
-3.826172 1.322114 0.170437
-3.824989 1.338777 0.172152
-3.838219 1.362792 0.174686
-3.853676 1.388181 0.177383
-3.836480 1.396950 0.178269
-3.816830 1.404318 0.179012
-3.806064 1.416234 0.180262
-3.818941 1.440745 0.182897
-3.826658 1.462700 0.185255
-3.820682 1.477342 0.186817
-3.810422 1.489626 0.188120
-3.814053 1.509620 0.190264
-3.819441 1.530725 0.192525
-3.573675 1.561378 0.194567
-3.574455 1.579051 0.196208
-3.570294 1.593605 0.197467
-3.581666 1.618138 0.199758
-3.586493 1.638567 0.201552
-3.568971 1.644379 0.201718
-3.545847 1.646257 0.201410
-3.521668 1.647135 0.200943
-3.544960 1.679779 0.203808
-3.563587 1.760774 0.209235
-3.546793 1.782759 0.209544
-3.555858 1.806070 0.210857
-3.529496 1.917885 0.210629
-3.538642 1.940892 0.211099
-3.982943 -0.865854 0.106932
-3.975686 -0.852582 0.108168
-3.930952 -0.831223 0.108106
-3.906662 -0.814354 0.108602
-3.886316 -0.798347 0.109132
-3.876103 -0.784414 0.109910
-3.914126 -0.779988 0.112238
-3.924918 -0.769846 0.113580
-3.940334 -0.760370 0.115007
-3.910037 -0.742132 0.114770
-3.895044 -0.726805 0.114975
-3.896855 -0.714473 0.115684
-3.896839 -0.701692 0.116251
-3.925567 -0.693678 0.117762
-3.920245 -0.679678 0.117987
-3.904699 -0.663970 0.117768
-3.893645 -0.648999 0.117633
-3.905094 -0.637462 0.118233
-3.895712 -0.622646 0.118015
-3.881383 -0.607113 0.117549
-3.886081 -0.594279 0.117705
-3.905915 -0.583373 0.118343
-3.946542 -0.574936 0.119669
-3.930964 -0.558977 0.118916
-3.901447 -0.541399 0.117614
-3.871407 -0.523969 0.116248
-3.853571 -0.508134 0.115279
-3.916523 -0.501149 0.117139
-3.895287 -0.484830 0.115968
-3.869205 -0.468187 0.114597
-3.875633 -0.454820 0.114343
-3.857299 -0.439138 0.113196
-3.843929 -0.424023 0.112203
-3.838387 -0.409640 0.111464
-3.859104 -0.397288 0.111611
-3.872574 -0.384211 0.111488
-3.880478 -0.370624 0.111160
-3.879738 -0.356417 0.110527
-3.876740 -0.342079 0.109812
-3.870140 -0.327572 0.108975
-3.863691 -0.313129 0.108144
-3.861459 -0.298929 0.107455
-3.856425 -0.284639 0.106677
-3.860200 -0.270700 0.106193
-3.871739 -0.256959 0.105966
-3.862548 -0.242592 0.105075
-3.848514 -0.228213 0.104042
-3.857511 -0.214335 0.103757
-3.852866 -0.200225 0.103051
-3.849407 -0.186169 0.102396
-3.848872 -0.172157 0.101848
-3.854788 -0.158139 0.101516
-3.865002 -0.144041 0.101331
-3.920385 -0.129324 0.102548
-4.047276 -0.038477 0.103772
-4.011003 -0.025189 0.102318
-4.014984 -0.010282 0.102088
-4.018951 0.004661 0.101879
-4.020941 0.019525 0.101633
-4.010635 0.033642 0.101047
-4.018645 0.048892 0.101021
-4.019106 0.063677 0.100796
-4.027421 0.079067 0.100821
-4.022585 0.093476 0.100486
-4.022668 0.108265 0.100316
-4.020061 0.122817 0.100090
-4.015466 0.137164 0.099829
-3.995696 0.149969 0.099152
-3.996646 0.164752 0.099097
-4.002593 0.180093 0.099208
-4.004436 0.195036 0.099223
-3.997992 0.209030 0.099020
-3.995665 0.223479 0.098957
-4.008398 0.239831 0.099352
-4.001785 0.253768 0.099210
-3.978596 0.265399 0.098609
-3.982833 0.280693 0.098822
-4.000154 0.297946 0.099437
-4.011322 0.314451 0.099895
-3.994814 0.326793 0.099572
-4.004034 0.343103 0.100017
-3.992270 0.356072 0.099872
-3.984999 0.369709 0.099878
-3.992026 0.385780 0.100324
-3.977696 0.398132 0.100163
-3.966995 0.411034 0.100128
-3.966266 0.425730 0.100407
-3.975421 0.442344 0.101001
-3.953920 0.453027 0.100703
-3.970778 0.471272 0.101569
-3.963056 0.484627 0.101722
-3.988668 0.504977 0.102899
-3.974347 0.516972 0.102894
-3.959777 0.528804 0.102898
-3.963019 0.544544 0.103465
-3.967026 0.560521 0.104076
-3.964310 0.574987 0.104503
-3.961116 0.589343 0.104934
-3.950308 0.601839 0.105149
-3.956647 0.618542 0.105920
-3.958353 0.634162 0.106568
-3.970821 0.652624 0.107582
-3.969574 0.667621 0.108182
-3.957848 0.679825 0.108467
-3.938458 0.689853 0.108520
-3.918157 0.699476 0.108556
-3.927556 0.717364 0.109584
-3.932326 0.780295 0.112855
-3.925754 0.793771 0.113467
-3.924798 0.808987 0.114293
-3.922808 0.823910 0.115106
-3.926697 0.840761 0.116148
-3.939128 0.860504 0.117519
-3.928840 0.872848 0.118112
-3.914120 0.883637 0.118564
-3.911888 0.898619 0.119486
-3.924551 0.918824 0.120977
-3.919565 0.932969 0.121850
-3.921342 0.949545 0.122998
-3.911104 0.961821 0.123721
-3.894466 0.971685 0.124220
-3.883768 0.983659 0.124962
-3.887413 1.001026 0.126278
-3.886252 1.016642 0.127437
-3.884673 1.032144 0.128605
-3.889958 1.050406 0.130075
-3.896008 1.069095 0.131608
-3.890568 1.083249 0.132705
-3.878654 1.094749 0.133558
-3.877781 1.110790 0.134890
-3.876990 1.126925 0.136254
-3.883288 1.146152 0.137947
-3.890432 1.165886 0.139712
-3.890495 1.182667 0.141205
-3.862582 1.187107 0.141492
-3.857471 1.201561 0.142797
-3.854426 1.216974 0.144219
-3.846576 1.230219 0.145447
-3.845706 1.246707 0.147016
-3.841567 1.261722 0.148460
-3.829973 1.273214 0.149574
-3.841494 1.295816 0.151807
-3.838969 1.311769 0.153400
-3.830019 1.324600 0.154701
-3.829191 1.341472 0.156419
-3.838974 1.363783 0.158691
-3.849738 1.386794 0.161048
-3.841860 1.400370 0.162482
-3.817555 1.405347 0.163074
-3.814877 1.421562 0.164791
-3.824837 1.444588 0.167194
-3.831229 1.465886 0.169432
-3.825111 1.480501 0.171011
-3.825173 1.498541 0.172933
-3.822629 1.515206 0.174719
-3.835719 1.540748 0.177389
-3.593249 1.574900 0.181198
-3.589147 1.589681 0.182570
-3.568943 1.594152 0.182871
-3.557647 1.604141 0.183681
-3.567626 1.627864 0.185815
-3.571614 1.647785 0.187515
-3.547552 1.649136 0.187315
-3.531436 1.655510 0.187561
-3.531911 1.672898 0.188837
-3.554663 1.705487 0.191547
-3.564579 1.729494 0.193336
-3.556381 1.741003 0.193823
-3.545249 1.750316 0.194024
-3.540859 1.764220 0.194600
-3.554109 1.790614 0.196307
-3.558382 1.911079 0.199610
-3.939152 -0.858730 0.093439
-3.930086 -0.845135 0.094559
-3.920376 -0.831331 0.095576
-3.916337 -0.818659 0.096672
-3.939541 -0.811511 0.098484
-3.922463 -0.795882 0.099039
-3.950261 -0.789175 0.100846
-3.959780 -0.778556 0.102035
-3.938956 -0.761940 0.102223
-3.889214 -0.739966 0.101432
-3.872131 -0.724241 0.101547
-3.877455 -0.712539 0.102272
-3.910106 -0.705443 0.103774
-3.919487 -0.694002 0.104477
-3.922145 -0.681258 0.104893
-3.900463 -0.664454 0.104466
-3.906339 -0.652073 0.104833
-3.915385 -0.640031 0.105230
-3.917306 -0.626762 0.105333
-3.879084 -0.607604 0.104098
-3.887314 -0.595197 0.104271
-3.936881 -0.588237 0.105690
-3.908448 -0.570559 0.104586
-3.912373 -0.557161 0.104451
-3.910422 -0.542953 0.104080
-3.878283 -0.525168 0.102721
-3.869167 -0.510222 0.102043
-3.882005 -0.497693 0.102008
-3.874102 -0.482857 0.101294
-3.884268 -0.469849 0.101106
-3.873016 -0.454695 0.100232
-3.857975 -0.439277 0.099224
-3.846334 -0.424264 0.098302
-3.849357 -0.410524 0.097804
-3.855417 -0.396970 0.097381
-3.864886 -0.383591 0.097043
-3.864197 -0.369436 0.096395
-3.871606 -0.355784 0.095976
-3.880116 -0.342120 0.095581
-3.877542 -0.327788 0.094864
-3.872438 -0.313356 0.094076
-3.859075 -0.298611 0.093060
-3.847578 -0.284063 0.092106
-3.852046 -0.270174 0.091607
-3.880376 -0.256956 0.091774
-3.870885 -0.242530 0.090902
-3.853651 -0.228037 0.089833
-3.841900 -0.213796 0.088932
-3.847618 -0.199866 0.088517
-3.850731 -0.185872 0.088045
-3.840724 -0.171828 0.087240
-3.851724 -0.157828 0.087007
-3.868342 -0.143692 0.086934
-3.891391 -0.129332 0.087040
-4.094165 -0.081580 0.090843
-4.082828 -0.066814 0.090107
-4.059564 -0.037629 0.088693
-4.024553 -0.024231 0.087438
-4.028075 -0.009282 0.087173
-4.026906 0.005449 0.086813
-4.023378 0.020032 0.086416
-4.019981 0.034591 0.086045
-4.013592 0.048920 0.085624
-4.013035 0.063610 0.085368
-4.011524 0.078224 0.085112
-4.014435 0.093187 0.084985
-4.016456 0.108104 0.084859
-4.022632 0.123420 0.084855
-4.020885 0.138048 0.084681
-4.012069 0.151966 0.084358
-4.006547 0.166152 0.084137
-4.009118 0.181175 0.084134
-4.007279 0.195732 0.084046
-4.002045 0.209883 0.083898
-4.000674 0.224469 0.083864
-3.999588 0.239091 0.083858
-4.006639 0.254788 0.084071
-3.996279 0.268190 0.083884
-3.979761 0.280642 0.083569
-3.979012 0.295253 0.083656
-3.984200 0.310765 0.083907
-3.993107 0.326920 0.084271
-3.986799 0.340746 0.084285
-3.975101 0.353647 0.084188
-3.977441 0.368830 0.084453
-3.983265 0.384660 0.084825
-3.980475 0.399030 0.085007
-3.974344 0.412784 0.085126
-3.976012 0.427968 0.085457
-3.976837 0.443028 0.085788
-3.976287 0.457850 0.086106
-3.962740 0.470068 0.086117
-3.976364 0.487798 0.086831
-3.977300 0.503002 0.087248
-3.979412 0.518496 0.087715
-3.957180 0.528662 0.087579
-3.952457 0.542596 0.087909
-3.966109 0.560750 0.088735
-3.970368 0.576856 0.089340
-3.970447 0.592031 0.089857
-3.963523 0.605524 0.090211
-3.952997 0.618085 0.090488
-3.953039 0.633268 0.091065
-3.952984 0.648462 0.091660
-3.959370 0.665393 0.092451
-3.959160 0.680648 0.093086
-3.947790 0.692881 0.093436
-3.927067 0.702433 0.093542
-3.921863 0.716226 0.094096
-3.995959 0.752901 0.096908
-3.941424 0.768042 0.096885
-3.929266 0.779859 0.097325
-3.919019 0.792188 0.097838
-3.912414 0.805602 0.098476
-3.928065 0.826085 0.099796
-3.933688 0.843527 0.100848
-3.929697 0.857916 0.101635
-3.925297 0.872177 0.102431
-3.913782 0.884034 0.103029
-3.917105 0.900926 0.104109
-3.923827 0.919091 0.105323
-3.924140 0.935109 0.106362
-3.916790 0.948433 0.107180
-3.902678 0.959275 0.107799
-3.888015 0.969825 0.108415
-3.892096 0.987302 0.109673
-3.896966 1.005180 0.110986
-3.901697 1.023117 0.112325
-3.895535 1.036913 0.113320
-3.890755 1.051255 0.114386
-3.901607 1.071875 0.116027
-3.900299 1.087738 0.117271
-3.887187 1.098797 0.118116
-3.876021 1.110595 0.119049
-3.883315 1.130137 0.120684
-3.883746 1.146893 0.122098
-3.877422 1.160800 0.123284
-3.866258 1.172590 0.124307
-3.876189 1.193697 0.126169
-3.871149 1.208260 0.127480
-3.860191 1.220152 0.128579
-3.854414 1.234386 0.129904
-3.848902 1.248758 0.131263
-3.844375 1.263613 0.132685
-3.836647 1.276970 0.133996
-3.829997 1.290842 0.135371
-3.830978 1.308449 0.137095
-3.837198 1.328741 0.139075
-3.833828 1.344392 0.140664
-3.841032 1.365438 0.142747
-3.841092 1.382998 0.144539
-3.831765 1.395787 0.145921
-3.822331 1.408496 0.147309
-3.820127 1.425006 0.149047
-3.818206 1.441726 0.150815
-3.822018 1.461611 0.152876
-3.827827 1.482718 0.155054
-3.831829 1.502979 0.157163
-3.831279 1.520825 0.159059
-3.842259 1.545262 0.161551
-3.618190 1.591761 0.167859
-3.604902 1.600951 0.168763
-3.587195 1.607183 0.169359
-3.568245 1.612418 0.169822
-3.562589 1.626103 0.171013
-3.573709 1.650775 0.173161
-3.564911 1.662362 0.174059
-3.544433 1.666004 0.174178
-3.542571 1.681990 0.175364
-3.554982 1.707698 0.177370
-3.569761 1.735179 0.179468
-3.556751 1.743476 0.179754
-3.546494 1.770648 0.181067
-3.563792 1.800105 0.183031
-3.550369 1.858373 0.184714
-3.530824 1.926365 0.184478
-3.560840 1.965860 0.186351
-3.520527 1.982345 0.182880
-3.542875 2.015909 0.183856
-3.873585 -0.857958 0.078322
-3.895888 -0.851600 0.080199
-3.942993 -0.850366 0.082619
-3.917521 -0.833029 0.083218
-3.926081 -0.822937 0.084567
-3.943126 -0.814400 0.086056
-3.962841 -0.806137 0.087543
-3.936969 -0.788492 0.087781
-3.940670 -0.776700 0.088696
-3.932257 -0.762430 0.089210
-3.907372 -0.745018 0.089201
-3.881239 -0.727459 0.089067
-3.906408 -0.719181 0.090225
-3.900142 -0.705084 0.090462
-3.917002 -0.694873 0.091246
-3.914328 -0.681164 0.091425
-3.898822 -0.665297 0.091179
-3.900187 -0.652126 0.091320
-3.924622 -0.642388 0.092021
-3.911217 -0.626715 0.091621
-3.873319 -0.607540 0.090490
-3.882816 -0.595261 0.090590
-3.906318 -0.584724 0.091013
-3.893601 -0.569166 0.090397
-3.885493 -0.554244 0.089856
-3.890337 -0.540921 0.089618
-3.877567 -0.525436 0.088864
-3.877310 -0.511435 0.088406
-3.875151 -0.497190 0.087863
-3.889483 -0.484640 0.087720
-3.893156 -0.470870 0.087265
-3.871162 -0.454613 0.086119
-3.851491 -0.438746 0.085019
-3.855661 -0.425073 0.084515
-3.869723 -0.412144 0.084244
-3.867498 -0.397834 0.083547
-3.839938 -0.381725 0.082212
-3.863158 -0.369254 0.082132
-3.865185 -0.355246 0.081520
-3.877510 -0.341808 0.081155
-3.880417 -0.327758 0.080558
-3.873112 -0.313187 0.079721
-3.853141 -0.298135 0.078592
-3.841341 -0.283589 0.077670
-3.852155 -0.269932 0.077283
-3.861419 -0.256133 0.076865
-3.858191 -0.241942 0.076171
-3.839472 -0.227470 0.075141
-3.847626 -0.213602 0.074732
-3.851894 -0.199621 0.074248
-3.833839 -0.185462 0.073288
-3.837357 -0.171518 0.072820
-3.856138 -0.157507 0.072697
-3.865280 -0.143399 0.072379
-4.088737 -0.051200 0.074269
-4.075522 -0.036645 0.073592
-4.038436 -0.023267 0.072456
-4.028424 -0.008913 0.071897
-4.033162 0.006135 0.071658
-4.028715 0.020694 0.071257
-4.026720 0.035366 0.070927
-4.019197 0.049650 0.070510
-4.009171 0.063686 0.070067
-4.008455 0.078345 0.069831
-4.012818 0.093412 0.069716
-4.025817 0.109263 0.069791
-4.025862 0.124070 0.069634
-4.020575 0.138379 0.069396
-4.015635 0.152681 0.069186
-4.010091 0.166882 0.068987
-4.015326 0.182212 0.069019
-4.008750 0.196263 0.068843
-4.005157 0.210615 0.068746
-3.995396 0.224189 0.068551
-4.015417 0.241473 0.068953
-4.013139 0.256016 0.068945
-4.002184 0.269368 0.068790
-3.986745 0.282001 0.068569
-3.975131 0.295063 0.068441
-3.988520 0.311794 0.068820
-3.984466 0.325962 0.068879
-3.976563 0.339496 0.068884
-3.968677 0.352977 0.068908
-3.969947 0.367953 0.069132
-3.985088 0.385371 0.069649
-3.992818 0.401630 0.070042
-3.985646 0.415255 0.070160
-3.978299 0.428801 0.070293
-3.973071 0.442711 0.070487
-3.965923 0.456217 0.070662
-3.973896 0.472735 0.071162
-3.964430 0.485749 0.071327
-3.961551 0.500094 0.071646
-3.951611 0.512911 0.071838
-3.952331 0.528019 0.072268
-3.944096 0.541141 0.072532
-3.928953 0.552620 0.072668
-3.961752 0.575272 0.073836
-3.951378 0.587899 0.074112
-3.935881 0.599203 0.074295
-3.946762 0.616982 0.075065
-3.937980 0.629893 0.075429
-3.936489 0.644645 0.075972
-3.942761 0.661471 0.076707
-3.948646 0.678290 0.077458
-3.938563 0.690828 0.077869
-3.931925 0.704266 0.078377
-3.917108 0.715356 0.078714
-3.946053 0.769921 0.081561
-3.893974 0.769638 0.081080
-3.922454 0.793748 0.082551
-3.915925 0.807206 0.083201
-3.925465 0.825765 0.084269
-3.928505 0.842363 0.085202
-3.916742 0.854173 0.085784
-3.897477 0.863410 0.086191
-3.933098 0.891099 0.088036
-3.911080 0.899378 0.088412
-3.914235 0.916271 0.089469
-3.915994 0.932755 0.090515
-3.912077 0.947273 0.091432
-3.905185 0.960722 0.092291
-3.901726 0.975425 0.093267
-3.897753 0.989959 0.094251
-3.908254 1.010010 0.095674
-3.906735 1.025600 0.096782
-3.896214 1.037722 0.097652
-3.888649 1.050967 0.098628
-3.898143 1.071036 0.100142
-3.902288 1.089098 0.101527
-3.882124 1.097265 0.102189
-3.884404 1.114643 0.103569
-3.885298 1.131530 0.104935
-3.884763 1.147886 0.106283
-3.871497 1.158793 0.107244
-3.867647 1.173759 0.108533
-3.877996 1.195064 0.110327
-3.879605 1.212629 0.111861
-3.868240 1.224384 0.112975
-3.858930 1.237037 0.114179
-3.850683 1.250163 0.115441
-3.853727 1.268604 0.117132
-3.844737 1.281414 0.118411
-3.841775 1.297118 0.119935
-3.841245 1.314061 0.121574
-3.845345 1.333372 0.123418
-3.845985 1.351084 0.125158
-3.843635 1.367376 0.126806
-3.838767 1.382439 0.128376
-3.828997 1.394995 0.129764
-3.821723 1.408830 0.131268
-3.819495 1.425339 0.132995
-3.813406 1.439841 0.134576
-3.825434 1.464164 0.136950
-3.837288 1.488622 0.139348
-3.839681 1.508073 0.141356
-3.840661 1.526849 0.143317
-3.862816 1.557691 0.146257
-3.642221 1.608035 0.154142
-3.610466 1.605738 0.154184
-3.588791 1.609530 0.154694
-3.578807 1.620634 0.155771
-3.581239 1.639740 0.157472
-3.592773 1.664895 0.159632
-3.578523 1.673060 0.160325
-3.529832 1.657924 0.159023
-3.541445 1.683048 0.161018
-3.547821 1.704730 0.162665
-3.556714 1.728217 0.164397
-3.556468 1.745427 0.165537
-3.559735 1.765077 0.166807
-3.560107 1.782677 0.167832
-3.552183 1.794301 0.168287
-3.534844 1.832973 0.169488
-3.554802 1.864656 0.171243
-3.518173 1.903878 0.170324
-3.505269 1.910282 0.169620
-3.554860 1.965014 0.172593
-3.559363 2.001195 0.172522
-3.957272 -0.891016 0.066574
-3.949846 -0.877756 0.067818
-3.962985 -0.869001 0.069386
-3.930401 -0.849965 0.069964
-3.915345 -0.834816 0.070798
-3.922866 -0.824427 0.072014
-3.933536 -0.814497 0.073220
-3.921788 -0.799772 0.073869
-3.905205 -0.784038 0.074324
-3.919967 -0.774450 0.075378
-3.921830 -0.762137 0.076070
-3.923231 -0.749597 0.076671
-3.929367 -0.737791 0.077296
-3.902526 -0.719899 0.077095
-3.910131 -0.708153 0.077594
-3.913387 -0.695490 0.077917
-3.912792 -0.682052 0.078076
-3.898207 -0.666247 0.077841
-3.898934 -0.652893 0.077885
-3.914155 -0.641669 0.078194
-3.914345 -0.627984 0.078092
-3.887967 -0.610375 0.077320
-3.929882 -0.602502 0.078049
-3.909085 -0.585675 0.077291
-3.891097 -0.569341 0.076549
-3.880166 -0.554006 0.075921
-3.879349 -0.539955 0.075477
-3.878846 -0.525901 0.074999
-3.876921 -0.511650 0.074453
-3.888412 -0.498833 0.074167
-3.897202 -0.485599 0.073789
-3.899653 -0.471626 0.073245
-3.892790 -0.456728 0.072479
-3.843453 -0.438053 0.070803
-3.872681 -0.426518 0.070768
-3.911105 -0.415442 0.070897
-3.867287 -0.397747 0.069322
-3.859221 -0.383004 0.068480
-3.851431 -0.368348 0.067643
-3.861770 -0.354887 0.067164
-3.864548 -0.340895 0.066534
-3.866151 -0.326817 0.065882
-3.858243 -0.312267 0.065052
-3.856962 -0.298083 0.064357
-3.854986 -0.283888 0.063657
-3.858973 -0.269921 0.063077
-3.854295 -0.255667 0.062349
-3.840752 -0.241242 0.061475
-3.846320 -0.227338 0.060960
-3.847554 -0.213321 0.060381
-3.846732 -0.199278 0.059781
-3.827250 -0.185130 0.058876
-3.831904 -0.171213 0.058406
-3.855558 -0.157208 0.058272
-3.867244 -0.143079 0.057948
-3.903166 -0.128558 0.058039
-4.087768 -0.081056 0.059596
-4.108449 -0.050168 0.059037
-4.083678 -0.035980 0.058238
-4.048929 -0.022465 0.057311
-4.030441 -0.008476 0.056665
-4.026238 0.006104 0.056264
-4.039124 0.021639 0.056146
-4.027630 0.035764 0.055679
-4.030522 0.050752 0.055452
-4.018719 0.064713 0.055027
-4.013200 0.079049 0.054719
-4.031508 0.095270 0.054788
-4.035122 0.110405 0.054658
-4.027936 0.124604 0.054391
-4.018977 0.138575 0.054121
-4.011646 0.152632 0.053896
-4.017069 0.167958 0.053880
-4.007101 0.181669 0.053660
-4.010778 0.196845 0.053660
-4.006913 0.211176 0.053572
-4.005262 0.225754 0.053536
-3.993510 0.239044 0.053375
-4.019512 0.257219 0.053784
-4.005533 0.270189 0.053630
-3.992608 0.283193 0.053513
-3.994835 0.298303 0.053636
-3.988138 0.312107 0.053649
-3.990454 0.327265 0.053814
-3.984966 0.341215 0.053884
-3.978839 0.355027 0.053963
-3.977247 0.369570 0.054130
-3.983285 0.385445 0.054429
-3.993283 0.402106 0.054809
-3.997038 0.417738 0.055116
-3.989898 0.431381 0.055277
-3.965917 0.441734 0.055199
-3.960252 0.455503 0.055418
-3.960481 0.470434 0.055747
-3.969907 0.487297 0.056238
-3.957461 0.499647 0.056407
-3.947012 0.512338 0.056624
-3.945131 0.526853 0.056995
-3.937974 0.540188 0.057300
-3.932638 0.553904 0.057652
-3.953577 0.573789 0.058452
-3.946404 0.587149 0.058813
-3.939464 0.600530 0.059196
-3.941875 0.616215 0.059754
-3.939440 0.630723 0.060250
-3.932471 0.644064 0.060688
-3.941599 0.661632 0.061423
-3.938282 0.675973 0.061963
-3.929571 0.688839 0.062426
-3.924105 0.702564 0.062965
-3.936168 0.721255 0.063841
-3.989773 0.767779 0.066222
-3.966727 0.776602 0.066523
-3.928616 0.780663 0.066547
-3.923517 0.794584 0.067214
-3.918397 0.808492 0.067899
-3.916340 0.823372 0.068666
-3.925334 0.841857 0.069676
-3.920450 0.855915 0.070431
-3.918503 0.870955 0.071267
-3.906353 0.882565 0.071912
-3.916991 0.901945 0.073058
-3.915038 0.917088 0.073963
-3.909853 0.931119 0.074821
-3.922197 0.951453 0.076089
-3.914415 0.964632 0.076937
-3.905278 0.977286 0.077774
-3.901688 0.991983 0.078759
-3.906556 1.009918 0.079967
-3.902030 1.024343 0.080980
-3.885054 1.033920 0.081714
-3.871431 1.044708 0.082545
-3.884284 1.066038 0.084056
-3.884098 1.082269 0.085272
-3.887370 1.099989 0.086606
-3.881478 1.113989 0.087729
-3.883568 1.131369 0.089089
-3.880717 1.146726 0.090345
-3.869371 1.158443 0.091392
-3.868079 1.174523 0.092740
-3.875534 1.194549 0.094365
-3.875437 1.211336 0.095807
-3.863504 1.222810 0.096930
-3.861232 1.238683 0.098359
-3.861583 1.255834 0.099895
-3.861231 1.272738 0.101438
-3.848930 1.284013 0.102634
-3.839569 1.296652 0.103939
-3.850065 1.318981 0.105909
-3.855228 1.338876 0.107741
-3.850042 1.353736 0.109258
-3.847685 1.370056 0.110893
-3.839680 1.383545 0.112355
-3.832350 1.397378 0.113856
-3.821991 1.409628 0.115264
-3.816742 1.424552 0.116869
-3.820426 1.444285 0.118822
-3.831699 1.468262 0.121087
-3.840591 1.491157 0.123293
-3.840384 1.509212 0.125172
-3.841455 1.528067 0.127116
-3.856837 1.555116 0.129652
-3.715134 1.636676 0.140588
-3.606229 1.586622 0.137309
-3.597902 1.599001 0.138626
-3.591561 1.612589 0.140001
-3.579349 1.622339 0.141052
-3.571821 1.635023 0.142282
-3.597178 1.669321 0.145093
-3.581442 1.676603 0.145827
-3.549922 1.673088 0.145693
-3.535405 1.680712 0.146343
-3.541099 1.701992 0.147964
-3.546100 1.722856 0.149491
-3.551473 1.744027 0.150975
-3.565081 1.771039 0.152827
-3.566555 1.789572 0.153967
-3.549002 1.794448 0.154006
-3.533597 1.902436 0.157502
-3.515436 1.905196 0.156734
-3.513431 1.920120 0.156762
-3.578015 2.003419 0.160327
-3.924499 -0.897403 0.052369
-3.917066 -0.884288 0.053635
-3.942920 -0.878670 0.055333
-3.928365 -0.863657 0.056334
-3.929156 -0.851991 0.057495
-3.933825 -0.841016 0.058640
-3.916659 -0.825222 0.059338
-3.926450 -0.815047 0.060407
-3.903368 -0.797929 0.060827
-3.903836 -0.785586 0.061567
-3.908306 -0.773895 0.062297
-3.915705 -0.762602 0.062999
-3.917993 -0.750160 0.063529
-3.910405 -0.735759 0.063797
-3.915509 -0.723587 0.064218
-3.924322 -0.711910 0.064629
-3.935141 -0.700392 0.065001
-3.904606 -0.681771 0.064530
-3.940870 -0.674180 0.065229
-3.925820 -0.658058 0.064903
-3.899598 -0.640263 0.064303
-3.895650 -0.625945 0.064055
-3.916850 -0.615231 0.064210
-3.922988 -0.602140 0.064028
-3.933456 -0.589517 0.063870
-3.909350 -0.572200 0.063034
-3.904956 -0.557546 0.062512
-3.891099 -0.541727 0.061781
-3.883627 -0.526743 0.061129
-3.887135 -0.513031 0.060637
-3.897694 -0.500018 0.060234
-3.893921 -0.485390 0.059556
-3.893486 -0.471104 0.058912
-3.891156 -0.456621 0.058217
-3.875018 -0.440902 0.057279
-3.899770 -0.428806 0.056996
-3.893310 -0.413953 0.056194
-3.871726 -0.398003 0.055149
-3.865096 -0.383315 0.054340
-3.865638 -0.369165 0.053642
-3.863274 -0.354828 0.052900
-3.859780 -0.340450 0.052144
-3.850420 -0.325798 0.051308
-3.850608 -0.311696 0.050620
-3.855036 -0.297782 0.049999
-3.869250 -0.284212 0.049521
-3.867260 -0.269964 0.048826
-3.852800 -0.255373 0.047977
-3.842954 -0.241040 0.047208
-3.836290 -0.226870 0.046498
-3.829485 -0.212768 0.045805
-3.821976 -0.198730 0.045122
-3.826052 -0.184843 0.044603
-3.841789 -0.170946 0.044243
-3.854378 -0.156921 0.043857
-3.875695 -0.142722 0.043589
-3.942810 -0.127778 0.043873
-4.075342 -0.066027 0.043488
-4.071152 -0.036151 0.042600
-4.035520 -0.022735 0.041829
-4.023960 -0.008470 0.041345
-4.026489 0.006442 0.041034
-4.035567 0.021759 0.040813
-4.047945 0.037366 0.040647
-4.046186 0.052136 0.040355
-4.036082 0.066291 0.040000
-4.025791 0.080342 0.039667
-4.008654 0.093745 0.039287
-4.027468 0.110081 0.039292
-4.030512 0.125171 0.039159
-4.020677 0.139070 0.038919
-4.015635 0.153364 0.038748
-4.002537 0.166780 0.038520
-3.997156 0.180925 0.038388
-3.990938 0.194934 0.038270
-4.006596 0.211482 0.038387
-4.003924 0.225935 0.038345
-4.002190 0.240497 0.038331
-3.988331 0.253454 0.038220
-4.002809 0.270171 0.038406
-3.999274 0.284491 0.038435
-3.988899 0.297796 0.038417
-3.981586 0.311482 0.038448
-3.987990 0.327248 0.038634
-3.992856 0.342846 0.038825
-3.986097 0.356595 0.038920
-3.982163 0.370779 0.039061
-3.979517 0.385170 0.039234
-3.985700 0.401137 0.039516
-3.999039 0.418497 0.039892
-3.992634 0.432291 0.040084
-3.978089 0.444479 0.040210
-3.957454 0.455351 0.040286
-3.966117 0.471980 0.040691
-3.989974 0.491864 0.041280
-3.955639 0.499676 0.041260
-3.957501 0.515029 0.041649
-3.951602 0.528709 0.041971
-3.939705 0.541007 0.042243
-3.933241 0.554476 0.042592
-3.932598 0.569285 0.043026
-3.942719 0.586708 0.043605
-3.951206 0.603860 0.044187
-3.956790 0.620401 0.044755
-3.958310 0.635994 0.045296
-3.950533 0.649222 0.045742
-3.949202 0.664115 0.046286
-3.941298 0.677261 0.046766
-3.921353 0.687063 0.047108
-3.923348 0.702837 0.047749
-3.937713 0.722185 0.048576
-3.976733 0.764454 0.050450
-3.947053 0.771230 0.050746
-3.929064 0.781309 0.051216
-3.921974 0.794621 0.051855
-3.926295 0.811490 0.052680
-3.923414 0.826150 0.053422
-3.923337 0.841737 0.054227
-3.921970 0.856947 0.055035
-3.913249 0.869734 0.055749
-3.906198 0.883050 0.056507
-3.910772 0.900347 0.057475
-3.910882 0.916183 0.058394
-3.908592 0.931222 0.059298
-3.909004 0.947264 0.060270
-3.920668 0.967470 0.061465
-3.900246 0.975984 0.062119
