ply
format ascii 1.0
comment ---
element vertex 1631
property float x
property float y
property float z
element face 0
property list uchar uint vertex_indices
end_header
-3.902660 0.874074 -0.099000
-3.901114 0.889117 -0.098746
-3.903097 0.905468 -0.098723
-3.894938 0.918157 -0.098036
-3.893921 0.933469 -0.097816
-3.894307 0.949347 -0.097686
-3.898678 0.966805 -0.097816
-3.897074 0.982035 -0.097555
-3.892135 0.995982 -0.097077
-3.886502 1.009648 -0.096554
-3.885607 1.025224 -0.096338
-3.886244 1.041470 -0.096221
-3.879981 1.054907 -0.095656
-3.869595 1.066593 -0.094824
-3.861320 1.079120 -0.094129
-3.856113 1.092938 -0.093632
-3.860720 1.111051 -0.093770
-3.862518 1.128027 -0.093724
-3.857797 1.142158 -0.093258
-3.852644 1.156099 -0.092763
-3.842517 1.167758 -0.091947
-3.859783 1.192116 -0.092894
-3.855456 1.206560 -0.092450
-3.851907 1.221393 -0.092056
-3.850994 1.237525 -0.091830
-3.845137 1.251302 -0.091287
-3.833301 1.262130 -0.090360
-3.834315 1.279315 -0.090256
-3.845349 1.301647 -0.090791
-3.842378 1.317026 -0.090430
-3.833685 1.329491 -0.089702
-3.832799 1.346015 -0.089473
-3.827629 1.360346 -0.088969
-3.832015 1.379809 -0.089073
-3.822268 1.391771 -0.088276
-3.813477 1.404227 -0.087540
-3.816602 1.423253 -0.087561
-3.821709 1.443516 -0.087705
-3.822093 1.461269 -0.087548
-3.816749 1.475858 -0.087027
-3.814628 1.492341 -0.086709
-3.809200 1.506974 -0.086181
-3.805489 1.522658 -0.085761
-3.798989 1.536744 -0.085163
-3.756726 1.638411 -0.081164
-3.725930 1.637116 -0.079042
-3.592393 1.568409 -0.070512
-3.571467 1.572397 -0.069018
-3.567739 1.587708 -0.068595
-3.564585 1.603493 -0.068207
-3.557059 1.616401 -0.067546
-3.558197 1.635306 -0.067421
-3.556224 1.652213 -0.067101
-3.560101 1.673345 -0.067142
-3.557025 1.689761 -0.066750
-3.545106 1.699961 -0.065810
-3.544010 1.717972 -0.065538
-3.542744 1.736006 -0.065253
-3.546946 1.758217 -0.065302
-3.536670 1.769875 -0.064459
-3.534264 1.787467 -0.064098
-3.537690 1.809625 -0.064093
-3.531956 1.824978 -0.063524
-3.538835 1.850188 -0.063725
-3.535048 1.867331 -0.063271
-3.530838 1.884252 -0.062790
-3.526876 1.901475 -0.062323
-3.523463 1.919249 -0.061887
-3.518329 1.935732 -0.061346
-3.511682 1.951050 -0.060712
-3.510036 1.970569 -0.060380
-3.509946 1.991516 -0.060140
-3.506283 2.009580 -0.059683
-3.500746 2.026115 -0.059112
-3.504009 2.050278 -0.059069
-3.503872 2.071644 -0.058821
-3.497456 2.087583 -0.058196
-3.491803 2.104176 -0.057617
-3.485137 2.119833 -0.056978
-3.484950 2.141291 -0.056726
-3.486095 2.163995 -0.056554
-3.484331 2.184047 -0.056209
-3.480660 2.202283 -0.055752
-3.465617 2.209746 -0.054623
-3.463607 2.229248 -0.054269
-3.474907 2.261359 -0.054704
-3.474079 2.281865 -0.054423
-3.447093 2.276787 -0.052604
-3.939566 -1.001172 -0.132154
-3.915742 -0.981110 -0.130244
-3.915829 -0.967446 -0.130142
-3.922180 -0.955246 -0.130511
-3.904407 -0.936620 -0.129056
-3.910027 -0.923916 -0.129367
-3.930448 -0.914687 -0.130792
-3.903896 -0.893738 -0.128672
-3.899186 -0.878135 -0.128199
-3.905157 -0.864972 -0.128530
-3.919107 -0.853491 -0.129460
-3.924464 -0.839888 -0.129741
-3.919130 -0.823846 -0.129218
-3.917184 -0.808536 -0.128948
-3.914014 -0.792959 -0.128587
-3.890758 -0.773313 -0.126717
-3.894167 -0.759171 -0.126850
-3.901417 -0.745733 -0.127270
-3.905022 -0.731542 -0.127416
-3.896478 -0.715101 -0.126652
-3.896128 -0.700223 -0.126502
-3.893951 -0.685054 -0.126216
-3.891723 -0.669925 -0.125926
-3.890163 -0.654958 -0.125686
-3.888088 -0.639960 -0.125408
-3.879320 -0.623992 -0.124631
-3.877826 -0.609228 -0.124397
-3.880044 -0.595051 -0.124441
-3.883247 -0.581030 -0.124559
-3.880688 -0.566249 -0.124247
-3.874814 -0.551109 -0.123689
-3.872982 -0.536569 -0.123432
-3.870643 -0.522028 -0.123138
-3.862967 -0.506941 -0.122448
-3.863049 -0.492818 -0.122336
-3.865789 -0.479013 -0.122421
-3.867606 -0.465128 -0.122438
-3.858181 -0.450194 -0.121621
-3.836763 -0.434304 -0.119916
-3.838212 -0.420609 -0.119907
-3.846567 -0.407492 -0.120410
-3.863052 -0.394947 -0.121515
-3.856878 -0.380660 -0.120942
-3.859779 -0.367065 -0.121041
-3.847411 -0.352525 -0.120011
-3.849703 -0.338966 -0.120066
-3.840400 -0.324801 -0.119265
-3.836837 -0.311020 -0.118888
-3.838278 -0.297511 -0.118880
-3.840401 -0.284034 -0.118923
-3.842628 -0.270558 -0.118974
-3.833968 -0.256760 -0.118223
-3.825850 -0.243071 -0.117513
-3.830697 -0.229729 -0.117757
-3.833192 -0.216318 -0.117828
-3.824025 -0.202769 -0.117041
-3.814909 -0.189314 -0.116260
-3.821434 -0.175973 -0.116627
-3.820528 -0.162601 -0.116449
-3.820948 -0.149233 -0.116368
-3.867239 -0.135293 -0.119649
-3.991037 -0.119607 -0.128603
-4.038712 -0.104426 -0.131974
-4.011075 -0.090783 -0.129832
-4.038264 -0.061325 -0.131582
-4.037505 -0.046977 -0.131406
-4.016756 -0.033525 -0.129771
-4.017413 -0.019200 -0.129700
-4.015615 -0.004993 -0.129449
-4.008435 0.008891 -0.128806
-4.010494 0.023303 -0.128837
-4.013727 0.037827 -0.128953
-4.014981 0.052251 -0.128924
-4.013872 0.066517 -0.128724
-4.007021 0.080317 -0.128106
-3.997814 0.093866 -0.127317
-3.997414 0.108149 -0.127168
-3.997951 0.122536 -0.127087
-3.997217 0.136818 -0.126914
-3.992175 0.150660 -0.126428
-3.989902 0.164780 -0.126144
-3.986486 0.178768 -0.125776
-3.988890 0.193440 -0.125830
-3.993907 0.208482 -0.126072
-3.993591 0.222907 -0.125928
-3.992549 0.237257 -0.125732
-3.987246 0.251033 -0.125227
-3.983691 0.265033 -0.124849
-3.980526 0.279084 -0.124499
-3.981149 0.293708 -0.124422
-3.978230 0.307809 -0.124090
-3.974638 0.321800 -0.123709
-3.971387 0.335842 -0.123353
-3.969581 0.350130 -0.123100
-3.965042 0.363947 -0.122651
-3.965915 0.378732 -0.122591
-3.969899 0.394134 -0.122754
-3.975457 0.409906 -0.123030
-3.975609 0.424704 -0.122917
-3.968830 0.438145 -0.122306
-3.961718 0.451483 -0.121672
-3.957655 0.465426 -0.121256
-3.953728 0.479392 -0.120851
-3.948909 0.493155 -0.120381
-3.944499 0.506997 -0.119941
-3.945090 0.521980 -0.119858
-3.934955 0.534482 -0.119009
-3.960521 0.555484 -0.120708
-3.952332 0.568509 -0.119997
-3.946307 0.582028 -0.119441
-3.937431 0.594796 -0.118682
-3.930748 0.608081 -0.118079
-3.927533 0.622255 -0.117723
-3.931613 0.638401 -0.117886
-3.925357 0.651784 -0.117314
-3.916466 0.664404 -0.116555
-3.913047 0.678530 -0.116184
-3.908581 0.692357 -0.115739
-3.896183 0.703835 -0.114732
-3.939520 0.731959 -0.117675
-3.905125 0.752067 -0.114980
-3.914114 0.770181 -0.115486
-3.914849 0.785780 -0.115408
-3.906010 0.798308 -0.114652
-3.900407 0.811857 -0.114126
-3.897402 0.826263 -0.113783
-3.893373 0.840331 -0.113368
-3.900396 0.858231 -0.113731
-3.899348 0.873408 -0.113525
-3.904689 0.890900 -0.113769
-3.902801 0.905873 -0.113503
-3.897363 0.919566 -0.112987
-3.890076 0.932558 -0.112341
-3.887713 0.947382 -0.112042
-3.891966 0.964766 -0.112206
-3.891263 0.980316 -0.112022
-3.878815 0.991277 -0.111014
-3.880767 1.007909 -0.111016
-3.881980 1.024314 -0.110965
-3.886326 1.042069 -0.111133
-3.878877 1.055019 -0.110476
-3.863981 1.064803 -0.109298
-3.854419 1.076755 -0.108494
-3.856628 1.093747 -0.108511
-3.873891 1.117412 -0.109577
-3.869269 1.131621 -0.109117
-3.860197 1.143842 -0.108346
-3.848803 1.154966 -0.107414
-3.861200 1.176970 -0.108137
-3.862398 1.193961 -0.108080
-3.857122 1.207979 -0.107573
-3.851810 1.221987 -0.107063
-3.847958 1.236706 -0.106655
-3.842376 1.250606 -0.106126
-3.837595 1.264909 -0.105653
-3.840151 1.282896 -0.105687
-3.839527 1.299378 -0.105500
-3.841144 1.317076 -0.105468
-3.838546 1.332691 -0.105144
-3.834945 1.347831 -0.104750
-3.838906 1.367011 -0.104877
-3.838217 1.383834 -0.104683
-3.828964 1.396105 -0.103899
-3.816840 1.406785 -0.102917
-3.814388 1.422757 -0.102601
-3.826983 1.447199 -0.103317
-3.825390 1.463877 -0.103058
-3.822140 1.479687 -0.102685
-3.812339 1.491779 -0.101862
-3.807833 1.506943 -0.101402
-3.809423 1.525751 -0.101358
-3.758521 1.585241 -0.097114
-3.737161 1.608336 -0.095349
-3.753638 1.637262 -0.096312
-3.714743 1.630705 -0.093512
-3.602607 1.575885 -0.085746
-3.586012 1.582804 -0.084469
-3.565942 1.587318 -0.082957
-3.563103 1.603311 -0.082612
-3.557352 1.617424 -0.082070
-3.560207 1.637521 -0.082109
-3.556442 1.653206 -0.081699
-3.564772 1.677475 -0.082104
-3.565575 1.696682 -0.082000
-3.540679 1.697659 -0.080164
-3.536777 1.713619 -0.079742
-3.540057 1.734929 -0.079801
-3.532713 1.748615 -0.079146
-3.530883 1.766468 -0.078860
-3.527691 1.783436 -0.078481
-3.529410 1.804258 -0.078430
-3.536530 1.829423 -0.078739
-3.535026 1.848184 -0.078469
-3.534657 1.867983 -0.078273
-3.530204 1.884718 -0.077804
-3.524254 1.900360 -0.077234
-3.520667 1.917982 -0.076820
-3.515799 1.934669 -0.076320
-3.511351 1.951785 -0.075848
-3.511263 1.972608 -0.075663
-3.513633 1.995640 -0.075641
-3.510176 2.013920 -0.075230
-3.505158 2.030941 -0.074716
-3.503074 2.050538 -0.074395
-3.499024 2.068498 -0.073943
-3.490569 2.082612 -0.073200
-3.484838 2.099088 -0.072637
-3.487917 2.123439 -0.072653
-3.483426 2.141037 -0.072171
-3.482448 2.161800 -0.071919
-3.477057 2.178488 -0.071377
-3.477827 2.200809 -0.071240
-3.471038 2.216010 -0.070608
-3.461006 2.227965 -0.069764
-3.452349 2.240988 -0.069013
-3.466622 2.275884 -0.069757
-3.442277 2.273316 -0.067986
-3.903007 -0.991248 -0.143186
-3.913950 -0.980771 -0.143965
-3.904846 -0.964663 -0.143131
-3.903457 -0.950483 -0.142913
-3.912145 -0.938745 -0.143500
-3.892341 -0.919585 -0.141800
-3.910646 -0.909914 -0.143151
-3.918739 -0.897466 -0.143681
-3.904758 -0.879581 -0.142441
-3.911457 -0.866557 -0.142855
-3.922756 -0.854436 -0.143634
-3.922742 -0.839612 -0.143506
-3.916432 -0.823361 -0.142874
-3.920459 -0.809333 -0.143067
-3.917603 -0.793801 -0.142709
-3.891724 -0.773599 -0.140516
-3.893979 -0.759218 -0.140565
-3.901342 -0.745799 -0.141021
-3.898932 -0.730472 -0.140698
-3.901869 -0.716159 -0.140801
-3.901744 -0.701289 -0.140660
-3.897339 -0.685702 -0.140179
-3.888796 -0.669489 -0.139370
-3.885752 -0.654289 -0.138999
-3.885857 -0.639652 -0.138878
-3.877934 -0.623820 -0.138121
-3.878428 -0.609353 -0.138032
-3.885572 -0.595875 -0.138471
-3.888040 -0.581720 -0.138539
-3.885783 -0.566952 -0.138234
-3.877100 -0.551419 -0.137422
-3.876311 -0.536992 -0.137235
-3.874823 -0.522532 -0.136994
-3.872823 -0.508068 -0.136713
-3.866433 -0.493185 -0.136087
-3.868927 -0.479332 -0.136163
-3.866015 -0.464955 -0.135813
-3.862031 -0.450542 -0.135380
-3.840968 -0.434661 -0.133603
-3.836586 -0.420443 -0.133141
-3.843792 -0.407236 -0.133592
-3.854592 -0.394266 -0.134325
-3.855606 -0.380527 -0.134290
-3.852138 -0.366509 -0.133903
-3.858454 -0.353157 -0.134284
-3.853925 -0.339151 -0.133816
-3.847150 -0.325095 -0.133172
-3.840746 -0.311142 -0.132558
-3.841799 -0.297593 -0.132530
-3.841482 -0.284000 -0.132395
-3.838385 -0.270335 -0.132043
-3.839600 -0.256841 -0.132029
-3.832282 -0.243140 -0.131348
-3.828700 -0.229595 -0.130960
-3.831670 -0.216196 -0.131085
-3.827183 -0.202700 -0.130627
-3.821439 -0.189246 -0.130073
-3.822776 -0.175863 -0.130072
-3.821106 -0.162483 -0.129836
-3.813861 -0.149167 -0.129167
-3.878239 -0.135028 -0.134078
-3.995457 -0.105220 -0.142989
-4.016057 -0.090503 -0.144481
-4.017920 -0.076173 -0.144516
-4.031473 -0.047054 -0.145349
-4.006872 -0.033799 -0.143329
-4.011949 -0.019296 -0.143614
-4.017024 -0.004738 -0.143899
-4.010650 0.009205 -0.143296
-4.009874 0.023453 -0.143128
-4.011094 0.037843 -0.143114
-4.012385 0.052261 -0.143106
-4.010355 0.066449 -0.142841
-4.007053 0.080529 -0.142478
-3.998071 0.094101 -0.141675
-3.996850 0.108316 -0.141474
-3.995580 0.122532 -0.141269
-3.994912 0.136815 -0.141110
-3.993956 0.151081 -0.140929
-3.984761 0.164452 -0.140113
-3.984286 0.178758 -0.139970
-3.989977 0.193818 -0.140302
-3.992902 0.208611 -0.140420
-3.992142 0.222980 -0.140255
-3.992748 0.237548 -0.140195
-3.996285 0.252553 -0.140360
-3.991416 0.266413 -0.139878
-3.990110 0.280780 -0.139671
-3.984168 0.294453 -0.139107
-3.984411 0.309071 -0.139018
-3.981591 0.323222 -0.138695
-3.972444 0.336318 -0.137885
-3.972160 0.350877 -0.137757
-3.960741 0.363497 -0.136774
-3.957905 0.377593 -0.136450
-3.965403 0.393617 -0.136917
-3.971115 0.409403 -0.137247
-3.968256 0.423596 -0.136921
-3.965909 0.437895 -0.136633
-3.958721 0.451208 -0.135976
-3.954508 0.465110 -0.135546
-3.953150 0.479618 -0.135334
-3.950924 0.493955 -0.135056
-3.951728 0.508986 -0.135009
-3.955488 0.524740 -0.135188
-3.950207 0.538439 -0.134676
-3.947514 0.552742 -0.134362
-3.952582 0.568955 -0.134639
-3.946630 0.582498 -0.134077
-3.940247 0.595908 -0.133482
-3.933248 0.609130 -0.132840
-3.928853 0.623009 -0.132396
-3.927195 0.637619 -0.132161
-3.922423 0.651392 -0.131689
-3.917540 0.665124 -0.131208
-3.917464 0.680215 -0.131093
-3.911494 0.693633 -0.130530
-3.903859 0.706536 -0.129841
-3.931245 0.729921 -0.131806
-3.951758 0.751524 -0.133249
-3.893210 0.748820 -0.128704
-3.913405 0.770418 -0.130122
-3.915457 0.786443 -0.130166
-3.913748 0.801303 -0.129925
-3.914949 0.817151 -0.129904
-3.901661 0.828179 -0.128788
-3.920074 0.849941 -0.130066
-3.902255 0.859372 -0.128609
-3.899955 0.874123 -0.128323
-3.898932 0.889351 -0.128134
-3.894566 0.903401 -0.127692
-3.891160 0.917803 -0.127323
-3.877232 0.928289 -0.126162
-3.888599 0.948247 -0.126904
-3.891528 0.965136 -0.127011
-3.882310 0.977376 -0.126204
-3.881791 0.992999 -0.126052
-3.878619 1.007606 -0.125700
-3.880172 1.024143 -0.125703
-3.883360 1.041421 -0.125827
-3.879217 1.055735 -0.125402
-3.862057 1.064570 -0.124003
-3.852862 1.076674 -0.123200
-3.876201 1.102805 -0.124832
-3.874952 1.118478 -0.124624
-3.873367 1.134047 -0.124390
-3.868772 1.148305 -0.123931
-3.855464 1.158612 -0.122822
-3.857100 1.175710 -0.122829
-3.860411 1.193670 -0.122960
-3.848752 1.204673 -0.121975
-3.846279 1.219994 -0.121675
-3.843883 1.235392 -0.121381
-3.836646 1.248466 -0.120727
-3.852760 1.273070 -0.121809
-3.848811 1.287899 -0.121399
-3.841630 1.301124 -0.120749
-3.838784 1.316559 -0.120421
-3.837960 1.333085 -0.120243
-3.843348 1.352931 -0.120525
-3.843710 1.370265 -0.120435
-3.834461 1.382545 -0.119632
-3.827687 1.396140 -0.119013
-3.820535 1.409537 -0.118366
-3.822716 1.428101 -0.118410
-3.823782 1.446161 -0.118371
-3.826335 1.465170 -0.118441
-3.818736 1.478509 -0.117762
-3.814577 1.493844 -0.117336
-3.804843 1.505978 -0.116500
-3.800007 1.520987 -0.116025
-3.810886 1.545409 -0.116708
-3.806082 1.578842 -0.116116
-3.754273 1.620023 -0.111831
-3.737534 1.627789 -0.110483
-3.716377 1.632609 -0.108813
-3.617921 1.586722 -0.101476
-3.578800 1.578864 -0.098496
-3.580867 1.598109 -0.098534
-3.561062 1.602772 -0.096972
-3.562643 1.621874 -0.096975
-3.560161 1.638345 -0.096680
-3.569424 1.663094 -0.097243
-3.567706 1.680413 -0.097003
-3.558938 1.692864 -0.096249
-3.547823 1.703667 -0.095323
-3.548949 1.723325 -0.095290
-3.542966 1.737967 -0.094739
-3.528198 1.746203 -0.093548
-3.523305 1.761750 -0.093076
-3.523065 1.780894 -0.092943
-3.522638 1.800062 -0.092795
-3.527525 1.823475 -0.093032
-3.507888 1.828114 -0.091488
-3.534624 1.868947 -0.093309
-3.528570 1.884426 -0.092750
-3.521481 1.899154 -0.092115
-3.521826 1.919938 -0.092019
-3.518864 1.938198 -0.091682
-3.518495 1.958706 -0.091532
-3.518641 1.979792 -0.091419
-3.516996 1.999530 -0.091175
-3.512259 2.016764 -0.090706
-3.503136 2.030302 -0.089921
-3.499641 2.048673 -0.089542
-3.490303 2.062003 -0.088740
-3.488101 2.081559 -0.088452
-3.488400 2.103386 -0.088342
-3.486925 2.123694 -0.088104
-3.483239 2.142023 -0.087706
-3.477687 2.158614 -0.087173
-3.479511 2.181931 -0.087167
-3.474634 2.199025 -0.086680
-3.467454 2.213840 -0.086028
-3.461036 2.229199 -0.085429
-3.458866 2.248435 -0.085133
-3.465604 2.276133 -0.085472
-3.475582 2.306970 -0.086041
-3.920848 -0.996323 -0.158510
-3.924227 -0.983714 -0.158703
-3.905791 -0.965069 -0.157040
-3.915019 -0.953664 -0.157720
-3.961903 -0.951694 -0.161590
-3.966319 -0.938408 -0.161850
-3.924332 -0.913449 -0.158174
-3.917708 -0.897359 -0.157493
-3.922996 -0.884060 -0.157818
-3.921360 -0.869002 -0.157553
-3.921806 -0.854353 -0.157462
-3.920338 -0.839206 -0.157207
-3.915733 -0.823335 -0.156685
-3.913220 -0.807912 -0.156338
-3.923225 -0.795089 -0.157046
-3.912476 -0.777928 -0.156002
-3.902483 -0.761012 -0.155022
-3.898168 -0.745290 -0.154520
-3.899765 -0.730728 -0.154517
-3.900826 -0.716063 -0.154468
-3.902957 -0.701595 -0.154509
-3.903629 -0.686875 -0.154427
-3.883993 -0.668760 -0.152639
-3.887227 -0.654604 -0.152775
-3.882538 -0.639196 -0.152245
-3.876584 -0.623676 -0.151611
-3.881017 -0.609795 -0.151849
-3.889134 -0.596439 -0.152396
-3.889715 -0.582000 -0.152312
-3.885855 -0.567003 -0.151858
-3.881792 -0.552060 -0.151387
-3.879567 -0.537427 -0.151072
-3.878061 -0.522943 -0.150819
-3.875241 -0.508366 -0.150457
-3.868957 -0.493477 -0.149807
-3.863603 -0.478785 -0.149237
-3.860349 -0.464394 -0.148843
-3.855309 -0.449902 -0.148302
-3.850858 -0.435548 -0.147812
-3.843623 -0.421033 -0.147091
-3.844570 -0.407282 -0.147053
-3.843158 -0.393375 -0.146820
-3.848041 -0.379960 -0.147112
-3.852898 -0.366527 -0.147402
-3.856999 -0.353029 -0.147630
-3.854981 -0.339169 -0.147351
-3.846368 -0.325006 -0.146525
-3.840492 -0.311077 -0.145929
-3.839890 -0.297453 -0.145771
-3.836660 -0.283752 -0.145396
-3.839077 -0.270290 -0.145491
-3.833862 -0.256600 -0.144954
-3.830309 -0.243014 -0.144555
-3.827453 -0.229487 -0.144216
-3.827613 -0.216046 -0.144127
-3.825352 -0.202587 -0.143839
-3.822363 -0.189154 -0.143492
-3.820716 -0.175757 -0.143257
-3.822483 -0.162371 -0.143304
-3.825408 -0.148964 -0.143447
-3.872048 -0.134986 -0.147199
-4.055442 -0.103780 -0.162125
-4.018427 -0.090298 -0.158971
-4.035626 -0.075477 -0.160287
-4.037357 -0.046659 -0.160228
-4.002482 -0.033834 -0.157258
-4.015415 -0.018957 -0.158223
-4.014518 -0.004700 -0.158051
-4.008413 0.009251 -0.157451
-4.005650 0.023369 -0.157127
-4.009536 0.037925 -0.157349
-4.014061 0.052577 -0.157624
-4.010545 0.066663 -0.157239
-4.008108 0.080820 -0.156944
-4.004353 0.094855 -0.156540
-4.002471 0.109044 -0.156291
-3.997366 0.122923 -0.155778
-3.995079 0.137057 -0.155497
-3.991431 0.151045 -0.155104
-3.985068 0.164721 -0.154490
-3.980154 0.178524 -0.153994
-3.989145 0.193965 -0.154637
-3.988707 0.208341 -0.154508
-3.991449 0.223147 -0.154640
-3.992022 0.237713 -0.154594
-3.989527 0.251884 -0.154298
-4.000398 0.267972 -0.155093
-3.990149 0.281063 -0.154164
-3.986106 0.295032 -0.153742
-3.980479 0.308740 -0.153191
-3.987662 0.324500 -0.153684
-3.981181 0.338075 -0.153064
-3.968087 0.350481 -0.151906
-3.964504 0.364469 -0.151522
-3.961004 0.378468 -0.151146
-3.959775 0.392887 -0.150955
-3.965719 0.408696 -0.151347
-3.968186 0.423912 -0.151457
-3.953739 0.435786 -0.150191
-3.952538 0.450276 -0.150002
-3.953493 0.465242 -0.149988
-3.953198 0.479980 -0.149873
-3.953699 0.494923 -0.149822
-3.955301 0.510154 -0.149861
-3.954574 0.524897 -0.149710
-3.957269 0.540473 -0.149837
-3.951071 0.553974 -0.149243
-3.937643 0.565677 -0.148063
-3.943663 0.582145 -0.148459
-3.944801 0.597464 -0.148460
-3.939438 0.611139 -0.147934
-3.938197 0.625890 -0.147742
-3.929031 0.638525 -0.146908
-3.926397 0.652901 -0.146604
-3.930298 0.669120 -0.146827
-3.926224 0.683141 -0.146406
-3.917123 0.695698 -0.145579
-3.924159 0.712970 -0.146055
-3.940329 0.733097 -0.147267
-3.910289 0.739305 -0.144752
-3.887892 0.747620 -0.142854
-3.913865 0.771025 -0.144856
-3.919087 0.788076 -0.145184
-3.912875 0.801492 -0.144591
-3.908707 0.815563 -0.144163
-3.923129 0.835889 -0.145231
-3.908367 0.846434 -0.143951
-3.908900 0.862174 -0.143901
-3.897871 0.873892 -0.142922
-3.882293 0.883912 -0.141578
-3.886797 0.901098 -0.141847
-3.890882 0.918222 -0.142083
-3.885222 0.931798 -0.141536
-3.885326 0.947542 -0.141452
-3.896910 0.967743 -0.142289
-3.894677 0.982737 -0.142017
-3.887697 0.995883 -0.141365
-3.884262 1.010422 -0.140997
-3.883894 1.026218 -0.140875
-3.882572 1.041671 -0.140677
-3.878323 1.055943 -0.140245
-3.857001 1.063021 -0.138448
-3.864240 1.082123 -0.138935
-3.870289 1.100846 -0.139327
-3.869586 1.116733 -0.139179
-3.869437 1.132916 -0.139075
-3.867277 1.148254 -0.138811
-3.872101 1.166804 -0.139104
-3.863895 1.179471 -0.138359
-3.851550 1.190180 -0.137283
-3.852644 1.207155 -0.137280
-3.841362 1.218299 -0.136291
-3.840339 1.234339 -0.136119
-3.845177 1.253301 -0.136414
-3.855568 1.275135 -0.137151
-3.855168 1.291764 -0.137029
-3.843439 1.302729 -0.136007
-3.838582 1.317153 -0.135532
-3.838238 1.333934 -0.135416
-3.845388 1.354715 -0.135895
-3.840950 1.369527 -0.135454
-3.824880 1.378146 -0.134091
-3.824545 1.395177 -0.133977
-3.827015 1.413828 -0.134085
-3.825749 1.430532 -0.133898
-3.826566 1.448480 -0.133876
-3.824370 1.464830 -0.133616
-3.820925 1.480539 -0.133257
-3.815990 1.495447 -0.132781
-3.807217 1.508157 -0.132002
-3.806026 1.525339 -0.131823
-3.810798 1.546171 -0.132116
-3.808084 1.562665 -0.131818
-3.753296 1.638758 -0.127004
-3.721680 1.636910 -0.124433
-3.625701 1.592659 -0.116793
-3.561245 1.568102 -0.111641
-3.577435 1.596671 -0.112843
-3.576586 1.614103 -0.112703
-3.562653 1.622750 -0.111534
-3.561861 1.640395 -0.111400
-3.562448 1.659135 -0.111375
-3.564764 1.679250 -0.111486
-3.558611 1.693544 -0.110932
-3.562432 1.715054 -0.111161
-3.554615 1.728357 -0.110477
-3.552571 1.745930 -0.110247
-3.539284 1.755336 -0.109136
-3.527360 1.765731 -0.108132
-3.520177 1.779687 -0.107500
-3.536661 1.811711 -0.108724
-3.530325 1.826621 -0.108160
-3.520628 1.839000 -0.107332
-3.531719 1.867692 -0.108133
-3.526658 1.883945 -0.107669
-3.522213 1.900781 -0.107252
-3.523343 1.922217 -0.107273
-3.522061 1.941870 -0.107104
-3.521856 1.962552 -0.107019
-3.520783 1.982666 -0.106865
-3.516521 2.000235 -0.106462
-3.508604 2.014780 -0.105773
-3.501103 2.029685 -0.105116
-3.494626 2.045473 -0.104538
-3.494056 2.066421 -0.104420
-3.495878 2.089565 -0.104487
-3.496235 2.111522 -0.104438
-3.489216 2.126928 -0.103813
-3.480495 2.140723 -0.103053
-3.484277 2.165840 -0.103266
-3.486425 2.189524 -0.103349
-3.486315 2.211128 -0.103253
-3.463209 2.211071 -0.101367
-3.460279 2.229712 -0.101047
-3.457246 2.248124 -0.100717
-3.468829 2.280499 -0.101519
-3.543753 2.374636 -0.107231
-3.982917 -1.013604 -0.177972
-3.922382 -0.983382 -0.172461
-3.923810 -0.970040 -0.172496
-3.917486 -0.954477 -0.171831
-3.936988 -0.945453 -0.173471
-3.945870 -0.933412 -0.174154
-3.914274 -0.911122 -0.171212
-3.917079 -0.897368 -0.171342
-3.919893 -0.883482 -0.171468
-3.917140 -0.868176 -0.171093
-3.921490 -0.854436 -0.171349
-3.915119 -0.838193 -0.170645
-3.898351 -0.819690 -0.169012
-3.900748 -0.805397 -0.169086
-3.913834 -0.793275 -0.170110
-3.913676 -0.778309 -0.169952
-3.910344 -0.762703 -0.169511
-3.904834 -0.746706 -0.168876
-3.895858 -0.730115 -0.167933
-3.885213 -0.713320 -0.166842
-3.898108 -0.700844 -0.167842
-3.899382 -0.686247 -0.167810
-3.897246 -0.671092 -0.167476
-3.869710 -0.651841 -0.164892
-3.880082 -0.638898 -0.165669
-3.880515 -0.624364 -0.165567
-3.882196 -0.610050 -0.165575
-3.886986 -0.596206 -0.165860
-3.883968 -0.581272 -0.165456
-3.880528 -0.566354 -0.165015
-3.878849 -0.551739 -0.164733
-3.874773 -0.536884 -0.164240
-3.872833 -0.522366 -0.163938
-3.871691 -0.508000 -0.163707
-3.864259 -0.492996 -0.162925
-3.862489 -0.478697 -0.162643
-3.857770 -0.464159 -0.162103
-3.856694 -0.450050 -0.161886
-3.857995 -0.436203 -0.161880
-3.855616 -0.422064 -0.161551
-3.844676 -0.407290 -0.160473
-3.845004 -0.393508 -0.160386
-3.847428 -0.379904 -0.160484
-3.852092 -0.366456 -0.160781
-3.853154 -0.352768 -0.160763
-3.846801 -0.338672 -0.160096
-3.840831 -0.324681 -0.159465
-3.839594 -0.310994 -0.159250
-3.840377 -0.297428 -0.159214
-3.839208 -0.283799 -0.159008
-3.837243 -0.270172 -0.158734
-3.830221 -0.256432 -0.158019
-3.826495 -0.242853 -0.157594
-3.830304 -0.229472 -0.157829
-3.827644 -0.215969 -0.157500
-3.821883 -0.202468 -0.156901
-3.818912 -0.189045 -0.156548
-3.817131 -0.175659 -0.156299
-3.819494 -0.162282 -0.156413
-3.835661 -0.148778 -0.157732
-3.844866 -0.135215 -0.158443
-4.070688 -0.117850 -0.178027
-4.057065 -0.103614 -0.176745
-4.040750 -0.089575 -0.175230
-4.036422 -0.075312 -0.174761
-4.038656 -0.060851 -0.174863
-4.022873 -0.047091 -0.173400
-4.041265 -0.031935 -0.174909
-4.020607 -0.018538 -0.173024
-4.014664 -0.004525 -0.172420
-4.004122 0.009171 -0.171417
-4.005941 0.023565 -0.171489
-4.011745 0.038259 -0.171907
-4.003272 0.051981 -0.171087
-4.004985 0.066427 -0.171151
-4.004051 0.080687 -0.170987
-4.002821 0.094928 -0.170797
-4.003063 0.109309 -0.170736
-4.000704 0.123460 -0.170449
-3.998173 0.137590 -0.170149
-3.995071 0.151655 -0.169799
-3.997397 0.166310 -0.169920
-3.998581 0.180877 -0.169943
-3.984306 0.193628 -0.168628
-3.985888 0.208239 -0.168686
-3.991500 0.223407 -0.169093
-3.990288 0.237740 -0.168910
-3.988184 0.251963 -0.168650
-3.992017 0.267042 -0.168903
-3.992238 0.281648 -0.168845
-3.984153 0.295014 -0.168069
-3.988007 0.310212 -0.168325
-3.984462 0.324273 -0.167942
-3.984176 0.338873 -0.167841
-3.979964 0.352824 -0.167402
-3.970415 0.365821 -0.166502
-3.967619 0.379982 -0.166186
-3.964382 0.394063 -0.165831
-3.965684 0.409013 -0.165868
-3.959763 0.422589 -0.165283
-3.955194 0.436412 -0.164815
-3.957516 0.451640 -0.164939
-3.955696 0.466051 -0.164708
-3.953042 0.480296 -0.164405
-3.952930 0.495110 -0.164321
-3.945925 0.508401 -0.163644
-3.945657 0.523210 -0.163547
-3.956140 0.540581 -0.164373
-3.951824 0.554534 -0.163928
-3.939472 0.566508 -0.162793
-3.945827 0.583076 -0.163264
-3.949691 0.599108 -0.163521
-3.950877 0.614517 -0.163549
-3.944952 0.628088 -0.162966
-3.933329 0.640097 -0.161895
-3.921818 0.652057 -0.160835
-3.935451 0.670987 -0.161929
-3.937683 0.686840 -0.162046
-3.928143 0.699333 -0.161155
-3.926692 0.714159 -0.160957
-3.935045 0.731956 -0.161598
-3.913700 0.740798 -0.159698
-3.898243 0.751291 -0.158303
-3.918414 0.772926 -0.159954
-3.922841 0.789752 -0.160259
-3.914092 0.802365 -0.159438
-3.910712 0.816709 -0.159076
-3.906215 0.830683 -0.158619
-3.907898 0.846767 -0.158690
-3.908082 0.862391 -0.158632
-3.905388 0.877046 -0.158330
-3.888553 0.886660 -0.156821
-3.880203 0.899221 -0.156036
-3.891568 0.918998 -0.156934
-3.894177 0.935671 -0.157084
-3.886825 0.948646 -0.156386
-3.891987 0.966397 -0.156754
-3.892278 0.982354 -0.156707
-3.889123 0.997003 -0.156367
-3.884756 1.011183 -0.155924
-3.885792 1.027558 -0.155942
-3.884822 1.043172 -0.155789
-3.854810 1.046731 -0.153166
-3.885834 1.075774 -0.155735
-3.874646 1.087166 -0.154714
-3.860356 1.097149 -0.153431
-3.853555 1.110314 -0.152785
-3.857236 1.128117 -0.153029
-3.862403 1.146687 -0.153401
-3.861651 1.162682 -0.153269
-3.868336 1.182157 -0.153770
-3.870870 1.199834 -0.153918
-3.874242 1.218000 -0.154138
-3.854643 1.225301 -0.152411
-3.838864 1.234292 -0.151008
-3.848263 1.255485 -0.151741
-3.851568 1.273842 -0.151957
-3.852260 1.291002 -0.151953
-3.843747 1.303584 -0.151169
-3.832082 1.314531 -0.150120
-3.835129 1.333039 -0.150317
-3.845510 1.355505 -0.151136
-3.836190 1.367740 -0.150287
-3.831740 1.382558 -0.149852
-3.832515 1.400239 -0.149860
-3.828617 1.415461 -0.149473
-3.826061 1.431470 -0.149201
-3.822816 1.447157 -0.148872
-3.822101 1.464331 -0.148757
-3.820091 1.480856 -0.148533
-3.816391 1.496480 -0.148168
-3.808641 1.509798 -0.147463
-3.808603 1.527678 -0.147409
-3.814244 1.549057 -0.147835
-3.770268 1.650532 -0.143812
-3.735723 1.646899 -0.140861
-3.613126 1.585294 -0.130492
-3.576657 1.579154 -0.127384
-3.584666 1.602377 -0.128025
-3.578712 1.616424 -0.127490
-3.569315 1.628184 -0.126667
-3.554333 1.636113 -0.125375
-3.555148 1.654971 -0.125415
-3.557365 1.674978 -0.125574
-3.561921 1.696830 -0.125930
-3.563401 1.716700 -0.126029
-3.566872 1.738193 -0.126297
-3.548699 1.744069 -0.124744
-3.541773 1.758153 -0.124139
-3.538750 1.775216 -0.123864
-3.544595 1.799086 -0.124335
-3.547660 1.821098 -0.124574
-3.536853 1.832665 -0.123647
-3.531709 1.848638 -0.123197
-3.529138 1.866721 -0.122964
-3.530158 1.887780 -0.123034
-3.530470 1.908460 -0.123045
-3.526110 1.925541 -0.122664
-3.523552 1.944188 -0.122434
-3.519910 1.962063 -0.122113
-3.519809 1.982982 -0.122090
-3.514306 1.999513 -0.121612
-3.504206 2.012197 -0.120748
-3.497395 2.027666 -0.120160
-3.496451 2.048218 -0.120063
-3.501489 2.074090 -0.120468
-3.500889 2.095175 -0.120398
-3.499311 2.115463 -0.120244
-3.492941 2.131486 -0.119685
-3.486642 2.147516 -0.119129
-3.487023 2.169584 -0.119132
-3.489354 2.193471 -0.119295
-3.480006 2.206496 -0.118474
-3.475580 2.223958 -0.118062
-3.456896 2.227754 -0.116450
-3.445962 2.238577 -0.115485
-3.460726 2.273944 -0.116670
-3.538163 2.370506 -0.123104
-3.933131 -1.000055 -0.187478
-3.931981 -0.986163 -0.187290
-3.899100 -0.963630 -0.184105
-3.921090 -0.955601 -0.186082
-3.928163 -0.943364 -0.186645
-3.923911 -0.928049 -0.186136
-3.926246 -0.914269 -0.186239
-3.916102 -0.897311 -0.185163
-3.903092 -0.879661 -0.183814
-3.916696 -0.868250 -0.184960
-3.912323 -0.852520 -0.184413
-3.910342 -0.837300 -0.184087
-3.903232 -0.820925 -0.183277
-3.901385 -0.805700 -0.182958
-3.901734 -0.790919 -0.182843
-3.902053 -0.776107 -0.182724
-3.905885 -0.761975 -0.182931
-3.908885 -0.747640 -0.183060
-3.897285 -0.730531 -0.181823
-3.892338 -0.714767 -0.181208
-3.895428 -0.700503 -0.181344
-3.899941 -0.686476 -0.181613
-3.892755 -0.670462 -0.180791
-3.883391 -0.654194 -0.179768
-3.881952 -0.639308 -0.179485
-3.883158 -0.624878 -0.179450
-3.882923 -0.610261 -0.179282
-3.876873 -0.594850 -0.178575
-3.876750 -0.580362 -0.178420
-3.878129 -0.566117 -0.178408
-3.873960 -0.551187 -0.177881
-3.870602 -0.536439 -0.177432
-3.869763 -0.522066 -0.177220
-3.871194 -0.508002 -0.177220
-3.870814 -0.493767 -0.177053
-3.864273 -0.478930 -0.176318
-3.859244 -0.464346 -0.175726
-3.862159 -0.450604 -0.175871
-3.860485 -0.436456 -0.175594
-3.853688 -0.421921 -0.174845
-3.849248 -0.407675 -0.174317
-3.848657 -0.393796 -0.174146
-3.849112 -0.380028 -0.174075
-3.846453 -0.366077 -0.173717
-3.846132 -0.352324 -0.173578
-3.842580 -0.338416 -0.173143
-3.842872 -0.324767 -0.173064
-3.845699 -0.311260 -0.173220
-3.846875 -0.297676 -0.173226
-3.843814 -0.283938 -0.172844
-3.838667 -0.270176 -0.172271
-3.825778 -0.256252 -0.170988
-3.834895 -0.243003 -0.171732
-3.832983 -0.229463 -0.171463
-3.824350 -0.215851 -0.170577
-3.820649 -0.202381 -0.170147
-3.818937 -0.188966 -0.169901
-3.817965 -0.175576 -0.169725
-3.820451 -0.162189 -0.169868
-3.829298 -0.148732 -0.170596
-3.838372 -0.135194 -0.171346
-4.021036 -0.104280 -0.187938
-4.018428 -0.075739 -0.187531
-4.025990 -0.061165 -0.188142
-4.033026 -0.046538 -0.188705
-4.031412 -0.032228 -0.188477
-4.023357 -0.018246 -0.187661
-4.007718 -0.004741 -0.186152
-4.006416 0.009472 -0.185956
-4.005877 0.023733 -0.185832
-4.004194 0.037923 -0.185603
-4.003301 0.052167 -0.185449
-3.998111 0.066083 -0.184902
-3.995607 0.080188 -0.184601
-3.999178 0.094812 -0.184857
-4.000567 0.109286 -0.184914
-4.001942 0.123790 -0.184970
-3.997057 0.137694 -0.184456
-3.996959 0.152077 -0.184379
-4.003819 0.167247 -0.184938
-4.005310 0.181885 -0.185008
-3.984288 0.193865 -0.183024
-3.993583 0.209441 -0.183807
-3.993452 0.223910 -0.183730
-3.990001 0.237958 -0.183351
-3.988244 0.252233 -0.183128
-3.991350 0.267214 -0.183347
-3.988606 0.281384 -0.183035
-3.988868 0.296014 -0.182996
-3.993685 0.311392 -0.183373
-3.989517 0.325384 -0.182932
-3.983819 0.339109 -0.182352
-3.979838 0.353104 -0.181929
-3.977861 0.367444 -0.181689
-3.965975 0.379994 -0.180547
-3.964090 0.394325 -0.180316
-3.958727 0.408004 -0.179770
-3.954853 0.421953 -0.179358
-3.960326 0.437776 -0.179797
-3.959847 0.452459 -0.179695
-3.957070 0.466684 -0.179384
-3.953136 0.480666 -0.178969
-3.945751 0.493881 -0.178241
-3.940749 0.507594 -0.177729
-3.936866 0.521550 -0.177319
-3.941893 0.537600 -0.177718
-3.957993 0.556396 -0.179122
-3.960603 0.572077 -0.179301
-3.951971 0.585004 -0.178461
-3.953068 0.600366 -0.178504
-3.951395 0.615054 -0.178296
-3.942179 0.627760 -0.177404
-3.926797 0.638743 -0.175954
-3.924160 0.653118 -0.175659
-3.926000 0.668761 -0.175770
-3.942807 0.688733 -0.177236
-3.932668 0.701083 -0.176263
-3.931430 0.716001 -0.176095
-3.939742 0.733818 -0.176792
-3.934458 0.747601 -0.176259
-3.917752 0.757816 -0.174692
-3.914710 0.772220 -0.174363
-3.928833 0.792150 -0.175585
-3.910201 0.801571 -0.173846
-3.915833 0.818890 -0.174302
-3.911703 0.833021 -0.173875
-3.907780 0.847222 -0.173467
-3.908736 0.863120 -0.173500
-3.908382 0.878610 -0.173415
-3.902355 0.892111 -0.172818
-3.884923 0.901452 -0.171192
-3.894358 0.920552 -0.171992
-3.898173 0.937698 -0.172285
-3.890632 0.950627 -0.171553
-3.879580 0.962175 -0.170506
-3.886921 0.980820 -0.171118
-3.887874 0.997069 -0.171154
-3.892630 1.014902 -0.171533
-3.875254 1.023855 -0.169918
-3.883759 1.043316 -0.170636
-3.885223 1.059988 -0.170720
-3.886308 1.076570 -0.170771
-3.868592 1.085178 -0.169128
-3.858208 1.096824 -0.168147
-3.848733 1.108811 -0.167249
-3.849254 1.125192 -0.167251
-3.848125 1.140895 -0.167106
-3.848392 1.157282 -0.167087
-3.855120 1.176711 -0.167650
-3.867700 1.199010 -0.168740
-3.869570 1.216458 -0.168868
-3.855347 1.226305 -0.167548
-3.845844 1.238340 -0.166654
-3.843610 1.253892 -0.166415
-3.844896 1.271232 -0.166494
-3.842226 1.286679 -0.166218
-3.835610 1.300171 -0.165588
-3.829347 1.313844 -0.164992
-3.824568 1.328291 -0.164529
-3.837848 1.352225 -0.165691
-3.841829 1.371470 -0.166018
-3.837913 1.386616 -0.165637
-3.834508 1.402079 -0.165303
-3.829708 1.416827 -0.164845
-3.825434 1.431900 -0.164436
-3.820349 1.446562 -0.163956
-3.820646 1.464304 -0.163960
-3.817557 1.480211 -0.163662
-3.814333 1.496105 -0.163353
-3.807362 1.509873 -0.162709
-3.805010 1.526391 -0.162482
-3.774714 1.526310 -0.159748
-3.806281 1.655688 -0.162530
-3.730070 1.644145 -0.155688
-3.604837 1.580749 -0.144452
-3.592108 1.590262 -0.143313
-3.581578 1.601211 -0.142374
-3.580019 1.618215 -0.142241
-3.564114 1.625552 -0.140823
-3.559291 1.640453 -0.140402
-3.556771 1.657037 -0.140188
-3.557004 1.675674 -0.140225
-3.553794 1.692021 -0.139954
-3.553836 1.710815 -0.139977
-3.560609 1.734646 -0.140606
-3.556408 1.750708 -0.140252
-3.549205 1.764654 -0.139630
-3.548001 1.783142 -0.139548
-3.534606 1.792589 -0.138374
-3.548964 1.823141 -0.139694
-3.542707 1.838228 -0.139164
-3.533491 1.851094 -0.138370
-3.532397 1.870361 -0.138306
-3.534740 1.892509 -0.138553
-3.534822 1.913055 -0.138598
-3.532060 1.931473 -0.138389
-3.520800 1.943078 -0.137415
-3.519013 1.962472 -0.137295
-3.518817 1.983318 -0.137317
-3.513036 1.999617 -0.136837
-3.504282 2.013442 -0.136090
-3.500733 2.031716 -0.135810
-3.499876 2.052383 -0.135771
-3.498834 2.072986 -0.135714
-3.497674 2.093565 -0.135645
-3.496292 2.114012 -0.135554
-3.494493 2.134126 -0.135422
-3.488780 2.150708 -0.134935
-3.484803 2.168813 -0.134600
-3.481109 2.187120 -0.134286
-3.479834 2.207609 -0.134186
-3.480185 2.229573 -0.134227
-3.473430 2.244736 -0.133622
-3.450124 2.243844 -0.131519
-3.442645 2.257754 -0.130836
-3.435286 2.271531 -0.130156
-3.938803 -1.001805 -0.202017
-3.920202 -0.983156 -0.200105
-3.906415 -0.965771 -0.198661
-3.915409 -0.954306 -0.199459
-3.927379 -0.943359 -0.200543
-3.930001 -0.929785 -0.200694
-3.935686 -0.916807 -0.201139
-3.936141 -0.902379 -0.201061
-3.915445 -0.882801 -0.198889
-3.889709 -0.862154 -0.196217
-3.910818 -0.852373 -0.198159
-3.906522 -0.836642 -0.197591
-3.909303 -0.822443 -0.197717
-3.911441 -0.808036 -0.197776
-3.902900 -0.791349 -0.196781
-3.891644 -0.774173 -0.195519
-3.896496 -0.760292 -0.195838
-3.899708 -0.746042 -0.195995
-3.898214 -0.730876 -0.195689
-3.898418 -0.716047 -0.195549
-3.902872 -0.701990 -0.195826
-3.901650 -0.686927 -0.195547
-3.894019 -0.670824 -0.194641
-3.889651 -0.655360 -0.194056
-3.886746 -0.640205 -0.193617
-3.886190 -0.625474 -0.193408
-3.877208 -0.609536 -0.192378
-3.872111 -0.594285 -0.191730
-3.873460 -0.580018 -0.191714
-3.877280 -0.566109 -0.191941
-3.871051 -0.550910 -0.191190
-3.867312 -0.536123 -0.190684
-3.867570 -0.521890 -0.190571
-3.871546 -0.508121 -0.190822
-3.868288 -0.493562 -0.190371
-3.865380 -0.479111 -0.189956
-3.863154 -0.464795 -0.189611
-3.864215 -0.450851 -0.189588
-3.862291 -0.436664 -0.189277
-3.855781 -0.422138 -0.188524
-3.853747 -0.408070 -0.188208
-3.850869 -0.393989 -0.187813
-3.848508 -0.380003 -0.187470
-3.843756 -0.365910 -0.186898
-3.841793 -0.352061 -0.186600
-3.841158 -0.338334 -0.186432
-3.850693 -0.325171 -0.187252
-3.853368 -0.311613 -0.187409
-3.849862 -0.297785 -0.186970
-3.843194 -0.283888 -0.186228
-3.839822 -0.270182 -0.185806
-3.837076 -0.256543 -0.185448
-3.832982 -0.242911 -0.184962
-3.831222 -0.229377 -0.184703
-3.824658 -0.215799 -0.183983
-3.820075 -0.202312 -0.183456
-3.820751 -0.188908 -0.183438
-3.823490 -0.175508 -0.183622
-3.821942 -0.162103 -0.183393
-3.824476 -0.148684 -0.183560
-3.852330 -0.134925 -0.186170
-3.989055 -0.090699 -0.199122
-3.998066 -0.076248 -0.199917
-4.021585 -0.061192 -0.202109
-4.029004 -0.046563 -0.202752
-4.021537 -0.032529 -0.201963
-4.007819 -0.018868 -0.200575
-4.014030 -0.004244 -0.201105
-4.010957 0.009900 -0.200744
-4.007740 0.024018 -0.200370
-4.004134 0.038091 -0.199961
-4.002391 0.052279 -0.199731
-4.005982 0.066878 -0.200016
-4.001734 0.080881 -0.199548
-3.993934 0.094552 -0.198740
-3.997624 0.109219 -0.199037
-3.997136 0.123536 -0.198934
-3.993033 0.137502 -0.198485
-3.992418 0.151817 -0.198371
-4.002603 0.167339 -0.199295
-4.003200 0.181874 -0.199299
-4.005621 0.196656 -0.199479
-4.001595 0.210681 -0.199041
-3.991152 0.223862 -0.197989
-3.985679 0.237633 -0.197414
-3.989069 0.252607 -0.197690
-3.989283 0.267183 -0.197662
-3.989331 0.281763 -0.197619
-3.990125 0.296483 -0.197648
-3.990657 0.311198 -0.197652
-3.989367 0.325649 -0.197482
-3.977165 0.338290 -0.196267
-3.977448 0.352991 -0.196249
-3.972039 0.366718 -0.195687
-3.973254 0.381627 -0.195759
-3.962851 0.394409 -0.194719
-3.959928 0.408554 -0.194396
-3.960943 0.423475 -0.194450
-3.955894 0.437217 -0.193925
-3.957138 0.452238 -0.194002
-3.956634 0.466936 -0.193912
-3.951146 0.480585 -0.193345
-3.945606 0.494203 -0.192775
-3.938058 0.507346 -0.192012
-3.940503 0.522753 -0.192206
-3.947075 0.539192 -0.192794
-3.954226 0.555869 -0.193437
-3.956305 0.571407 -0.193596
-3.959800 0.587356 -0.193890
-3.951649 0.600400 -0.193072
-3.944507 0.613662 -0.192351
-3.939406 0.627431 -0.191825
-3.938273 0.642259 -0.191679
-3.938515 0.657492 -0.191664
-3.942547 0.673828 -0.192011
-3.936853 0.687464 -0.191430
-3.940399 0.703768 -0.191731
-3.942691 0.719776 -0.191913
-3.941647 0.734842 -0.191776
-3.938724 0.749362 -0.191461
-3.920245 0.759051 -0.189662
-3.912697 0.772049 -0.188907
-3.909975 0.786561 -0.188612
-3.907707 0.801234 -0.188361
-3.916522 0.819604 -0.189167
-3.913771 0.834209 -0.188870
-3.908820 0.848075 -0.188365
-3.907572 0.863220 -0.188212
-3.897185 0.875171 -0.187190
-3.897468 0.890878 -0.187184
-3.897332 0.906481 -0.187139
-3.884598 0.917483 -0.185895
-3.889268 0.934905 -0.186309
-3.889179 0.950619 -0.186270
-3.888794 0.966265 -0.186204
-3.888449 0.981972 -0.186142
-3.890927 0.998840 -0.186350
-3.910230 1.022526 -0.188160
-3.906958 1.037305 -0.187821
-3.889738 1.046361 -0.186155
-3.886055 1.060927 -0.185779
-3.878399 1.073830 -0.185026
-3.879996 1.090662 -0.185154
-3.858259 1.097456 -0.183063
-3.863264 1.115805 -0.183517
-3.843892 1.123433 -0.181653
-3.844701 1.139986 -0.181710
-3.843458 1.155674 -0.181573
-3.850252 1.175117 -0.182201
-3.854973 1.193731 -0.182633
-3.859112 1.212188 -0.183011
-3.859144 1.228795 -0.183000
-3.846290 1.239237 -0.181764
-3.844794 1.255161 -0.181610
-3.843466 1.271223 -0.181473
-3.836156 1.284346 -0.180769
-3.829479 1.297779 -0.180127
-3.827876 1.313812 -0.179968
-3.822865 1.328139 -0.179487
-3.820809 1.344036 -0.179288
-3.838930 1.370687 -0.181010
-3.832499 1.384476 -0.180399
-3.823238 1.396742 -0.179520
-3.817130 1.410715 -0.178943
-3.817914 1.428524 -0.179023
-3.817974 1.446030 -0.179037
-3.819471 1.464447 -0.179188
-3.815294 1.479735 -0.178803
-3.809049 1.493877 -0.178223
-3.803286 1.508328 -0.177690
-3.798304 1.523276 -0.177234
-3.786451 1.570301 -0.176174
-3.794853 1.649356 -0.177098
-3.754337 1.642146 -0.173279
-3.689153 1.618533 -0.167112
-3.597028 1.576532 -0.158381
-3.589939 1.589736 -0.157749
-3.585529 1.604772 -0.157374
-3.566928 1.610299 -0.155650
-3.565668 1.627550 -0.155580
-3.567095 1.646782 -0.155769
-3.564325 1.663258 -0.155561
-3.556624 1.676380 -0.154885
-3.555422 1.694165 -0.154832
-3.557643 1.714547 -0.155107
-3.559783 1.735062 -0.155379
-3.557370 1.752440 -0.155218
-3.553105 1.768577 -0.154883
-3.546721 1.783239 -0.154348
-3.543583 1.800423 -0.154126
-3.545784 1.821800 -0.154416
-3.538661 1.836207 -0.153818
-3.533079 1.851876 -0.153369
-3.530841 1.870257 -0.153241
-3.535070 1.893903 -0.153735
-3.533956 1.913508 -0.153719
-3.527917 1.929283 -0.153233
-3.521184 1.944560 -0.152682
-3.517342 1.962276 -0.152408
-3.520882 1.986233 -0.152843
-3.516127 2.003423 -0.152482
-3.509593 2.019167 -0.151951
-3.504134 2.035858 -0.151522
-3.498851 2.052733 -0.151109
-3.493926 2.069945 -0.150728
-3.494318 2.091864 -0.150856
-3.495188 2.114298 -0.151028
-3.494138 2.135086 -0.151012
-3.489886 2.152997 -0.150684
-3.486670 2.171814 -0.150451
-3.485649 2.192616 -0.150423
-3.480782 2.209797 -0.150020
-3.482373 2.232943 -0.150232
-3.476286 2.248762 -0.149697
-3.456782 2.251529 -0.147862
-3.436940 2.253538 -0.145984
-3.438124 2.275599 -0.146124
-3.978477 -1.012944 -0.220140
-3.919847 -0.983258 -0.214003
-3.915345 -0.968355 -0.213462
-3.919771 -0.955656 -0.213834
-3.923789 -0.942645 -0.214154
-3.938240 -0.932080 -0.215542
-3.940285 -0.918163 -0.215638
-3.920281 -0.898742 -0.213447
-3.920815 -0.884298 -0.213371
-3.910368 -0.867190 -0.212154
-3.907603 -0.851857 -0.211726
-3.912073 -0.838099 -0.212038
-3.913079 -0.823483 -0.211989
-3.914732 -0.808951 -0.212002
-3.910167 -0.793074 -0.211371
-3.900040 -0.776087 -0.210166
-3.892640 -0.759730 -0.209240
-3.895803 -0.745485 -0.209400
-3.894173 -0.730309 -0.209066
-3.892589 -0.715168 -0.208737
-3.901379 -0.701909 -0.209473
-3.905491 -0.687772 -0.209728
-3.898474 -0.671747 -0.208843
-3.892169 -0.655938 -0.208032
-3.889734 -0.640838 -0.207620
-3.880068 -0.624688 -0.206470
-3.876436 -0.609568 -0.205940
-3.872152 -0.594431 -0.205346
-3.874375 -0.580278 -0.205420
-3.873290 -0.565702 -0.205159
-3.873530 -0.551349 -0.205035
-3.867321 -0.536236 -0.204255
-3.872052 -0.522529 -0.204595
-3.870246 -0.508070 -0.204271
-3.866075 -0.493410 -0.203709
-3.865459 -0.479203 -0.203512
-3.865696 -0.465126 -0.203405
-3.866207 -0.451110 -0.203329
-3.862520 -0.436747 -0.202828
-3.861855 -0.422713 -0.202639
-3.858496 -0.408502 -0.202178
-3.853045 -0.394196 -0.201507
-3.847929 -0.379996 -0.200874
-3.841609 -0.365794 -0.200122
-3.840728 -0.352016 -0.199926
-3.843819 -0.338499 -0.200135
-3.850180 -0.325150 -0.200679
-3.853145 -0.311601 -0.200880
-3.843580 -0.297507 -0.199813
-3.839360 -0.283726 -0.199292
-3.842696 -0.270259 -0.199538
-3.837805 -0.256537 -0.198954
-3.830368 -0.242814 -0.198114
-3.826586 -0.229245 -0.197648
-3.823565 -0.215735 -0.197261
-3.818505 -0.202243 -0.196670
-3.820837 -0.188849 -0.196829
-3.829945 -0.175450 -0.197675
-3.826919 -0.162014 -0.197296
-3.833092 -0.148536 -0.197850
-3.899883 -0.134239 -0.204530
-3.985991 -0.118991 -0.213161
-4.001467 -0.090260 -0.214589
-4.006840 -0.075859 -0.215067
-4.022718 -0.061028 -0.216606
-4.029906 -0.046396 -0.217270
-4.016527 -0.032619 -0.215860
-4.015349 -0.018352 -0.215683
-4.015541 -0.004013 -0.215645
-4.012465 0.010144 -0.215280
-4.007639 0.024172 -0.214740
-4.000541 0.038012 -0.213973
-4.004996 0.052642 -0.214372
-4.014024 0.067682 -0.215232
-4.010373 0.081778 -0.214817
-3.994663 0.094806 -0.213187
-3.992481 0.108945 -0.212923
-3.991293 0.123176 -0.212759
-3.987264 0.137128 -0.212311
-3.995160 0.152322 -0.213065
-4.000064 0.167281 -0.213518
-4.001344 0.181889 -0.213607
-4.002330 0.196496 -0.213668
-4.000948 0.210840 -0.213491
-3.985852 0.223422 -0.211936
-3.977619 0.236804 -0.211072
-3.982303 0.251925 -0.211508
-3.988820 0.267380 -0.212130
-3.981448 0.280863 -0.211355
-3.991383 0.296951 -0.212322
-3.992501 0.311770 -0.212403
-3.974970 0.323594 -0.210609
-3.972272 0.337762 -0.210307
-3.971211 0.352215 -0.210171
-3.971587 0.366941 -0.210180
-3.968859 0.381137 -0.209877
-3.968606 0.395798 -0.209824
-3.968441 0.410505 -0.209780
-3.966048 0.424803 -0.209513
-3.959085 0.438190 -0.208787
-3.950268 0.451159 -0.207875
-3.956224 0.467192 -0.208449
-3.962810 0.483453 -0.209085
-3.930683 0.491260 -0.205834
-3.954819 0.511490 -0.208234
-3.946781 0.524567 -0.207404
-3.949622 0.540164 -0.207666
-3.947819 0.554705 -0.207462
-3.952737 0.570915 -0.207934
-3.957759 0.587236 -0.208416
-3.957193 0.602214 -0.208337
-3.947221 0.614771 -0.207315
-3.947298 0.629935 -0.207302
-3.949821 0.645798 -0.207535
-3.946115 0.660007 -0.207143
-3.934821 0.672085 -0.205990
-3.940166 0.688843 -0.206507
-3.946421 0.705959 -0.207116
-3.948257 0.721869 -0.207281
-3.933189 0.732747 -0.205751
-3.925402 0.745740 -0.204953
-3.913436 0.757392 -0.203735
-3.913568 0.772791 -0.203732
-3.916847 0.789245 -0.204045
-3.913302 0.803542 -0.203673
-3.908340 0.817374 -0.203161
-3.910332 0.833543 -0.203346
-3.909512 0.848812 -0.203250
-3.903623 0.862353 -0.202646
-3.899803 0.876606 -0.202250
-3.895581 0.890720 -0.201814
-3.893068 0.905455 -0.201551
-3.884236 0.917880 -0.200654
-3.879596 0.931825 -0.200179
-3.889482 0.951278 -0.201161
-3.887892 0.966470 -0.200993
-3.889397 0.982901 -0.201136
-3.900492 1.003189 -0.202241
-3.903867 1.020553 -0.202574
-3.907368 1.038056 -0.202920
-3.899435 1.050943 -0.202120
-3.881861 1.059775 -0.200355
-3.879523 1.074908 -0.200119
-3.867748 1.086031 -0.198937
-3.886214 1.110192 -0.200789
-3.852248 1.111592 -0.197385
-3.854119 1.128608 -0.197575
-3.848605 1.142380 -0.197026
-3.859122 1.163458 -0.198086
-3.861686 1.181046 -0.198350
-3.855486 1.194634 -0.197736
-3.842257 1.204896 -0.196419
-3.850831 1.225501 -0.197290
-3.850391 1.241911 -0.197259
-3.846757 1.256820 -0.196909
-3.846463 1.273414 -0.196895
-3.847292 1.290641 -0.196996
-3.827737 1.297618 -0.195055
-3.826406 1.313789 -0.194943
-3.821466 1.328152 -0.194471
-3.825942 1.347476 -0.194945
-3.829097 1.366235 -0.195289
-3.826424 1.381990 -0.195051
-3.819210 1.395338 -0.194359
-3.812127 1.408760 -0.193683
-3.808855 1.424301 -0.193391
-3.819981 1.447965 -0.194547
-3.816636 1.463663 -0.194253
-3.813412 1.479489 -0.193973
-3.807417 1.493774 -0.193418
-3.800882 1.507773 -0.192811
-3.817327 1.535383 -0.194515
-3.811876 1.550227 -0.194023
-3.754674 1.624754 -0.188664
-3.728747 1.626651 -0.186131
-3.681387 1.614429 -0.181441
-3.600201 1.579531 -0.173346
-3.587479 1.589036 -0.172146
-3.580070 1.602059 -0.171485
-3.571780 1.614527 -0.170738
-3.568277 1.630293 -0.170476
-3.573474 1.652157 -0.171095
-3.565115 1.664796 -0.170351
-3.558261 1.678530 -0.169761
-3.560017 1.698443 -0.170044
-3.562095 1.718771 -0.170363
-3.552497 1.730820 -0.169506
-3.558749 1.754506 -0.170254
-3.552253 1.769016 -0.169717
-3.547820 1.785141 -0.169391
-3.544440 1.802165 -0.169176
-3.538924 1.817681 -0.168747
-3.533103 1.833050 -0.168289
-3.531940 1.852125 -0.168307
-3.540112 1.878688 -0.169275
-3.537575 1.897056 -0.169159
-3.533958 1.914690 -0.168936
-3.527617 1.930232 -0.168438
-3.521644 1.946140 -0.167978
-3.517327 1.963479 -0.167688
-3.514376 1.982044 -0.167538
-3.512964 2.002005 -0.167545
-3.512959 2.023279 -0.167696
-3.508849 2.041165 -0.167427
-3.501417 2.056229 -0.166819
-3.494139 2.071412 -0.166224
-3.495634 2.094317 -0.166522
-3.497106 2.117309 -0.166815
-3.495758 2.137854 -0.166817
-3.486332 2.151085 -0.165987
-3.483938 2.170631 -0.165871
-3.487783 2.195919 -0.166387
-3.481744 2.212026 -0.165885
-3.479916 2.231964 -0.165805
-3.480378 2.253988 -0.165952
-3.469415 2.264976 -0.164917
-3.447208 2.264791 -0.162717
-3.416359 2.255673 -0.159618
-3.953367 -1.006220 -0.231631
-3.923682 -0.984506 -0.228363
-3.917192 -0.969061 -0.227592
-3.927681 -0.957950 -0.228645
-3.933793 -0.945446 -0.229213
-3.915629 -0.926595 -0.227145
-3.923078 -0.914130 -0.227836
-3.913164 -0.897247 -0.226641
-3.925424 -0.885633 -0.227833
-3.912284 -0.867874 -0.226274
-3.918503 -0.854585 -0.226798
-3.933904 -0.843216 -0.228306
-3.918280 -0.824857 -0.226463
-3.913363 -0.808895 -0.225770
-3.910050 -0.793283 -0.225247
-3.907536 -0.777842 -0.224807
-3.909114 -0.763226 -0.224806
-3.896545 -0.745851 -0.223282
-3.891115 -0.729950 -0.222525
-3.891215 -0.715129 -0.222362
-3.894786 -0.700940 -0.222572
-3.896328 -0.686386 -0.222564
