ply
format ascii 1.0
comment ---
element vertex 1594
property float x
property float y
property float z
element face 0
property list uchar uint vertex_indices
end_header
-3.335423 -4.589038 -1.456114
-3.334033 -4.580252 -1.455794
-3.338184 -4.569850 -1.461444
-3.336305 -4.561162 -1.460618
-3.328238 -4.554364 -1.453130
-3.328128 -4.545170 -1.454222
-3.333895 -4.534073 -1.461670
-3.336307 -4.523962 -1.465516
-3.332910 -4.515730 -1.463094
-3.336619 -4.505094 -1.468370
-3.324128 -4.500022 -1.456111
-3.323712 -4.490806 -1.456936
-3.318659 -4.483250 -1.452740
-3.325089 -4.471482 -1.461025
-3.321835 -4.463249 -1.458802
-3.323132 -4.453278 -1.461541
-3.317577 -4.445946 -1.456831
-3.306435 -4.440900 -1.446027
-3.309607 -4.430150 -1.450845
-3.319131 -4.416680 -1.462626
-3.312102 -4.410029 -1.456334
-3.317349 -4.398164 -1.463486
-3.309896 -4.391744 -1.456744
-3.311930 -4.381172 -1.460412
-3.313237 -4.370858 -1.463303
-3.302373 -4.366093 -1.452830
-3.296228 -4.359242 -1.447546
-3.306352 -4.344696 -1.460194
-3.301575 -4.337161 -1.456445
-3.295770 -4.330163 -1.451568
-3.293488 -4.321448 -1.450593
-3.300498 -4.308006 -1.459917
-3.300616 -4.297957 -1.461643
-3.298365 -4.289098 -1.460761
-3.292455 -4.282168 -1.455831
-3.279907 -4.278863 -1.443525
-3.280170 -4.268691 -1.445473
-3.286883 -4.254874 -1.454637
-3.289627 -4.243130 -1.459412
-3.287587 -4.234021 -1.458873
-3.287217 -4.223917 -1.460222
-3.283556 -4.215695 -1.457907
-3.272113 -4.212121 -1.446878
-3.276079 -4.199342 -1.453153
-3.276091 -4.188859 -1.455018
-3.278774 -4.176645 -1.459919
-3.277761 -4.166649 -1.460690
-3.274012 -4.158351 -1.458394
-3.271160 -4.149464 -1.457132
-3.262688 -4.144248 -1.449524
-3.266671 -4.130807 -1.456047
-3.268828 -4.118451 -1.460540
-3.265757 -4.109553 -1.459123
-3.262899 -4.100483 -1.457971
-3.260871 -4.090799 -1.457786
-3.259608 -4.080524 -1.458502
-3.255242 -4.072423 -1.455694
-3.253948 -4.062075 -1.456425
-3.249442 -4.054037 -1.453494
-3.246244 -4.045015 -1.452083
-3.243921 -4.035300 -1.451702
-3.243877 -4.023790 -1.453973
-3.241027 -4.014369 -1.453032
-3.234859 -4.007526 -1.448267
-3.230517 -3.999254 -1.445628
-3.231815 -3.986424 -1.449554
-3.231703 -3.974628 -1.451873
-3.231160 -3.963100 -1.453715
-3.228616 -3.953167 -1.453243
-3.223828 -3.945098 -1.450160
-3.221802 -3.934671 -1.450315
-3.221185 -3.922978 -1.452137
-3.219393 -3.912248 -1.452589
-3.212918 -3.905641 -1.447527
-3.210377 -3.895555 -1.447096
-3.210324 -3.883190 -1.449604
-3.209895 -3.871107 -1.451672
-3.207569 -3.860742 -1.451483
-3.205763 -3.849886 -1.451899
-3.202478 -3.840436 -1.450533
-3.200206 -3.830044 -1.450348
-3.194931 -3.822601 -1.446539
-3.191314 -3.813621 -1.444672
-3.185062 -3.807339 -1.439592
-3.185966 -3.793987 -1.443059
-3.181191 -3.786414 -1.439642
-3.179570 -3.775723 -1.439965
-3.181901 -3.760997 -1.445005
-3.185340 -3.745103 -1.451336
-3.187762 -3.730279 -1.456378
-3.184505 -3.721565 -1.454461
-3.181151 -3.713111 -1.452337
-3.181826 -3.700421 -1.455026
-3.178308 -3.692451 -1.452519
-3.175093 -3.684336 -1.450280
-3.174172 -3.673836 -1.450742
-3.170792 -3.666280 -1.448097
-3.156337 -3.671607 -1.431779
-3.161141 -3.655148 -1.438940
-3.165360 -3.639436 -1.445292
-3.177618 -3.614379 -1.461421
-3.385212 -5.696691 -1.436153
-3.414031 -5.705207 -1.466924
-3.411906 -5.696338 -1.466085
-3.413306 -5.689246 -1.468789
-3.415288 -5.682297 -1.472031
-3.419982 -5.676610 -1.477995
-3.420388 -5.668477 -1.479509
-3.418656 -5.659092 -1.478772
-3.412984 -5.647579 -1.473927
-3.397972 -5.631295 -1.459421
-3.395216 -5.621178 -1.457434
-3.404316 -5.616801 -1.467578
-3.407260 -5.609207 -1.471343
-3.409750 -5.601251 -1.474590
-3.407025 -5.590704 -1.472418
-3.405517 -5.580668 -1.471447
-3.398556 -5.568076 -1.464809
-3.396785 -5.557842 -1.463472
-3.395433 -5.547751 -1.462526
-3.396955 -5.538874 -1.464507
-3.393902 -5.527959 -1.461732
-3.395342 -5.518942 -1.463564
-3.399393 -5.510950 -1.468063
-3.401421 -5.502046 -1.470451
-3.400805 -5.492030 -1.470087
-3.395631 -5.480212 -1.464998
-3.392956 -5.469422 -1.462472
-3.391592 -5.459163 -1.461287
-3.388418 -5.448250 -1.458223
-3.381485 -5.436014 -1.451263
-3.383878 -5.427219 -1.453938
-3.391932 -5.420384 -1.462465
-3.397694 -5.412661 -1.468624
-3.397412 -5.402842 -1.468534
-3.392558 -5.391543 -1.463719
-3.389628 -5.380952 -1.460897
-3.388886 -5.371115 -1.460344
-3.389962 -5.361871 -1.461681
-3.393215 -5.353291 -1.465279
-3.392684 -5.343581 -1.464970
-3.389983 -5.333283 -1.462426
-3.383429 -5.321976 -1.455900
-3.383134 -5.312490 -1.455869
-3.387066 -5.304156 -1.460229
-3.390209 -5.295590 -1.463786
-3.391920 -5.286648 -1.465875
-3.385074 -5.275617 -1.459107
-3.381943 -5.265588 -1.456203
-3.378449 -5.255544 -1.452934
-3.377001 -5.246029 -1.451801
-3.378300 -5.237154 -1.453534
-3.382242 -5.228838 -1.458027
-3.383440 -5.219933 -1.459688
-3.382782 -5.210668 -1.459435
-3.379638 -5.200961 -1.456615
-3.377862 -5.191566 -1.455231
-3.379632 -5.182837 -1.457547
-3.379705 -5.173814 -1.458115
-3.386163 -5.165844 -1.465340
-3.383648 -5.156404 -1.463246
-3.384393 -5.147500 -1.464560
-3.383342 -5.138342 -1.464018
-3.376717 -5.128456 -1.457681
-3.378947 -5.119811 -1.460585
-3.378377 -5.110805 -1.460585
-3.375248 -5.101520 -1.457927
-3.380727 -5.093223 -1.464266
-3.370535 -5.083258 -1.454259
-3.369493 -5.074310 -1.453816
-3.370816 -5.065593 -1.455856
-3.370620 -5.056738 -1.456323
-3.366364 -5.047582 -1.452555
-3.359587 -5.038312 -1.446155
-3.364889 -5.029889 -1.452413
-3.368499 -5.021303 -1.456916
-3.367260 -5.012432 -1.456351
-3.364052 -5.003493 -1.453730
-3.367941 -4.994851 -1.458568
-3.374464 -4.986233 -1.466188
-3.368084 -4.977235 -1.460269
-3.369923 -4.968450 -1.462995
-3.371647 -4.959637 -1.465614
-3.366593 -4.950778 -1.461110
-3.361756 -4.941981 -1.456841
-3.363989 -4.933168 -1.460027
-3.360374 -4.924420 -1.457060
-3.358115 -4.915681 -1.455529
-3.354790 -4.906999 -1.452880
-3.358485 -4.898090 -1.457654
-3.360461 -4.889200 -1.460626
-3.359094 -4.880444 -1.460073
-3.338676 -4.872791 -1.439363
-3.337795 -4.864149 -1.439327
-3.351120 -4.854503 -1.454359
-3.352308 -4.845608 -1.456546
-3.350773 -4.836915 -1.455853
-3.347565 -4.828383 -1.453391
-3.351979 -4.819138 -1.459035
-3.339012 -4.811636 -1.446208
-3.329358 -4.803928 -1.436897
-3.333558 -4.794703 -1.442337
-3.339674 -4.785166 -1.449833
-3.338690 -4.776467 -1.449775
-3.343810 -4.766922 -1.456241
-3.343774 -4.758040 -1.457215
-3.339574 -4.749777 -1.453748
-3.330308 -4.742361 -1.444865
-3.328400 -4.733835 -1.443852
-3.328512 -4.724969 -1.445009
-3.324244 -4.716871 -1.441478
-3.342416 -4.704630 -1.462028
-3.326787 -4.698657 -1.446321
-3.330355 -4.689036 -1.451228
-3.330969 -4.679959 -1.452972
-3.332670 -4.670621 -1.455897
-3.326897 -4.662894 -1.450783
-3.324194 -4.654526 -1.448979
-3.331860 -4.643736 -1.458365
-3.326796 -4.635902 -1.454030
-3.326252 -4.626990 -1.454580
-3.320883 -4.619301 -1.449921
-3.317805 -4.611063 -1.447742
-3.321018 -4.601144 -1.452383
-3.322601 -4.591608 -1.455272
-3.327604 -4.581053 -1.461887
-3.330029 -4.571154 -1.465721
-3.324584 -4.563548 -1.461016
-3.307349 -4.559606 -1.443484
-3.308676 -4.550068 -1.446143
-3.317095 -4.538211 -1.456548
-3.322352 -4.527243 -1.463530
-3.324535 -4.517200 -1.467178
-3.310595 -4.512619 -1.453221
-3.299038 -4.507380 -1.441857
-3.301140 -4.497403 -1.445436
-3.290045 -4.492174 -1.434571
-3.313442 -4.474255 -1.461533
-3.312333 -4.465251 -1.461648
-3.303897 -4.459064 -1.453723
-3.298917 -4.451609 -1.449596
-3.297727 -4.442671 -1.449647
-3.297338 -4.433391 -1.450592
-3.300146 -4.422749 -1.455081
-3.307429 -4.410129 -1.464534
-3.299652 -4.403865 -1.457368
-3.295767 -4.395973 -1.454509
-3.297423 -4.385623 -1.457797
-3.298405 -4.375514 -1.460360
-3.291052 -4.369205 -1.453686
-3.284002 -4.362824 -1.447351
-3.289086 -4.350711 -1.454520
-3.291327 -4.339855 -1.458555
-3.280772 -4.335238 -1.448342
-3.283229 -4.324212 -1.452652
-3.288797 -4.311516 -1.460466
-3.288992 -4.301463 -1.462303
-3.285771 -4.293152 -1.460336
-3.280330 -4.286026 -1.455891
-3.276870 -4.277863 -1.453680
-3.277510 -4.267447 -1.456092
-3.279790 -4.256051 -1.460378
-3.277709 -4.247029 -1.459779
-3.274879 -4.238415 -1.458352
-3.272489 -4.229531 -1.457440
-3.260759 -4.226149 -1.445978
-3.267621 -4.211751 -1.455575
-3.264938 -4.202978 -1.454391
-3.264384 -4.192872 -1.455643
-3.264248 -4.182446 -1.457400
-3.266649 -4.170346 -1.462074
-3.262291 -4.162476 -1.459074
-3.254727 -4.156699 -1.452428
-3.252506 -4.147452 -1.451900
-3.252816 -4.136477 -1.454295
-3.256808 -4.122921 -1.460948
-3.252956 -4.114603 -1.458633
-3.249559 -4.105958 -1.456858
-3.248035 -4.095972 -1.457264
-3.247137 -4.085483 -1.458419
-3.247394 -4.074088 -1.460940
-3.245430 -4.064231 -1.460922
-3.241464 -4.055809 -1.458605
-3.237922 -4.047055 -1.456799
-3.234825 -4.037940 -1.455530
-3.232964 -4.027840 -1.455723
-3.229537 -4.018908 -1.454111
-3.223807 -4.011773 -1.449820
-3.220640 -4.002607 -1.448541
-3.220005 -3.991360 -1.450251
-3.220613 -3.979013 -1.453448
-3.220415 -3.967233 -1.455726
-3.217259 -3.957859 -1.454534
-3.214348 -3.948250 -1.453643
-3.212044 -3.938094 -1.453479
-3.208852 -3.928677 -1.452269
-3.204315 -3.920435 -1.449461
-3.201975 -3.910249 -1.449263
-3.199829 -3.899867 -1.449296
-3.198495 -3.888719 -1.450298
-3.200398 -3.874543 -1.455176
-3.198301 -3.864018 -1.455255
-3.195595 -3.854065 -1.454585
-3.192793 -3.844223 -1.453776
-3.190396 -3.834019 -1.453426
-3.188286 -3.823562 -1.453389
-3.186760 -3.812561 -1.454022
-3.185688 -3.801134 -1.455167
-3.179472 -3.794948 -1.450010
-3.178144 -3.783914 -1.450736
-3.176189 -3.773587 -1.450640
-3.175523 -3.761999 -1.452052
-3.174083 -3.751296 -1.452451
-3.170942 -3.742505 -1.450689
-3.175308 -3.725771 -1.458058
-3.171843 -3.717553 -1.455734
-3.165374 -3.712808 -1.449616
-3.163875 -3.702796 -1.449515
-3.161544 -3.693869 -1.448290
-3.160266 -3.683930 -1.448263
-3.154320 -3.679471 -1.442364
-3.155750 -3.666803 -1.445479
-3.156402 -3.655163 -1.447531
-3.173507 -3.613716 -1.470939
-3.423499 -5.720975 -1.487890
-3.399289 -5.699986 -1.464411
-3.397520 -5.691423 -1.463957
-3.393956 -5.681755 -1.461589
-3.399412 -5.676823 -1.468469
-3.405942 -5.672247 -1.476409
-3.407408 -5.664789 -1.479061
-3.405622 -5.655482 -1.478287
-3.395145 -5.641601 -1.468446
-3.385846 -5.628316 -1.459750
-3.378902 -5.616201 -1.453426
-3.384022 -5.610009 -1.459556
-3.387566 -5.602868 -1.463998
-3.391174 -5.595603 -1.468455
-3.394954 -5.588270 -1.473042
-3.391788 -5.577549 -1.470358
-3.383358 -5.564365 -1.462146
-3.382437 -5.554621 -1.461697
-3.385712 -5.546690 -1.465573
-3.386416 -5.537523 -1.466735
-3.386646 -5.528087 -1.467367
-3.388639 -5.519349 -1.469803
-3.392821 -5.511456 -1.474491
-3.394707 -5.502528 -1.476761
-3.390250 -5.490991 -1.472397
-3.388087 -5.480405 -1.470401
-3.384907 -5.469442 -1.467328
-3.386645 -5.460392 -1.469369
-3.381686 -5.448808 -1.464413
-3.377128 -5.437444 -1.459864
-3.375144 -5.427077 -1.457995
-3.381600 -5.419722 -1.464930
-3.386267 -5.411669 -1.469999
-3.386066 -5.401917 -1.469986
-3.381516 -5.390748 -1.465434
-3.379490 -5.380481 -1.463521
-3.379439 -5.370889 -1.463676
-3.380372 -5.361625 -1.464865
-3.382517 -5.352738 -1.467330
-3.382401 -5.343179 -1.467443
-3.369763 -5.330040 -1.454476
-3.370589 -5.320889 -1.455592
-3.371622 -5.311809 -1.456936
-3.368009 -5.301500 -1.453434
-3.367515 -5.292080 -1.453206
-3.378239 -5.285530 -1.464728
-3.373451 -5.275040 -1.460036
-3.370657 -5.265119 -1.457445
-3.365706 -5.254760 -1.452607
-3.368890 -5.246326 -1.456301
-3.372144 -5.237887 -1.460086
-3.376159 -5.229588 -1.464685
-3.375100 -5.220216 -1.463984
-3.370627 -5.210205 -1.459718
-3.365579 -5.200165 -1.454862
-3.364637 -5.190969 -1.454325
-3.365535 -5.182131 -1.455734
-3.368762 -5.173696 -1.459604
-3.367826 -5.164550 -1.459121
-3.362909 -5.154809 -1.454468
-3.369306 -5.146847 -1.461718
-3.367424 -5.137626 -1.460284
-3.370377 -5.129103 -1.463949
-3.366128 -5.119615 -1.460053
-3.364811 -5.110558 -1.459253
-3.363570 -5.101536 -1.458548
-3.361074 -5.092402 -1.456533
-3.358422 -5.083292 -1.454365
-3.358539 -5.074493 -1.455128
-3.358104 -5.065649 -1.455323
-3.359710 -5.056985 -1.457686
-3.357983 -5.048050 -1.456543
-3.347566 -5.038534 -1.446229
-3.352533 -5.030132 -1.452181
-3.354991 -5.021523 -1.455497
-3.353483 -5.012685 -1.454632
-3.350445 -5.003802 -1.452157
-3.349049 -4.995019 -1.451430
-3.357841 -4.986558 -1.461513
-3.362773 -4.977888 -1.467524
-3.362630 -4.969065 -1.468167
-3.360267 -4.960220 -1.466466
-3.355517 -4.951395 -1.462236
-3.351914 -4.942625 -1.459231
-3.351269 -4.933867 -1.459378
-3.343899 -4.925227 -1.452380
-3.332437 -4.916775 -1.441023
-3.350981 -4.907560 -1.461638
-3.349619 -4.898826 -1.461062
-3.351867 -4.889944 -1.464348
-3.347953 -4.881334 -1.461066
-3.330908 -4.873519 -1.443761
-3.327191 -4.865071 -1.440691
-3.330366 -4.856177 -1.444998
-3.336436 -4.847004 -1.452419
-3.335209 -4.838354 -1.452042
-3.335399 -4.829579 -1.453192
-3.331998 -4.821140 -1.450499
-3.326232 -4.812982 -1.445272
-3.321195 -4.804808 -1.440830
-3.325370 -4.795602 -1.446291
-3.328515 -4.786453 -1.450660
-3.329833 -4.777488 -1.453076
-3.329620 -4.768702 -1.453855
-3.322948 -4.760844 -1.447679
-3.322079 -4.752178 -1.447762
-3.320119 -4.743681 -1.446676
-3.318548 -4.735130 -1.446016
-3.320546 -4.725966 -1.449222
-3.328220 -4.715737 -1.458583
-3.331587 -4.706189 -1.463301
-3.324539 -4.698594 -1.456747
-3.313794 -4.691820 -1.446180
-3.322745 -4.681086 -1.456985
-3.327086 -4.671198 -1.462807
-3.323326 -4.663025 -1.459838
-3.315796 -4.655746 -1.452770
-3.318316 -4.646184 -1.456642
-3.325078 -4.635535 -1.465154
-3.307458 -4.630862 -1.447092
-3.302778 -4.623091 -1.443134
-3.304212 -4.613750 -1.445858
-3.303416 -4.604970 -1.446158
-3.308213 -4.594622 -1.452587
-3.305825 -4.586233 -1.451166
-3.313743 -4.574838 -1.461050
-3.302928 -4.568920 -1.450405
-3.294505 -4.562400 -1.442378
-3.290585 -4.554560 -1.439295
-3.296421 -4.543613 -1.446951
-3.307899 -4.530699 -1.460844
-3.297414 -4.524973 -1.450562
-3.294919 -4.516628 -1.449088
-3.294572 -4.507537 -1.449993
-3.288491 -4.500477 -1.444572
-3.288477 -4.491258 -1.445865
-3.305523 -4.475643 -1.466065
-3.299943 -4.468353 -1.461235
-3.290720 -4.462527 -1.452363
-3.288232 -4.454144 -1.450967
-3.283565 -4.446641 -1.447158
-3.282824 -4.437563 -1.447723
-3.290460 -4.424958 -1.457635
-3.295818 -4.413171 -1.465040
-3.290207 -4.406018 -1.460229
-3.285958 -4.398313 -1.456944
-3.290699 -4.386599 -1.463723
-3.288963 -4.377728 -1.463279
-3.279650 -4.372360 -1.454355
-3.276658 -4.364113 -1.452518
-3.274016 -4.355700 -1.451089
-3.272946 -4.346519 -1.451441
-3.273662 -4.336424 -1.453821
-3.273352 -4.326788 -1.455068
-3.275936 -4.315629 -1.459601
-3.275306 -4.306048 -1.460531
-3.268981 -4.299434 -1.455038
-3.264720 -4.291763 -1.451890
-3.274311 -4.276576 -1.464463
-3.273561 -4.266886 -1.465344
-3.270089 -4.258678 -1.463152
-3.265231 -4.251258 -1.459398
-3.259187 -4.244545 -1.454303
-3.251522 -4.238822 -1.447366
-3.246076 -4.231850 -1.442969
-3.256833 -4.215147 -1.457126
-3.257128 -4.204587 -1.459354
-3.251848 -4.197410 -1.455215
-3.248181 -4.189242 -1.452941
-3.249503 -4.177892 -1.456426
-3.252917 -4.165098 -1.462355
-3.246818 -4.158394 -1.457349
-3.242369 -4.150631 -1.454258
-3.243643 -4.139024 -1.457809
-3.242683 -4.128839 -1.458807
-3.241576 -4.118691 -1.459663
-3.231552 -4.114722 -1.450177
-3.232316 -4.103209 -1.453252
-3.232031 -4.092351 -1.455140
-3.235130 -4.078953 -1.461013
-3.236933 -4.066365 -1.465414
-3.233357 -4.057668 -1.463550
-3.228505 -4.049916 -1.460205
-3.224701 -4.041364 -1.458107
-3.219605 -4.033798 -1.454503
-3.214590 -4.026177 -1.451005
-3.212718 -4.016066 -1.451235
-3.210806 -4.005933 -1.451439
-3.211754 -3.993418 -1.455057
-3.211757 -3.981573 -1.457584
-3.208823 -3.972092 -1.456639
-3.205311 -3.963072 -1.455015
-3.202437 -3.953492 -1.454161
-3.201267 -3.942412 -1.455355
-3.198969 -3.932265 -1.455207
-3.194893 -3.923666 -1.452927
-3.191157 -3.914775 -1.451047
-3.187308 -3.905997 -1.449023
-3.187250 -3.893753 -1.451568
-3.191127 -3.877792 -1.458880
-3.189613 -3.866769 -1.459662
-3.187140 -3.856648 -1.459260
-3.182912 -3.848233 -1.456695
-3.178602 -3.839963 -1.453990
-3.175946 -3.830139 -1.453264
-3.180636 -3.813053 -1.461492
-3.177877 -3.803363 -1.460562
-3.172343 -3.796569 -1.456166
-3.166070 -3.790680 -1.450787
-3.168406 -3.776017 -1.455943
-3.169564 -3.762585 -1.459594
-3.165716 -3.754499 -1.456988
-3.157448 -3.751301 -1.448819
-3.154419 -3.742692 -1.447042
-3.157012 -3.728096 -1.452156
-3.152894 -3.720951 -1.448845
-3.147357 -3.715585 -1.443662
-3.143270 -3.708828 -1.440175
-3.140037 -3.701315 -1.437647
-3.139614 -3.690793 -1.438522
-3.145154 -3.673544 -1.446755
-3.149974 -3.657178 -1.453995
-3.148891 -3.647805 -1.453746
-3.124215 -3.666520 -1.423805
-3.362861 -5.689829 -1.437722
-3.389645 -5.697526 -1.466992
-3.388719 -5.689513 -1.467441
-3.381174 -5.677751 -1.460939
-3.375543 -5.666958 -1.456356
-3.382713 -5.662913 -1.465054
-3.390063 -5.658734 -1.473891
-3.388203 -5.649522 -1.473057
-3.382940 -5.638441 -1.468600
-3.373611 -5.625225 -1.459821
-3.371305 -5.615528 -1.458320
-3.368005 -5.605245 -1.455714
-3.372863 -5.598883 -1.461598
-3.381117 -5.593986 -1.470992
-3.381410 -5.585085 -1.471987
-3.375758 -5.573296 -1.466690
-3.370543 -5.561697 -1.461796
-3.372653 -5.553425 -1.464544
-3.376443 -5.545804 -1.469016
-3.378703 -5.537389 -1.471840
-3.378651 -5.527881 -1.472196
-3.377671 -5.517927 -1.471541
-3.380009 -5.509336 -1.474345
-3.383775 -5.501266 -1.478623
-3.382048 -5.490885 -1.477097
-3.377650 -5.479442 -1.472736
-3.379574 -5.470518 -1.475010
-3.375163 -5.459125 -1.470599
-3.375116 -5.449431 -1.470769
-3.365906 -5.436355 -1.461277
-3.366181 -5.426848 -1.461768
-3.368397 -5.418033 -1.464298
-3.366374 -5.407723 -1.462360
-3.368544 -5.398882 -1.464839
-3.368798 -5.389388 -1.465301
-3.349698 -5.373601 -1.445361
-3.367656 -5.369918 -1.464495
-3.365663 -5.359785 -1.462601
-3.366212 -5.350476 -1.463395
-3.364824 -5.340609 -1.462155
-3.361502 -5.330225 -1.458883
-3.357403 -5.319693 -1.454801
-3.355662 -5.309896 -1.453218
-3.353129 -5.299936 -1.450810
-3.355642 -5.291358 -1.453743
-3.358649 -5.282897 -1.457211
-3.365398 -5.275345 -1.464647
-3.357009 -5.264079 -1.456107
-3.356962 -5.254906 -1.456393
-3.359865 -5.246426 -1.459812
-3.364694 -5.238353 -1.465285
-3.366901 -5.229677 -1.468003
-3.363356 -5.219807 -1.464653
-3.357905 -5.209627 -1.459300
-3.352885 -5.199624 -1.454413
-3.353251 -5.190710 -1.455244
-3.355910 -5.182218 -1.458519
-3.356655 -5.173378 -1.459783
-3.359895 -5.164957 -1.463709
-3.360824 -5.156141 -1.465201
-3.348117 -5.145262 -1.452244
-3.352950 -5.137107 -1.457907
-3.352209 -5.128130 -1.457671
-3.340785 -5.117774 -1.446102
-3.346431 -5.109707 -1.452677
-3.351948 -5.101558 -1.459133
-3.353512 -5.092906 -1.461405
-3.348847 -5.083591 -1.457066
-3.345172 -5.074442 -1.453791
-3.344126 -5.065588 -1.453325
-3.346191 -5.057015 -1.456187
-3.346669 -5.048296 -1.457372
-3.345805 -5.039480 -1.457140
-3.346033 -5.030748 -1.458086
-3.346143 -5.022008 -1.458920
-3.343460 -5.013127 -1.456783
-3.341124 -5.004298 -1.455027
-3.342387 -4.995633 -1.457129
-3.346279 -4.987031 -1.462056
-3.350756 -4.978389 -1.467628
-3.349334 -4.969584 -1.466899
-3.341533 -4.960729 -1.459344
-3.334019 -4.951976 -1.452098
-3.327845 -4.943316 -1.446294
-3.337973 -4.934573 -1.457991
-3.318743 -4.926174 -1.438180
-3.319949 -4.917552 -1.440318
-3.333581 -4.908535 -1.455833
-3.330411 -4.899944 -1.453296
-3.338045 -4.890919 -1.462399
-3.326974 -4.882720 -1.451367
-3.314288 -4.874754 -1.438589
-3.314561 -4.866125 -1.439786
-3.333618 -4.856157 -1.461275
-3.324731 -4.848081 -1.452610
-3.322831 -4.839526 -1.451495
-3.318902 -4.831170 -1.448194
-3.317058 -4.822652 -1.447153
-3.312220 -4.814460 -1.442876
-3.314548 -4.805522 -1.446370
-3.317053 -4.796519 -1.450070
-3.320586 -4.787339 -1.454899
-3.320142 -4.778621 -1.455422
-3.321861 -4.769595 -1.458306
-3.312438 -4.762152 -1.449079
-3.312607 -4.753360 -1.450291
-3.311626 -4.744733 -1.450261
-3.307056 -4.736701 -1.446323
-3.309052 -4.727577 -1.449554
-3.321174 -4.716583 -1.463858
-3.320966 -4.707712 -1.464714
-3.313199 -4.700293 -1.457311
-3.301626 -4.693728 -1.445738
-3.292907 -4.686714 -1.437281
-3.314757 -4.673224 -1.462339
-3.309963 -4.665329 -1.458205
-3.308480 -4.656721 -1.457711
-3.308407 -4.647781 -1.458772
-3.305075 -4.639613 -1.456259
-3.297467 -4.632543 -1.449043
-3.290043 -4.625512 -1.442026
-3.291716 -4.616155 -1.445039
-3.295814 -4.606092 -1.450742
-3.293430 -4.597757 -1.449303
-3.299134 -4.587116 -1.456815
-3.295640 -4.579068 -1.454168
-3.291942 -4.571107 -1.451301
-3.289648 -4.562743 -1.449994
-3.287865 -4.554224 -1.449263
-3.286322 -4.545628 -1.448806
-3.288002 -4.535964 -1.451941
-3.284256 -4.528076 -1.449055
-3.280735 -4.520139 -1.446425
-3.284377 -4.509704 -1.451787
-3.282645 -4.501116 -1.451172
-3.285635 -4.490791 -1.455842
-3.293261 -4.478656 -1.465716
-3.268836 -4.478611 -1.439751
-3.289644 -4.461292 -1.464420
-3.280863 -4.455368 -1.455969
-3.273911 -4.448803 -1.449569
-3.267990 -4.441884 -1.444327
-3.272284 -4.430733 -1.450577
-3.281895 -4.417208 -1.462839
-3.282418 -4.407452 -1.464898
-3.275311 -4.401025 -1.458369
-3.277827 -4.390336 -1.462707
-3.278594 -4.380368 -1.465094
-3.270256 -4.374589 -1.457195
-3.264246 -4.367796 -1.451932
-3.263980 -4.358287 -1.453190
-3.258983 -4.351054 -1.449095
-3.262120 -4.339808 -1.454256
-3.262378 -4.329920 -1.456170
-3.263869 -4.319348 -1.459511
-3.264263 -4.309274 -1.461627
-3.257661 -4.302849 -1.455773
-3.256620 -4.293489 -1.456286
-3.253790 -4.285069 -1.454771
-3.258017 -4.272728 -1.461366
-3.255824 -4.263876 -1.460625
-3.252166 -4.255837 -1.458220
-3.250075 -4.246894 -1.457634
-3.245198 -4.239563 -1.453857
-3.243987 -4.230066 -1.454323
-3.246892 -4.218038 -1.459572
-3.248003 -4.206994 -1.462782
-3.243692 -4.199239 -1.459739
-3.237676 -4.192565 -1.454733
-3.240539 -4.180248 -1.460058
-3.240812 -4.169488 -1.462408
-3.242586 -4.157664 -1.466540
-3.235884 -4.151380 -1.460814
-3.229526 -4.144907 -1.455498
-3.232685 -4.131960 -1.461337
-3.227555 -4.124624 -1.457498
-3.222473 -4.117266 -1.453729
-3.217896 -4.109562 -1.450567
-3.218882 -4.097847 -1.453979
-3.220361 -4.085668 -1.458009
-3.222464 -4.072913 -1.462817
-3.220438 -4.063127 -1.462775
-3.215887 -4.055208 -1.459761
-3.207016 -4.050611 -1.451627
-3.204303 -4.041301 -1.450821
-3.196959 -4.035608 -1.444510
-3.196520 -4.024456 -1.446450
-3.201205 -4.009078 -1.454551
-3.203028 -3.995861 -1.459269
-3.200474 -3.986147 -1.458762
-3.197559 -3.976700 -1.457835
-3.194190 -3.967613 -1.456371
-3.190272 -3.958983 -1.454250
-3.181592 -3.954500 -1.446365
-3.185339 -3.939171 -1.453527
-3.184665 -3.927631 -1.455348
-3.179842 -3.919779 -1.452124
-3.178000 -3.909242 -1.452519
-3.177407 -3.897530 -1.454434
-3.177707 -3.884942 -1.457437
-3.175892 -3.874300 -1.457839
-3.175145 -3.862635 -1.459533
-3.172071 -3.853206 -1.458341
-3.168798 -3.844017 -1.456865
-3.166288 -3.834130 -1.456290
-3.168656 -3.819414 -1.461707
-3.166982 -3.808740 -1.462082
-3.159334 -3.804228 -1.454980
-3.151797 -3.799797 -1.447931
-3.150403 -3.789155 -1.448449
-3.154821 -3.772463 -1.456154
-3.152427 -3.762998 -1.455289
-3.145432 -3.758612 -1.448577
-3.140934 -3.751745 -1.444890
-3.139848 -3.741323 -1.445388
-3.141161 -3.728370 -1.448809
-3.138346 -3.720124 -1.446944
-3.131975 -3.716074 -1.440493
-3.130725 -3.706454 -1.440386
-3.128325 -3.698320 -1.438724
-3.132993 -3.682191 -1.445886
-3.126133 -3.669209 -1.439422
-3.072227 -3.723000 -1.372075
-3.371487 -5.697475 -1.459031
-3.373812 -5.691556 -1.462973
-3.376870 -5.685866 -1.467632
-3.368186 -5.673567 -1.459903
-3.362969 -5.663095 -1.455743
-3.366234 -5.657084 -1.460439
-3.375095 -5.653853 -1.470973
-3.371139 -5.643663 -1.467950
-3.362262 -5.630837 -1.459665
-3.359484 -5.621107 -1.457743
-3.359283 -5.612585 -1.458479
-3.360769 -5.604783 -1.460937
-3.365049 -5.598218 -1.466293
-3.366252 -5.589993 -1.468340
-3.364063 -5.580023 -1.466738
-3.359080 -5.568668 -1.462120
-3.358935 -5.559538 -1.462574
-3.362854 -5.552188 -1.467287
-3.366357 -5.544519 -1.471516
-3.366773 -5.535364 -1.472428
-3.365261 -5.525301 -1.471254
-3.364079 -5.515346 -1.470392
-3.357285 -5.502993 -1.463536
-3.364777 -5.496629 -1.471820
-3.375144 -5.491298 -1.483136
-3.376740 -5.482275 -1.485110
-3.358053 -5.465233 -1.465508
-3.359566 -5.456247 -1.467354
-3.357136 -5.445736 -1.464993
-3.353721 -5.434891 -1.461573
-3.351075 -5.424377 -1.458959
-3.355064 -5.416275 -1.463397
-3.356598 -5.407264 -1.465221
-3.352881 -5.396444 -1.461456
-3.350891 -5.386271 -1.459527
-3.352768 -5.377412 -1.461716
-3.350619 -5.367252 -1.459624
-3.347218 -5.356752 -1.456203
-3.347131 -5.347338 -1.456318
-3.352753 -5.339655 -1.462520
-3.348939 -5.329161 -1.458682
-3.343014 -5.318143 -1.452605
-3.343956 -5.309143 -1.453854
-3.349365 -5.301363 -1.459875
-3.349416 -5.292120 -1.460201
-3.350848 -5.283255 -1.462012
-3.352930 -5.274558 -1.464530
-3.350508 -5.264763 -1.462260
-3.334579 -5.251846 -1.445596
-3.349709 -5.246273 -1.462077
-3.352398 -5.237755 -1.465305
-3.353833 -5.228954 -1.467212
-3.349528 -5.218962 -1.463004
-3.343381 -5.208682 -1.456843
-3.345834 -5.200172 -1.459882
-3.343402 -5.190736 -1.457719
-3.341406 -5.181430 -1.456035
-3.350260 -5.174048 -1.465969
-3.351346 -5.165269 -1.467616
-3.343567 -5.155077 -1.459791
-3.331725 -5.144385 -1.447624
-3.333942 -5.135920 -1.450523
-3.337992 -5.127692 -1.455403
-3.335423 -5.118546 -1.453207
-3.332765 -5.109433 -1.450927
-3.338090 -5.101315 -1.457225
-3.337285 -5.092448 -1.456963
-3.335086 -5.083453 -1.455218
-3.332703 -5.074477 -1.453289
-3.330759 -5.065580 -1.451841
-3.327643 -5.056615 -1.449147
-3.333883 -5.048429 -1.456528
-3.336392 -5.039896 -1.459914
-3.337558 -5.031245 -1.461869
-3.335550 -5.022397 -1.460421
-3.331925 -5.013494 -1.457239
-3.329113 -5.004677 -1.454944
-3.326686 -4.995913 -1.453073
-3.331570 -4.987408 -1.459106
-3.320987 -4.978459 -1.448448
-3.329135 -4.969980 -1.458037
-3.329353 -4.961303 -1.459071
-3.323262 -4.952593 -1.453290
-3.318887 -4.943956 -1.449372
-3.314222 -4.935377 -1.445145
-3.310444 -4.926841 -1.441885
-3.313138 -4.918201 -1.445652
-3.324845 -4.909252 -1.459218
-3.319379 -4.900763 -1.454157
-3.318733 -4.892131 -1.454339
-3.320607 -4.883373 -1.457272
-3.311158 -4.875225 -1.447896
-3.306604 -4.866884 -1.443846
-3.315079 -4.857678 -1.454000
-3.321079 -4.848538 -1.461477
-3.311724 -4.840594 -1.452218
-3.306489 -4.832393 -1.447454
-3.304379 -4.823946 -1.446107
-3.302446 -4.815497 -1.444961
-3.303939 -4.806680 -1.447571
-3.309942 -4.797297 -1.455131
-3.299650 -4.789855 -1.444855
-3.305646 -4.780392 -1.452434
-3.306068 -4.771605 -1.453915
-3.307437 -4.762659 -1.456447
-3.307640 -4.753858 -1.457709
-3.304127 -4.745629 -1.454895
-3.301055 -4.737361 -1.452571
-3.306682 -4.727609 -1.459833
-3.304855 -4.719106 -1.458898
-3.304589 -4.710318 -1.459692
-3.297045 -4.702932 -1.452460
-3.292135 -4.695103 -1.448135
-3.286194 -4.687539 -1.442672
-3.284597 -4.679102 -1.442016
-3.297164 -4.667514 -1.457056
-3.297069 -4.658637 -1.458094
-3.294833 -4.650248 -1.456765
-3.292712 -4.641842 -1.455571
-3.289606 -4.633692 -1.453290
-3.283153 -4.626429 -1.447290
-3.284643 -4.617127 -1.450132
-3.283346 -4.608541 -1.449882
-3.276687 -4.601451 -1.443662
-3.286557 -4.589687 -1.455889
-3.287881 -4.580271 -1.458601
-3.284293 -4.572293 -1.455834
-3.285120 -4.562978 -1.458014
-3.285603 -4.553733 -1.459822
-3.285197 -4.544742 -1.460647
-3.279189 -4.537583 -1.455198
-3.271206 -4.531153 -1.447530
-3.268971 -4.522826 -1.446322
-3.270713 -4.513099 -1.449598
-3.273934 -4.502781 -1.454559
-3.268894 -4.495427 -1.450226
-3.266847 -4.486993 -1.449274
-3.285091 -4.470784 -1.471258
-3.281450 -4.462817 -1.468546
-3.272632 -4.456932 -1.459983
-3.264853 -4.450725 -1.452592
-3.260806 -4.443059 -1.449432
-3.259323 -4.434339 -1.449193
-3.268049 -4.421228 -1.460572
-3.265347 -4.412933 -1.458984
-3.264477 -4.403828 -1.459495
-3.263778 -4.394618 -1.460218
-3.259835 -4.386871 -1.457253
-3.256373 -4.378919 -1.454849
-3.255183 -4.369898 -1.455055
-3.242257 -4.366529 -1.441832
-3.245426 -4.355408 -1.447057
-3.248437 -4.344270 -1.452129
-3.252897 -4.332302 -1.458898
-3.252888 -4.322518 -1.460557
-3.251585 -4.313362 -1.460747
-3.255429 -4.301438 -1.466897
-3.247550 -4.295731 -1.459538
-3.235007 -4.292658 -1.446785
-3.235154 -4.282673 -1.448720
-3.238412 -4.270873 -1.454286
-3.239746 -4.260063 -1.457656
-3.240383 -4.249577 -1.460246
-3.239439 -4.239953 -1.461023
-3.235736 -4.231936 -1.458609
-3.237308 -4.220713 -1.462371
-3.237551 -4.210217 -1.464613
-3.235758 -4.200921 -1.464502
-3.231673 -4.193041 -1.461727
-3.224564 -4.187104 -1.455417
-3.230664 -4.172619 -1.464649
-3.229879 -4.162498 -1.465824
-3.223364 -4.156149 -1.460270
-3.216478 -4.150095 -1.454286
-3.215722 -4.139873 -1.455563
-3.219118 -4.126693 -1.461790
-3.213179 -4.119961 -1.456982
-3.204958 -4.114888 -1.449472
-3.204473 -4.104280 -1.451177
-3.206413 -4.091817 -1.455804
-3.204357 -4.082202 -1.455699
-3.205773 -4.069925 -1.459774
-3.200250 -4.062828 -1.455568
-3.196043 -4.054733 -1.452953
-3.191299 -4.047052 -1.449704
-3.185869 -4.039921 -1.445639
-3.186748 -4.027745 -1.449199
-3.190609 -4.013039 -1.456400
-3.191501 -4.000609 -1.460047
-3.187103 -3.992482 -1.457302
-3.181625 -3.985271 -1.453246
-3.182176 -3.972939 -1.456536
-3.177504 -3.965031 -1.453470
-3.172780 -3.957186 -1.450337
-3.171508 -3.946308 -1.451427
-3.170296 -3.935332 -1.452596
-3.169224 -3.924187 -1.453939
-3.170378 -3.910960 -1.458025
-3.169519 -3.899519 -1.459630
-3.165907 -3.890633 -1.457817
-3.163189 -3.880932 -1.457087
-3.162263 -3.869532 -1.458555
-3.160755 -3.858691 -1.459273
-3.157563 -3.849520 -1.457859
-3.156262 -3.838529 -1.458760
-3.156099 -3.826423 -1.461041
-3.153265 -3.817047 -1.459928
-3.146748 -3.811538 -1.454129
-3.140097 -3.806345 -1.448077
-3.140020 -3.794443 -1.450219
-3.140732 -3.781762 -1.453288
-3.141315 -3.769269 -1.456123
-3.138051 -3.761003 -1.454013
-3.134853 -3.752822 -1.451892
-3.132742 -3.743609 -1.451051
-3.131613 -3.733457 -1.451359
-3.128629 -3.725529 -1.449208
-3.126176 -3.717188 -1.447626
-3.121682 -3.711366 -1.443334
-3.118267 -3.704530 -1.440305
-3.116721 -3.695736 -1.439551
-3.120644 -3.680708 -1.445679
-3.121223 -3.669718 -1.447433
-3.107412 -3.676041 -1.430661
-3.343031 -5.684153 -1.441385
-3.364752 -5.689301 -1.465888
-3.365136 -5.682221 -1.467790
-3.356226 -5.669879 -1.459782
-3.361574 -5.665246 -1.466825
-3.361249 -5.657353 -1.467791
-3.364950 -5.651463 -1.472974
-3.356597 -5.639046 -1.465277
-3.349643 -5.627321 -1.458992
-3.344103 -5.616276 -1.454139
-3.349153 -5.610543 -1.460506
-3.354637 -5.604838 -1.467284
-3.353367 -5.595607 -1.466796
-3.351513 -5.585993 -1.465623
-3.351692 -5.577275 -1.466563
-3.347134 -5.566210 -1.462382
-3.349123 -5.558172 -1.465146
-3.351457 -5.550180 -1.468230
-3.345648 -5.538386 -1.462550
-3.345487 -5.529123 -1.462869
-3.350671 -5.522146 -1.468872
-3.347608 -5.511477 -1.466000
-3.351632 -5.503812 -1.470688
-3.355651 -5.496046 -1.475341
-3.360073 -5.488352 -1.480399
-3.355362 -5.476884 -1.475634
-3.349708 -5.465089 -1.469835
-3.341824 -5.452493 -1.461619
-3.341580 -5.442912 -1.461585
-3.340758 -5.433114 -1.460917
-3.338536 -5.422812 -1.458735
-3.340145 -5.413922 -1.460659
-3.348058 -5.407232 -1.469346
-3.343555 -5.396158 -1.464698
-3.340836 -5.385763 -1.461964
-3.340855 -5.376327 -1.462172
-3.336941 -5.365637 -1.458156
-3.333583 -5.355199 -1.454742
-3.333173 -5.345739 -1.454501
-3.334130 -5.336719 -1.455738
-3.336778 -5.328204 -1.458802
-3.329658 -5.316872 -1.451371
-3.330469 -5.307886 -1.452480
-3.344171 -5.302425 -1.467467
-3.339319 -5.291869 -1.462510
-3.338552 -5.282462 -1.461960
-3.341531 -5.274032 -1.465455
-3.340310 -5.264559 -1.464444
-3.333466 -5.253792 -1.457392
-3.329840 -5.243886 -1.453819
-3.336712 -5.236397 -1.461569
-3.333734 -5.226705 -1.458722
-3.331020 -5.217130 -1.456175
-3.333835 -5.208733 -1.459604
-3.335237 -5.200041 -1.461526
-3.332935 -5.190650 -1.459469
-3.329633 -5.181129 -1.456347
-3.337223 -5.173573 -1.464998
-3.337573 -5.164714 -1.465852
-3.329569 -5.154522 -1.457696
-3.323803 -5.144800 -1.451970
-3.324275 -5.136089 -1.452998
-3.327807 -5.127813 -1.457351
-3.326959 -5.118917 -1.456984
-3.323008 -5.109650 -1.453274
-3.316102 -5.100093 -1.446375
-3.321395 -5.092019 -1.452700
-3.321934 -5.083375 -1.453893
-3.321340 -5.074620 -1.453872
-3.315150 -5.065360 -1.447795
-3.322382 -5.057343 -1.456293
-3.323275 -5.048732 -1.457929
-3.326681 -5.040294 -1.462311
-3.323692 -5.031394 -1.459760
-3.318145 -5.022387 -1.454437
-3.314428 -5.013552 -1.451113
-3.310935 -5.004778 -1.448041
-3.319216 -4.996505 -1.457803
-3.314893 -4.987720 -1.453852
-3.314934 -4.979100 -1.454667
-3.315371 -4.970485 -1.455927
-3.319406 -4.961903 -1.461126
-3.314976 -4.953223 -1.457099
-3.312165 -4.944596 -1.454847
-3.311110 -4.935987 -1.454523
-3.309611 -4.927394 -1.453725
-3.303746 -4.918914 -1.448155
-3.307132 -4.910235 -1.452724
-3.304907 -4.901707 -1.451159
-3.307047 -4.893013 -1.454389
-3.309049 -4.884290 -1.457482
-3.306825 -4.875769 -1.455948
-3.305682 -4.867200 -1.455610
-3.309381 -4.858298 -1.460605
-3.310456 -4.849537 -1.462730
-3.303073 -4.841459 -1.455553
-3.297532 -4.833304 -1.450404
-3.297057 -4.824719 -1.450845
-3.300423 -4.815727 -1.455533
-3.290207 -4.808189 -1.445238
-3.307165 -4.797564 -1.464970
-3.290522 -4.790898 -1.447577
-3.288908 -4.782462 -1.446802
-3.295379 -4.772911 -1.454988
-3.300269 -4.763485 -1.461442
-3.299132 -4.754897 -1.461232
-3.298533 -4.746223 -1.461625
-3.297023 -4.737693 -1.461016
-3.295589 -4.729154 -1.460500
-3.293506 -4.720736 -1.459268
-3.283054 -4.713902 -1.448725
-3.286368 -4.704513 -1.453515
-3.285181 -4.695968 -1.453300
-3.281175 -4.688010 -1.449948
-3.281361 -4.679183 -1.451282
-3.287184 -4.669075 -1.458929
-3.283936 -4.660954 -1.456449
-3.281985 -4.652551 -1.455425
-3.280244 -4.644103 -1.454644
-3.279549 -4.635395 -1.455043
-3.280647 -4.626210 -1.457467
-3.271121 -4.619815 -1.447965
-3.262934 -4.613170 -1.439962
-3.258917 -4.605447 -1.436650
-3.258862 -4.596619 -1.437804
-3.272061 -4.583854 -1.453918
-3.275709 -4.573761 -1.459289
-3.265912 -4.567755 -1.449491
-3.273298 -4.556416 -1.459117
-3.277560 -4.545955 -1.465235
-3.270766 -4.539075 -1.458849
-3.254879 -4.535353 -1.442152
-3.253802 -4.526701 -1.442244
-3.262959 -4.514411 -1.453976
-3.259641 -4.506467 -1.451555
-3.253307 -4.499656 -1.445707
-3.260460 -4.487827 -1.455228
-3.268682 -4.475447 -1.466001
-3.274779 -4.463742 -1.474382
-3.251398 -4.463690 -1.449101
-3.256201 -4.452482 -1.456029
-3.257525 -4.442610 -1.458999
-3.233539 -4.443377 -1.432971
-3.249500 -4.427287 -1.452752
-3.250244 -4.417578 -1.455106
-3.248538 -4.408911 -1.454662
-3.249205 -4.399155 -1.456965
-3.246743 -4.390791 -1.455683
-3.242974 -4.383038 -1.452906
-3.227666 -4.380812 -1.436805
-3.222400 -4.373910 -1.432301
-3.232813 -4.359313 -1.445962
-3.236990 -4.347629 -1.452444
-3.240366 -4.336239 -1.458028
-3.240573 -4.326385 -1.459963
-3.236913 -4.318513 -1.457419
-3.240841 -4.306596 -1.463732
-3.236161 -4.299231 -1.460037
-3.227106 -4.294297 -1.451244
-3.224089 -4.286084 -1.449511
-3.226104 -4.275012 -1.453688
-3.224376 -4.266001 -1.453510
-3.226887 -4.254485 -1.458330
-3.221248 -4.247696 -1.453603
-3.212716 -4.242682 -1.445478
-3.224449 -4.225387 -1.461252
-3.223467 -4.215691 -1.462079
-3.222036 -4.206227 -1.462403
-3.217888 -4.198448 -1.459533
-3.212429 -4.191519 -1.455125
-3.204138 -4.186468 -1.447365
-3.203280 -4.176563 -1.448450
-3.205215 -4.164722 -1.452892
-3.199102 -4.158253 -1.447770
-3.200338 -4.146743 -1.451441
-3.205796 -4.132176 -1.460206
-3.201444 -4.124385 -1.457261
-3.195592 -4.117671 -1.452530
-3.192310 -4.109114 -1.450902
-3.188998 -4.100556 -1.449257
-3.192504 -4.086882 -1.455864
-3.190759 -4.077029 -1.456168
-3.186592 -4.068980 -1.453563
-3.186240 -4.057961 -1.455603
-3.185854 -4.046889 -1.457632
-3.181539 -4.038867 -1.454904
-3.176490 -4.031434 -1.451290
-3.178373 -4.018354 -1.456157
-3.176796 -4.008011 -1.456822
-3.171610 -4.000636 -1.453077
-3.170291 -3.990007 -1.454083
-3.168153 -3.980026 -1.454097
-3.163193 -3.972462 -1.450635
-3.159275 -3.964009 -1.448456
-3.159475 -3.951901 -1.451372
-3.160336 -3.939125 -1.455119
-3.157439 -3.929692 -1.454200
-3.156872 -3.918112 -1.456173
-3.157581 -3.905301 -1.459733
-3.152671 -3.897732 -1.456260
-3.152560 -3.885648 -1.458765
-3.151858 -3.874105 -1.460510
-3.147046 -3.866571 -1.457057
-3.146269 -3.855141 -1.458638
-3.143690 -3.845523 -1.457905
-3.143407 -3.833649 -1.460022
-3.138301 -3.826722 -1.455980
-3.132898 -3.820240 -1.451485
-3.128644 -3.812717 -1.448367
-3.129810 -3.799619 -1.452070
-3.128416 -3.789283 -1.452441
-3.126040 -3.780102 -1.451477
-3.122426 -3.772401 -1.448838
-3.125360 -3.757683 -1.454487
-3.124633 -3.747059 -1.455362
-3.122087 -3.738598 -1.453802
-3.117585 -3.732514 -1.449624
-3.117552 -3.721565 -1.451082
-3.119948 -3.707962 -1.455567
-3.113649 -3.704530 -1.448741
-3.103414 -3.705971 -1.436716
-3.107482 -3.690911 -1.443036
-3.111549 -3.675933 -1.449257
-3.079951 -3.703743 -1.409251
-3.358311 -5.695544 -1.469890
-3.352340 -5.685109 -1.465120
-3.348725 -5.675904 -1.462797
-3.342232 -5.665005 -1.457328
-3.350019 -5.661830 -1.467072
-3.355451 -5.657150 -1.474249
-3.355751 -5.649520 -1.475868
-3.349697 -5.638389 -1.470603
-3.343356 -5.627045 -1.464956
-3.341420 -5.617917 -1.463970
-3.343011 -5.610481 -1.466713
-3.343571 -5.602380 -1.468284
-3.336584 -5.590405 -1.461662
-3.333787 -5.580461 -1.459487
-3.338800 -5.574220 -1.465675
-3.340350 -5.566158 -1.468073
-3.338519 -5.556394 -1.466767
-3.333261 -5.544981 -1.461704
-3.338915 -5.538531 -1.468378
-3.336580 -5.528345 -1.466372
-3.333526 -5.517809 -1.463542
-3.336516 -5.509881 -1.467208
-3.343019 -5.503361 -1.474641
-3.347981 -5.496053 -1.480373
-3.345109 -5.485403 -1.477595
-3.344399 -5.475638 -1.477128
-3.336479 -5.462988 -1.468827
-3.328654 -5.450471 -1.460604
-3.327855 -5.440749 -1.459973
-3.330165 -5.432200 -1.462696
-3.328966 -5.422318 -1.461605
-3.328254 -5.412630 -1.461031
-3.330260 -5.403918 -1.463396
-3.333872 -5.395742 -1.467500
-3.328328 -5.384415 -1.461674
-3.322014 -5.372925 -1.455009
-3.327915 -5.365513 -1.461596
-3.324075 -5.354938 -1.457620
-3.319700 -5.344271 -1.453068
-3.321527 -5.335568 -1.455251
-3.322856 -5.326715 -1.456903
-3.319850 -5.316612 -1.453858
-3.319460 -5.307312 -1.453663
-3.319240 -5.298089 -1.453665
-3.326486 -5.290888 -1.461785
-3.324601 -5.281232 -1.460004
-3.328501 -5.273091 -1.464521
-3.329235 -5.264139 -1.465612
-3.319946 -5.252806 -1.455824
-3.317700 -5.243261 -1.453704
-3.319386 -5.234653 -1.455873
-3.321315 -5.226098 -1.458324
-3.318806 -5.216601 -1.455963
-3.321982 -5.208319 -1.459803
-3.323617 -5.199709 -1.461984
-3.322552 -5.190582 -1.461241
-3.324451 -5.182032 -1.463744
-3.322958 -5.172876 -1.462567
-3.321832 -5.163819 -1.461806
-3.321659 -5.154947 -1.462099
-3.319413 -5.145772 -1.460147
-3.319928 -5.137051 -1.461222
-3.317563 -5.127929 -1.459170
-3.315359 -5.118873 -1.457307
-3.308140 -5.109217 -1.449979
-3.306174 -5.100307 -1.448402
-3.306644 -5.091710 -1.449501
-3.310979 -5.083531 -1.454844
-3.310556 -5.074822 -1.454999
-3.312763 -5.066372 -1.458048
-3.318718 -5.058223 -1.465220
-3.322950 -5.049860 -1.470523
-3.308556 -5.040080 -1.455424
-3.311087 -5.031624 -1.458890
-3.307264 -5.022758 -1.455400
-3.298275 -5.013672 -1.446246
-3.303071 -5.005344 -1.452240
-3.303688 -4.996788 -1.453660
-3.304118 -4.988216 -1.454888
-3.305533 -4.979663 -1.457214
-3.306943 -4.971089 -1.459548
-3.307938 -4.962488 -1.461441
-3.302572 -4.953837 -1.456335
-3.301967 -4.945248 -1.456487
-3.301363 -4.936663 -1.456651
-3.296833 -4.928140 -1.452490
-3.295644 -4.919600 -1.452027
-3.293614 -4.911095 -1.450645
-3.290335 -4.902655 -1.447891
-3.293383 -4.893982 -1.452146
-3.294214 -4.885370 -1.453963
-3.292802 -4.876863 -1.453305
-3.295938 -4.868080 -1.457702
-3.301388 -4.859082 -1.464683
-3.299052 -4.850598 -1.463034
-3.296704 -4.842135 -1.461381
-3.286998 -4.834362 -1.451550
-3.294013 -4.825078 -1.460327
-3.284868 -4.817375 -1.451126
-3.294813 -4.807658 -1.463199
-3.290567 -4.799469 -1.459471
-3.284530 -4.791550 -1.453746
-3.284585 -4.782896 -1.454827
-3.288187 -4.773733 -1.459885
-3.287265 -4.765165 -1.459897
-3.290650 -4.755935 -1.464741
-3.291067 -4.747118 -1.466277
-3.285731 -4.739239 -1.461372
-3.274817 -4.732390 -1.450209
-3.279805 -4.722796 -1.456897
-3.280032 -4.714011 -1.458254
-3.272323 -4.706754 -1.450694
-3.275862 -4.697311 -1.455795
-3.272194 -4.689309 -1.452791
-3.270695 -4.680870 -1.452239
-3.274311 -4.671288 -1.457467
-3.273716 -4.662606 -1.457956
-3.268468 -4.655020 -1.453197
-3.265730 -4.646872 -1.451277
-3.271199 -4.636670 -1.458658
-3.267545 -4.628736 -1.455721
-3.264857 -4.620574 -1.453885
-3.255265 -4.614322 -1.444217
-3.246976 -4.607820 -1.436022
-3.246158 -4.599255 -1.436321
-3.251151 -4.588957 -1.443244
-3.255774 -4.578674 -1.449769
-3.253701 -4.570379 -1.448680
-3.259067 -4.559720 -1.456092
-3.263945 -4.549114 -1.462971
-3.234833 -4.549728 -1.431000
-3.241633 -4.538520 -1.440092
-3.249430 -4.526834 -1.450354
-3.252646 -4.516632 -1.455394
-3.243019 -4.511012 -1.445710
-3.246352 -4.500704 -1.450914
-3.245709 -4.491818 -1.451568
-3.252160 -4.480174 -1.460405
-3.246968 -4.472978 -1.455851
-3.241511 -4.465933 -1.450997
-3.237925 -4.458173 -1.448306
-3.256348 -4.441268 -1.471075
-3.245753 -4.436349 -1.460316
-3.237875 -4.430385 -1.452697
-3.234808 -4.422389 -1.450658
-3.225225 -4.417318 -1.441063
-3.232555 -4.404656 -1.451127
-3.234759 -4.394211 -1.455263
-3.223814 -4.389888 -1.444101
-3.211208 -4.386493 -1.430993
-3.222036 -4.371834 -1.445246
-3.222152 -4.362264 -1.447022
-3.228448 -4.349534 -1.456057
-3.229821 -4.339172 -1.459361
-3.224096 -4.332429 -1.454362
-3.225798 -4.321808 -1.458097
-3.224819 -4.312546 -1.458708
-3.225666 -4.302251 -1.461492
-3.216107 -4.297643 -1.452028
-3.218150 -4.286626 -1.456266
-3.216068 -4.277869 -1.455657
-3.213558 -4.269337 -1.454563
-3.208444 -4.262315 -1.450399
-3.207166 -4.253036 -1.450804
-3.205995 -4.243652 -1.451359
-3.195596 -4.239881 -1.440948
-3.200521 -4.226699 -1.448812
-3.199843 -4.216897 -1.450029
-3.198135 -4.207697 -1.450042
-3.196071 -4.198688 -1.449655
-3.194145 -4.189553 -1.449457
-3.193225 -4.179709 -1.450493
-3.190375 -4.171113 -1.449235
-3.187917 -4.162223 -1.448471
-3.188159 -4.151427 -1.450994
-3.190228 -4.139264 -1.455758
-3.187965 -4.130068 -1.455317
-3.187296 -4.119682 -1.456834
-3.184815 -4.110551 -1.456180
-3.184923 -4.099464 -1.458703
-3.183617 -4.089353 -1.459535
-3.179043 -4.081666 -1.456399
-3.175237 -4.073390 -1.454218
-3.173483 -4.063502 -1.454568
-3.178685 -4.048062 -1.463488
-3.172447 -4.041590 -1.458380
-3.166110 -4.035235 -1.453151
-3.163089 -4.026203 -1.452018
-3.162874 -4.014814 -1.454370
-3.161319 -4.004474 -1.455083
-3.159856 -3.994005 -1.455926
-3.156934 -3.984745 -1.454965
-3.149042 -3.979811 -1.447807
-3.142630 -3.973662 -1.442475
-3.146864 -3.958055 -1.450454
-3.147483 -3.945564 -1.453925
-3.146800 -3.934192 -1.455765
-3.141952 -3.926641 -1.452354
-3.136517 -3.919697 -1.448174
-3.138425 -3.905859 -1.453241
-3.143862 -3.888555 -1.462773
-3.141205 -3.878965 -1.462037
-3.135334 -3.872572 -1.457173
-3.131191 -3.864583 -1.454451
-3.129582 -3.854140 -1.454905
-3.127812 -3.843905 -1.455101
-3.123662 -3.836174 -1.452190
-3.118757 -3.829347 -1.448236
-3.117731 -3.818604 -1.449183
-3.116974 -3.807651 -1.450403
-3.118843 -3.793965 -1.454932
-3.116932 -3.784401 -1.454508
-3.117632 -3.772112 -1.457368
-3.116106 -3.762357 -1.457261
-3.116228 -3.750904 -1.459190
-3.110882 -3.745707 -1.453928
-3.104061 -3.742414 -1.446633
-3.105968 -3.729406 -1.450568
-3.122255 -3.699905 -1.473121
-3.108793 -3.704847 -1.456848
-3.094792 -3.710836 -1.439734
-3.096588 -3.698561 -1.443099
-3.098949 -3.685734 -1.447098
-3.102008 -3.672189 -1.451904
-3.346880 -5.691751 -1.470019
-3.338276 -5.679914 -1.462403
-3.334587 -5.670773 -1.460006
-3.329340 -5.660666 -1.455862
-3.329248 -5.653299 -1.457213
-3.346301 -5.655090 -1.477041
-3.346989 -5.647760 -1.479131
-3.338274 -5.635292 -1.470972
-3.337706 -5.627065 -1.471565
-3.336378 -5.618315 -1.471267
-3.332390 -5.608092 -1.468015
-3.328210 -5.597695 -1.464483
-3.322692 -5.586564 -1.459426
-3.321496 -5.577518 -1.459002
-3.328110 -5.572171 -1.467019
-3.331510 -5.565093 -1.471485
-3.329531 -5.555332 -1.470035
-3.328179 -5.545798 -1.469210
-3.327862 -5.536674 -1.469461
-3.327501 -5.527458 -1.469615
-3.321654 -5.515742 -1.463732
-3.314641 -5.503538 -1.456528
-3.326442 -5.499463 -1.469832
-3.327185 -5.490499 -1.471023
-3.335137 -5.484475 -1.480061
-3.333991 -5.474590 -1.479126
-3.322554 -5.460571 -1.466912
-3.317445 -5.449185 -1.461590
-3.313896 -5.438459 -1.457952
-3.316249 -5.430008 -1.460753
-3.318858 -5.421611 -1.463820
-3.318466 -5.412081 -1.463593
-3.318752 -5.402800 -1.464099
-3.318591 -5.393364 -1.464111
-3.309313 -5.380822 -1.454139
-3.314623 -5.373308 -1.460134
-3.300806 -5.359470 -1.445187
-3.317677 -5.355669 -1.463848
-3.310014 -5.343968 -1.455646
-3.309215 -5.334495 -1.454965
-3.311193 -5.325881 -1.457336
-3.308063 -5.315775 -1.454117
-3.301639 -5.304801 -1.447298
-3.321542 -5.301222 -1.469346
-3.319937 -5.291588 -1.467831
-3.308805 -5.279504 -1.455884
-3.315800 -5.272223 -1.463824
-3.312973 -5.262433 -1.461008
-3.307353 -5.252033 -1.455140
-3.304895 -5.242475 -1.452755
-3.308142 -5.234267 -1.456645
-3.304029 -5.224418 -1.452472
-3.307559 -5.216273 -1.456707
-3.310134 -5.207903 -1.459910
-3.312565 -5.199488 -1.462973
-3.314817 -5.191024 -1.465857
-3.312863 -5.181771 -1.464134
-3.308893 -5.172205 -1.460209
-3.298355 -5.161592 -1.449071
-3.308027 -5.154447 -1.460185
-3.314453 -5.146673 -1.467750
-3.302667 -5.136098 -1.455276
-3.307106 -5.128017 -1.460686
-3.302716 -5.118687 -1.456385
-3.299016 -5.109518 -1.452857
-3.294444 -5.100304 -1.448378
-3.295759 -5.091840 -1.450408
-3.303123 -5.084023 -1.459134
-3.303812 -5.075436 -1.460509
-3.309466 -5.067315 -1.467386
-3.310893 -5.058753 -1.469611
-3.289564 -5.048334 -1.446683
-3.297409 -5.040373 -1.456032
-3.299971 -5.031953 -1.459553
-3.297469 -5.023196 -1.457483
-3.287510 -5.014075 -1.447160
-3.286342 -5.005502 -1.446587
-3.287857 -4.997053 -1.449002
-3.287587 -4.988524 -1.449453
-3.295820 -4.980222 -1.459360
-3.297374 -4.971675 -1.461869
-3.292192 -4.963020 -1.456902
-3.290254 -4.954452 -1.455551
-3.285012 -4.945910 -1.450533
-3.283634 -4.937405 -1.449823
-3.284223 -4.928885 -1.451318
-3.278893 -4.920479 -1.446224
-3.278042 -4.912013 -1.446133
-3.282874 -4.903350 -1.452399
-3.281000 -4.894897 -1.451192
-3.277821 -4.886527 -1.448532
-3.275104 -4.878165 -1.446398
-3.278005 -4.869479 -1.450562
-3.286134 -4.860378 -1.460598
-3.296593 -4.850976 -1.473269
-3.271084 -4.844426 -1.445618
-3.277910 -4.835291 -1.454238
-3.275908 -4.826910 -1.452963
-3.278942 -4.818019 -1.457357
-3.280471 -4.809240 -1.460075
-3.275769 -4.801165 -1.455790
-3.278533 -4.792206 -1.459920
-3.278100 -4.783617 -1.460463
-3.273053 -4.775663 -1.455808
-3.267999 -4.767766 -1.451148
-3.270930 -4.758699 -1.455514
-3.282196 -4.748239 -1.469322
-3.269596 -4.741599 -1.456149
-3.263744 -4.733943 -1.450609
-3.269470 -4.724251 -1.458193
-3.271563 -4.715145 -1.461677
-3.268194 -4.707061 -1.458975
-3.256526 -4.700689 -1.446848
-3.258172 -4.691670 -1.449850
-3.262032 -4.682126 -1.455388
-3.263734 -4.672991 -1.458486
-3.264535 -4.664020 -1.460572
-3.259309 -4.656456 -1.455793
-3.256149 -4.648437 -1.453376
-3.251356 -4.640856 -1.449098
-3.263438 -4.628926 -1.464127
-3.265925 -4.619368 -1.468206
-3.248476 -4.615233 -1.449455
-3.242244 -4.608161 -1.443548
-3.242215 -4.599360 -1.444762
-3.242728 -4.590374 -1.446613
-3.242872 -4.581468 -1.448052
-3.243317 -4.572440 -1.449852
-3.240325 -4.564476 -1.447706
-3.225633 -4.560351 -1.432070
-3.237961 -4.547390 -1.447614
-3.238239 -4.538332 -1.449273
-3.243849 -4.527380 -1.457115
-3.244618 -4.518041 -1.459380
-3.242325 -4.509775 -1.458112
-3.238297 -4.502157 -1.454841
-3.236620 -4.493677 -1.454307
-3.233854 -4.485612 -1.452520
-3.232912 -4.476836 -1.452865
-3.232592 -4.467789 -1.453950
-3.248511 -4.452052 -1.473991
-3.243895 -4.444614 -1.470114
-3.236443 -4.438419 -1.462929
-3.231282 -4.431309 -1.458424
-3.222991 -4.425623 -1.450258
-3.214750 -4.420006 -1.442148
-3.214170 -4.410977 -1.443031
-3.216987 -4.400334 -1.447927
-3.210964 -4.393789 -1.442446
-3.206428 -4.386581 -1.438722
-3.208307 -4.376263 -1.442575
