ply
format ascii 1.0
comment ---
element vertex 1703
property float x
property float y
property float z
element face 0
property list uchar uint vertex_indices
end_header
0.520544 2.213223 0.095270
0.533853 2.208467 0.095166
0.547942 2.208030 0.095024
0.563195 2.213631 0.094835
0.577850 2.215605 0.094653
0.591327 2.211252 0.094493
0.604534 2.205547 0.094329
0.620095 2.211296 0.094083
0.635975 2.218064 0.093817
0.649593 2.213825 0.093604
0.661315 2.200959 0.093431
0.673765 2.191656 0.093225
0.687889 2.189780 0.092961
0.704504 2.198328 0.092617
0.721651 2.208509 0.092248
0.740228 2.223878 0.091830
0.754665 2.221918 0.091515
0.768598 2.217861 0.091205
0.782978 2.215473 0.090873
0.797569 2.213779 0.090528
0.810534 2.205974 0.090220
0.825148 2.204257 0.089861
0.839366 2.201037 0.089508
0.853712 2.198235 0.089148
0.868812 2.197989 0.088765
0.883258 2.195434 0.088400
0.899383 2.198427 0.087991
0.914514 2.198012 0.087611
0.930452 2.200138 0.087215
0.946147 2.201400 0.086832
0.960870 2.199604 0.086485
0.972217 2.187599 0.086238
0.984711 2.179459 0.085975
1.000348 2.180922 0.085646
1.016212 2.183108 0.085331
1.030860 2.181883 0.085070
1.042317 2.171848 0.084916
1.056155 2.168926 0.084729
1.072741 2.173857 0.084501
1.089026 2.178098 0.084315
1.110301 2.195843 0.084040
1.122197 2.188724 0.084041
1.133475 2.180527 0.084096
1.150052 2.186531 0.084064
1.164609 2.187660 0.084127
1.168370 2.162110 0.084491
1.187387 2.175413 0.084542
1.204938 2.185277 0.084681
-2.429369 2.539649 -0.038182
-2.428712 2.592621 -0.039382
-2.401910 2.583853 -0.038244
-2.393450 2.600692 -0.038175
-2.392018 2.627954 -0.038480
-2.353065 2.602990 -0.036376
-2.326052 2.594836 -0.034952
-2.302060 2.591099 -0.033655
-2.284532 2.596873 -0.032706
-2.259948 2.592587 -0.031259
-2.238059 2.592350 -0.029931
-2.218141 2.595167 -0.028681
-2.200358 2.601349 -0.027522
-2.180595 2.604696 -0.026199
-2.141398 2.578231 -0.023622
-2.117338 2.574766 -0.021966
-2.097621 2.578036 -0.020557
-2.084714 2.592141 -0.019551
-2.064236 2.594330 -0.018051
-2.039144 2.588996 -0.016249
-2.013426 2.582413 -0.014397
-1.990261 2.579791 -0.012697
-1.965611 2.574480 -0.010899
-1.944761 2.575326 -0.009335
-1.915378 2.561416 -0.007244
-1.888313 2.551025 -0.005301
-1.876579 2.567023 -0.004304
-1.876265 2.603375 -0.004010
-1.937727 2.750823 -0.007492
-1.937505 2.829834 -0.006928
-1.912222 2.823755 -0.005128
-1.887978 2.819224 -0.003406
-1.869986 2.826169 -0.002077
-1.844191 2.818075 -0.000292
-1.735084 2.810965 0.007179
-1.728609 2.840182 0.007704
-1.722096 2.869766 0.008215
-1.697712 2.862195 0.009774
-1.679702 2.867762 0.010935
-1.662195 2.874295 0.012049
-1.643705 2.878592 0.013203
-1.624183 2.880465 0.014400
-1.602329 2.876917 0.015718
-1.579226 2.870205 0.017092
-1.557430 2.866082 0.018372
-1.537863 2.866799 0.019502
-1.517920 2.866412 0.020637
-1.498298 2.866553 0.021737
-1.472189 2.850790 0.023207
-1.450438 2.845060 0.024402
-1.429804 2.841731 0.025515
-1.411533 2.844037 0.026472
-1.393884 2.847781 0.027376
-1.373830 2.845201 0.028410
-1.350754 2.834429 0.029612
-1.331425 2.833107 0.030575
-1.313748 2.835998 0.031425
-1.295780 2.837984 0.032279
-1.267320 2.810745 0.033758
-1.250240 2.814530 0.034534
-1.235907 2.826085 0.035130
-1.215596 2.820481 0.036079
-1.192822 2.807285 0.037169
-1.173427 2.803595 0.038042
-1.153421 2.797765 0.038942
-1.136530 2.801172 0.039638
-1.116142 2.793579 0.040544
-1.095041 2.783306 0.041486
-1.070707 2.762091 0.042628
-0.968872 2.485470 0.048732
-0.944262 2.457302 0.049915
-0.928175 2.456977 0.050545
-0.909918 2.449002 0.051309
-0.889407 2.432686 0.052216
-0.875028 2.437589 0.052714
-0.860523 2.442076 0.053212
-0.842765 2.434527 0.053922
-0.828881 2.441199 0.054364
-0.813477 2.442139 0.054902
-0.796147 2.435426 0.055567
-0.780502 2.435060 0.056110
-0.764061 2.431307 0.056705
-0.747398 2.426342 0.057312
-0.730674 2.420789 0.057919
-0.716225 2.424746 0.058358
-0.701051 2.425532 0.058844
-0.684378 2.419435 0.059437
-0.667615 2.412522 0.060035
-0.652016 2.410684 0.060542
-0.637191 2.412390 0.060986
-0.622172 2.413085 0.061440
-0.608660 2.421360 0.061769
-0.589774 2.401904 0.062528
-0.575881 2.408022 0.062880
-0.561012 2.408981 0.063307
-0.545786 2.407856 0.063761
-0.529743 2.401809 0.064284
-0.513996 2.397053 0.064781
-0.500105 2.403264 0.065109
-0.483429 2.392145 0.065688
-0.467994 2.388278 0.066154
-0.453478 2.390209 0.066530
-0.438062 2.385892 0.066992
-0.422047 2.376853 0.067514
-0.407510 2.378011 0.067887
-0.393173 2.380658 0.068235
-0.378208 2.378355 0.068647
-0.363333 2.376469 0.069048
-0.348534 2.374947 0.069440
-0.334803 2.382756 0.069701
-0.319596 2.377245 0.070137
-0.304308 2.370287 0.070587
-0.289651 2.368984 0.070956
-0.283067 2.454637 0.070192
-0.269679 2.471802 0.070324
-0.260469 2.540912 0.069792
-0.249096 2.590529 0.069517
-0.234344 2.600465 0.069745
-0.218771 2.599693 0.070104
-0.203470 2.602813 0.070409
-0.188376 2.609665 0.070664
-0.172930 2.611079 0.070981
-0.156770 2.598423 0.071463
-0.141248 2.596848 0.071804
-0.125756 2.595383 0.072138
-0.109916 2.583841 0.072584
-0.094429 2.579625 0.072937
-0.079360 2.588889 0.073128
-0.064023 2.589810 0.073409
-0.048626 2.587515 0.073722
-0.033187 2.580158 0.074085
-0.017797 2.569975 0.074472
-0.002518 2.562281 0.074823
0.026588 2.287688 0.078352
0.040431 2.278159 0.078680
0.054350 2.280464 0.078872
0.068221 2.279171 0.079095
0.082212 2.283636 0.079250
0.095978 2.278491 0.079501
0.109622 2.271009 0.079768
0.123233 2.264456 0.080018
0.137074 2.264837 0.080186
0.150954 2.265907 0.080339
0.164863 2.267272 0.080482
0.179056 2.273440 0.080566
0.192771 2.270595 0.080736
0.206710 2.271512 0.080858
0.219787 2.259723 0.081100
0.233397 2.256507 0.081246
0.246193 2.243169 0.081484
0.259690 2.239617 0.081614
0.273675 2.241856 0.081675
0.287679 2.243921 0.081728
0.301311 2.241802 0.081813
0.314358 2.233966 0.081945
0.327111 2.223884 0.082089
0.340370 2.219037 0.082169
0.353188 2.210604 0.082274
0.366460 2.206411 0.082325
0.380539 2.208813 0.082300
0.393953 2.205731 0.082317
0.407905 2.206675 0.082283
0.422348 2.210889 0.082204
0.436506 2.212660 0.082137
0.450432 2.212549 0.082076
0.464702 2.214485 0.081982
0.479159 2.217279 0.081867
0.493343 2.218027 0.081759
0.507801 2.220152 0.081623
0.521329 2.216545 0.081533
0.534649 2.211741 0.081442
0.547750 2.205767 0.081349
0.561374 2.202681 0.081213
0.576473 2.207218 0.080985
0.590531 2.206013 0.080803
0.606171 2.212494 0.080525
0.619290 2.206217 0.080368
0.633751 2.206361 0.080130
0.648859 2.209264 0.079848
0.663563 2.209984 0.079576
0.676804 2.203969 0.079364
0.690417 2.199606 0.079122
0.705121 2.199827 0.078817
0.722043 2.209028 0.078398
0.739815 2.221099 0.077932
0.755357 2.223592 0.077562
0.769254 2.219363 0.077259
0.782936 2.214276 0.076957
0.797583 2.212819 0.076604
0.812173 2.211034 0.076247
0.824930 2.202520 0.075966
0.838557 2.197251 0.075641
0.854292 2.199386 0.075221
0.869526 2.199605 0.074823
0.884080 2.197418 0.074454
0.899390 2.197722 0.074054
0.915350 2.200062 0.073632
0.931309 2.202275 0.073215
0.946993 2.203527 0.072819
0.958472 2.191724 0.072607
0.970312 2.181423 0.072390
0.983922 2.176810 0.072115
0.999847 2.179255 0.071763
1.016888 2.184989 0.071388
1.031386 2.183410 0.071138
1.044723 2.178777 0.070959
1.057595 2.173186 0.070825
1.072144 2.172594 0.070657
1.088226 2.176439 0.070464
1.103660 2.178744 0.070333
1.121140 2.186715 0.070165
1.133504 2.181519 0.070229
1.143959 2.171930 0.070405
1.152405 2.157877 0.070693
1.176433 2.183677 0.070471
1.187002 2.175946 0.070776
1.178015 2.120910 0.071793
-2.477668 2.607356 -0.059295
-2.451687 2.599150 -0.058324
-2.423475 2.588110 -0.057121
-2.403028 2.587903 -0.056380
-2.385766 2.592426 -0.055791
-2.368604 2.597464 -0.055140
-2.373275 2.633714 -0.055957
-2.328477 2.600342 -0.053234
-2.305992 2.598693 -0.052015
-2.284525 2.598695 -0.050809
-2.258725 2.592521 -0.049239
-2.232979 2.586461 -0.047620
-2.211412 2.586649 -0.046249
-2.191056 2.588765 -0.044920
-2.175194 2.597840 -0.043870
-2.157233 2.603907 -0.042634
-2.114892 2.572187 -0.039633
-2.097942 2.579706 -0.038408
-2.080991 2.587343 -0.037160
-2.064083 2.595151 -0.035894
-2.034588 2.582629 -0.033716
-2.011830 2.580780 -0.032005
-1.989046 2.578729 -0.030281
-1.968022 2.579441 -0.028675
-1.945123 2.576841 -0.026932
-1.919915 2.570063 -0.025024
-1.896840 2.566646 -0.023268
-1.880026 2.573916 -0.021958
-1.879043 2.609157 -0.021768
-1.944591 2.764005 -0.026270
-1.935755 2.787550 -0.025533
-1.923571 2.805268 -0.024569
-1.902319 2.806363 -0.022978
-1.886060 2.816578 -0.021751
-1.872933 2.832709 -0.020756
-1.861704 2.852592 -0.019909
-1.837676 2.847878 -0.018179
-1.738910 2.862452 -0.011273
-1.719711 2.865933 -0.009982
-1.699353 2.866803 -0.008628
-1.678228 2.865801 -0.007237
-1.660798 2.872489 -0.006123
-1.640878 2.873654 -0.004853
-1.621702 2.876243 -0.003652
-1.601023 2.875283 -0.002362
-1.578312 2.869449 -0.000946
-1.556439 2.865148 0.000395
-1.535837 2.863455 0.001629
-1.517360 2.866490 0.002696
-1.498235 2.867829 0.003793
-1.476832 2.863464 0.005037
-1.452862 2.852473 0.006451
-1.431181 2.846648 0.007686
-1.410499 2.842963 0.008836
-1.393086 2.847302 0.009735
-1.372945 2.844498 0.010818
-1.343791 2.817783 0.012546
-1.327105 2.823257 0.013352
-1.314528 2.839762 0.013841
-1.295207 2.838105 0.014812
-1.275318 2.834632 0.015813
-1.249384 2.813852 0.017256
-1.232618 2.818454 0.018003
-1.213467 2.816098 0.018918
-1.191399 2.804903 0.020044
-1.173975 2.807061 0.020808
-1.154189 2.801947 0.021743
-1.137005 2.804519 0.022468
-1.122327 2.814843 0.022986
-1.092571 2.777372 0.024677
-1.075449 2.779354 0.025371
-0.965280 2.475470 0.033493
-0.945008 2.461604 0.034483
-0.927622 2.456932 0.035237
-0.910347 2.452338 0.035977
-0.890889 2.439762 0.036893
-0.873226 2.433029 0.037657
-0.861690 2.448245 0.037901
-0.845359 2.446088 0.038541
-0.828112 2.440250 0.039254
-0.812757 2.441349 0.039799
-0.796253 2.437842 0.040440
-0.778984 2.431006 0.041145
-0.764733 2.436092 0.041576
-0.747620 2.429330 0.042261
-0.731853 2.427882 0.042821
-0.716765 2.429194 0.043312
-0.701967 2.431726 0.043772
-0.684373 2.421562 0.044494
-0.667612 2.414678 0.045138
-0.651793 2.411819 0.045688
-0.636677 2.412114 0.046166
-0.621441 2.411703 0.046652
-0.607091 2.415653 0.047042
-0.592704 2.419482 0.047430
-0.577208 2.417445 0.047932
-0.560315 2.407504 0.048586
-0.545156 2.406682 0.049050
-0.529997 2.405687 0.049511
-0.515347 2.407538 0.049912
-0.499251 2.400501 0.050480
-0.483863 2.397387 0.050966
-0.468437 2.393703 0.051457
-0.453983 2.396179 0.051824
-0.437828 2.386882 0.052410
-0.422212 2.380692 0.052931
-0.407475 2.380453 0.053334
-0.393114 2.382960 0.053680
-0.379026 2.387693 0.053982
-0.364089 2.385607 0.054405
-0.348855 2.380644 0.054876
-0.333570 2.374658 0.055359
-0.319085 2.375517 0.055713
-0.303314 2.363662 0.056289
-0.290659 2.382596 0.056312
-0.284887 2.477749 0.054992
-0.270360 2.483112 0.055261
-0.262710 2.571653 0.054079
-0.248910 2.592131 0.054087
-0.234267 2.603571 0.054251
-0.218869 2.605450 0.054574
-0.203247 2.603936 0.054950
-0.187792 2.604756 0.055281
-0.172198 2.602965 0.055650
-0.156455 2.597699 0.056072
-0.141001 2.597412 0.056404
-0.125439 2.594193 0.056778
-0.110012 2.593564 0.057104
-0.094585 2.592484 0.057430
-0.079065 2.587357 0.057816
-0.063735 2.588090 0.058101
-0.048300 2.583002 0.058472
-0.032933 2.578993 0.058819
-0.017605 2.574543 0.059165
-0.002325 2.570603 0.059495
0.026813 2.291933 0.064358
0.040681 2.283391 0.064717
0.054754 2.295218 0.064752
0.068722 2.295591 0.064959
0.082339 2.280781 0.065391
0.096264 2.281912 0.065570
0.109733 2.268624 0.065961
0.123318 2.261734 0.066245
0.137003 2.258696 0.066463
0.150936 2.261547 0.066584
0.165009 2.266560 0.066665
0.178956 2.268347 0.066786
0.192648 2.265532 0.066966
0.206634 2.267529 0.067066
0.220031 2.260656 0.067288
0.233298 2.252740 0.067516
0.246477 2.244509 0.067738
0.260049 2.241774 0.067869
0.273598 2.238920 0.067992
0.287458 2.239570 0.068053
0.301046 2.237199 0.068147
0.314773 2.236242 0.068211
0.328082 2.231277 0.068322
0.340547 2.218957 0.068529
0.353075 2.208003 0.068704
0.366806 2.207711 0.068713
0.394635 2.209479 0.068660
0.409171 2.214615 0.068554
0.422968 2.213897 0.068520
0.436638 2.212148 0.068489
0.450829 2.213809 0.068395
0.465406 2.217690 0.068256
0.479538 2.218306 0.068151
0.493720 2.218984 0.068032
0.507986 2.219910 0.067895
0.521779 2.217821 0.067790
0.534986 2.212321 0.067721
0.548072 2.206228 0.067648
0.561113 2.199984 0.067563
0.575593 2.201338 0.067351
0.591534 2.209832 0.067017
0.604217 2.201519 0.066922
0.617646 2.196981 0.066757
0.631995 2.196790 0.066512
0.647747 2.202866 0.066156
0.662894 2.205715 0.065836
0.677971 2.207902 0.065511
0.691118 2.201422 0.065310
0.705291 2.199342 0.065027
0.720445 2.201202 0.064668
0.739259 2.217658 0.064063
0.754603 2.219425 0.063680
0.768708 2.216085 0.063370
0.782659 2.212095 0.063061
0.796140 2.206311 0.062774
0.812578 2.211465 0.062298
0.827955 2.212435 0.061884
0.840526 2.203259 0.061637
0.854689 2.199826 0.061291
0.870659 2.202588 0.060836
0.885389 2.200983 0.060456
0.900931 2.202035 0.060032
0.916612 2.203443 0.059605
0.932129 2.204240 0.059196
0.945683 2.198825 0.058906
0.957666 2.188732 0.058714
0.969977 2.179995 0.058514
0.984918 2.179481 0.058183
1.000965 2.182341 0.057810
1.017692 2.187219 0.057423
1.032775 2.187394 0.057150
1.046002 2.182510 0.057001
1.064628 2.193011 0.056597
1.075067 2.180992 0.056653
1.085843 2.170491 0.056721
1.101802 2.174426 0.056559
1.117622 2.178226 0.056444
1.131455 2.177118 0.056471
1.144274 2.173814 0.056589
1.168004 2.198720 0.056226
1.175205 2.181972 0.056704
1.183098 2.167781 0.057188
1.202345 2.182228 0.057191
-2.532659 2.684211 -0.081614
-2.450466 2.600296 -0.076341
-2.424956 2.592799 -0.075293
-2.397511 2.582845 -0.074019
-2.370312 2.573377 -0.072687
-2.364975 2.594681 -0.072979
-2.344884 2.595778 -0.072060
-2.325742 2.598507 -0.071151
-2.299498 2.591293 -0.069621
-2.275660 2.587653 -0.068218
-2.250961 2.582865 -0.066688
-2.225579 2.577128 -0.065049
-2.202161 2.574347 -0.063515
-2.184392 2.580144 -0.062382
-2.168987 2.589736 -0.061394
-2.151566 2.596466 -0.060210
-2.129515 2.596148 -0.058624
-2.095654 2.577251 -0.056069
-2.075776 2.580146 -0.054598
-2.045779 2.566806 -0.052300
-2.029977 2.576138 -0.051113
-2.009888 2.578545 -0.049570
-1.988959 2.579497 -0.047948
-1.967894 2.580111 -0.046306
-1.939166 2.567612 -0.044047
-1.919670 2.570483 -0.042521
-1.899919 2.572799 -0.040974
-1.887252 2.587378 -0.039993
-1.875512 2.603724 -0.039091
-1.927433 2.734153 -0.043277
-1.930243 2.778434 -0.043551
-1.910310 2.781863 -0.042018
-1.899772 2.802521 -0.041246
-1.888491 2.822018 -0.040427
-1.877646 2.842538 -0.039656
-1.861192 2.852533 -0.038451
-1.839348 2.852053 -0.036828
-1.756119 2.855772 -0.030825
-1.741879 2.869599 -0.029895
-1.717818 2.863064 -0.028189
-1.700960 2.871283 -0.027083
-1.682819 2.876707 -0.025890
-1.661453 2.875051 -0.024453
-1.640810 2.874681 -0.023092
-1.619754 2.873138 -0.021713
-1.599371 2.872815 -0.020406
-1.578369 2.870837 -0.019064
-1.555990 2.865403 -0.017625
-1.533969 2.860421 -0.016230
-1.514454 2.860986 -0.015057
-1.495145 2.861822 -0.013917
-1.476281 2.863532 -0.012830
-1.455323 2.859926 -0.011583
-1.436172 2.860492 -0.010501
-1.413455 2.851882 -0.009132
-1.393542 2.849972 -0.008012
-1.371125 2.841324 -0.006692
-1.349742 2.834941 -0.005471
-1.330525 2.833933 -0.004447
-1.313023 2.837321 -0.003586
-1.295635 2.840921 -0.002747
-1.272477 2.828418 -0.001415
-1.247439 2.810063 0.000078
-1.233065 2.821449 0.000616
-1.215282 2.823103 0.001444
-1.196147 2.820646 0.002383
-1.167707 2.790120 0.004161
-1.155322 2.807202 0.004469
-1.137082 2.806598 0.005300
-1.116806 2.799426 0.006313
-1.100979 2.806013 0.006902
-1.071517 2.768545 0.008772
-0.964682 2.475272 0.018063
-0.946007 2.466727 0.018985
-0.927533 2.458432 0.019886
-0.909192 2.450169 0.020771
-0.891343 2.443201 0.021605
-0.875156 2.441802 0.022270
-0.860541 2.445946 0.022769
-0.846316 2.451551 0.023220
-0.829924 2.449036 0.023887
-0.811317 2.437751 0.024783
-0.795012 2.434944 0.025436
-0.780356 2.438499 0.025908
-0.763733 2.434026 0.026588
-0.747137 2.429358 0.027263
-0.731341 2.427768 0.027848
-0.716224 2.428933 0.028351
-0.700903 2.429116 0.028874
-0.685018 2.426620 0.029458
-0.668190 2.419514 0.030154
-0.651654 2.413334 0.030816
-0.636360 2.412778 0.031327
-0.620615 2.409820 0.031892
-0.605919 2.411940 0.032322
-0.590865 2.412167 0.032793
-0.574957 2.407705 0.033375
-0.558718 2.401070 0.034004
-0.543786 2.401318 0.034456
-0.529547 2.405475 0.034806
-0.514119 2.402648 0.035322
-0.498424 2.397893 0.035878
-0.480862 2.380910 0.036721
-0.470496 2.409654 0.036462
-0.455747 2.410618 0.036866
-0.436585 2.380858 0.037990
-0.421787 2.380292 0.038415
-0.407329 2.382068 0.038781
-0.394017 2.392666 0.038937
-0.379466 2.394023 0.039304
-0.364772 2.394148 0.039695
-0.349569 2.389747 0.040185
-0.331729 2.361079 0.041220
-0.317836 2.366846 0.041465
-0.303707 2.370681 0.041750
-0.289045 2.369226 0.042149
-0.282345 2.453699 0.040631
-0.274500 2.533931 0.039222
-0.262631 2.574520 0.038698
-0.248666 2.593019 0.038662
-0.234019 2.604407 0.038780
-0.218533 2.604995 0.039129
-0.202859 2.602541 0.039539
-0.187122 2.598445 0.039977
-0.171548 2.596404 0.040365
-0.156187 2.597973 0.040670
-0.140616 2.595047 0.041064
-0.125501 2.602275 0.041237
-0.109926 2.598519 0.041637
-0.094381 2.594314 0.042038
-0.078828 2.588080 0.042475
-0.063394 2.584207 0.042855
-0.048005 2.580431 0.043226
-0.032710 2.580568 0.043509
-0.017382 2.576500 0.043871
-0.002084 2.569574 0.044283
0.027013 2.289909 0.050454
0.041049 2.300354 0.050471
0.054985 2.296972 0.050760
0.068762 2.286866 0.051175
0.082669 2.286331 0.051391
0.096435 2.280919 0.051696
0.110231 2.277902 0.051945
0.123750 2.268131 0.052318
0.137465 2.265157 0.052549
0.151404 2.267518 0.052666
0.165428 2.271030 0.052753
0.179447 2.273760 0.052846
0.193205 2.271632 0.053025
0.207163 2.272766 0.053131
0.220129 2.259321 0.053510
0.233059 2.246951 0.053858
0.247688 2.257501 0.053752
0.261111 2.252240 0.053942
0.274297 2.244703 0.054165
0.286616 2.228387 0.054546
0.299637 2.220692 0.054750
0.314403 2.230678 0.054603
0.328391 2.232325 0.054605
0.342756 2.237044 0.054537
0.354414 2.217835 0.054916
0.367720 2.213610 0.054996
0.380864 2.208222 0.055086
0.395359 2.213439 0.054960
0.410159 2.220371 0.054788
0.423399 2.215431 0.054832
0.436893 2.212387 0.054826
0.450609 2.210821 0.054779
0.465699 2.218104 0.054548
0.479973 2.219579 0.054415
0.493649 2.217083 0.054345
0.507437 2.215183 0.054250
0.521765 2.216306 0.054082
0.534638 2.208941 0.054065
0.548207 2.205559 0.053957
0.561850 2.202530 0.053828
0.576435 2.204339 0.053589
0.590387 2.202615 0.053406
0.603855 2.198350 0.053259
0.617250 2.193705 0.053106
0.632082 2.195848 0.052803
0.647738 2.201482 0.052415
0.663181 2.205675 0.052041
0.677149 2.202942 0.051794
0.690675 2.198194 0.051575
0.704213 2.193480 0.051343
0.720792 2.201360 0.050839
0.738406 2.212923 0.050245
0.753023 2.211882 0.049900
0.768203 2.212889 0.049502
0.781345 2.205870 0.049263
0.793905 2.196754 0.049063
0.812675 2.210686 0.048362
0.826756 2.207001 0.048033
0.840264 2.201272 0.047743
0.854861 2.199419 0.047368
0.869447 2.197480 0.046993
0.886365 2.203361 0.046446
0.901822 2.204135 0.046014
0.916797 2.203266 0.045623
0.930515 2.198376 0.045331
0.944266 2.193744 0.045045
0.957453 2.187536 0.044808
0.971221 2.183339 0.044542
0.985801 2.181782 0.044236
1.002362 2.186225 0.043812
1.018931 2.190691 0.043413
1.032151 2.185595 0.043264
1.048296 2.189101 0.042947
1.061500 2.184545 0.042854
1.077007 2.186695 0.042641
1.088865 2.179189 0.042699
1.101092 2.173185 0.042765
1.115520 2.173485 0.042730
1.133130 2.182432 0.042539
1.152815 2.196888 0.042271
1.164569 2.191254 0.042532
1.169840 2.169908 0.043218
1.188822 2.183544 0.043138
1.222209 2.232694 0.042289
-2.397398 2.505254 -0.088896
-2.499728 2.669945 -0.098557
-2.426168 2.597162 -0.093459
-2.389335 2.574142 -0.091346
-2.369511 2.574700 -0.090591
-2.359309 2.589062 -0.090586
-2.354265 2.611255 -0.090960
-2.318744 2.590601 -0.088658
-2.289563 2.578943 -0.086829
-2.267641 2.577839 -0.085561
-2.248173 2.580505 -0.084447
-2.221666 2.572956 -0.082667
-2.201565 2.574980 -0.081391
-2.183745 2.580599 -0.080266
-2.166226 2.586874 -0.079126
-2.147050 2.590777 -0.077801
-2.123136 2.587413 -0.076024
-2.100540 2.586057 -0.074331
-2.074967 2.579922 -0.072347
-2.051655 2.577244 -0.070537
-2.030439 2.577843 -0.068891
-2.005943 2.572989 -0.066938
-1.990608 2.583108 -0.065781
-1.966025 2.577824 -0.063796
-1.936656 2.564178 -0.061376
-1.914975 2.563239 -0.059634
-1.900800 2.575104 -0.058557
-1.883445 2.581485 -0.057197
-1.876072 2.605484 -0.056730
-1.920576 2.722673 -0.060900
-1.924029 2.767989 -0.061421
-1.915287 2.791780 -0.060864
-1.896072 2.796488 -0.059381
-1.884284 2.814968 -0.058574
-1.877226 2.842588 -0.058207
-1.862486 2.855875 -0.057165
-1.835608 2.845680 -0.055044
-1.738526 2.863691 -0.048025
-1.718185 2.864836 -0.046585
-1.700629 2.871622 -0.045416
-1.682217 2.876488 -0.044187
-1.661723 2.876727 -0.042784
-1.640906 2.876010 -0.041366
-1.619493 2.873708 -0.039909
-1.598371 2.871749 -0.038495
-1.577927 2.871035 -0.037159
-1.558310 2.871963 -0.035916
-1.537302 2.869436 -0.034557
-1.514828 2.863153 -0.033074
-1.494128 2.860708 -0.031773
-1.473124 2.857236 -0.030456
-1.454349 2.858914 -0.029367
-1.430600 2.848052 -0.027811
-1.411211 2.847658 -0.026689
-1.390189 2.842872 -0.025420
-1.370524 2.841252 -0.024296
-1.347936 2.831712 -0.022894
-1.327800 2.828223 -0.021745
-1.312550 2.837614 -0.021095
-1.290076 2.827305 -0.019734
-1.274732 2.836300 -0.019103
-1.252618 2.826294 -0.017796
-1.228773 2.810854 -0.016315
-1.210258 2.810229 -0.015390
-1.191588 2.808948 -0.014459
-1.172023 2.804770 -0.013442
-1.150315 2.793775 -0.012205
-1.134426 2.800211 -0.011595
-1.115461 2.797039 -0.010664
-1.097959 2.798256 -0.009901
-1.062904 2.742538 -0.007206
-0.968324 2.488986 0.002162
-0.945862 2.467995 0.003567
-0.926041 2.455130 0.004680
-0.907813 2.447185 0.005611
-0.890152 2.440816 0.006476
-0.873926 2.439226 0.007171
-0.859091 2.442513 0.007695
-0.844308 2.445978 0.008205
-0.829322 2.448666 0.008731
-0.810705 2.437315 0.009700
-0.794570 2.435151 0.010362
-0.779777 2.438151 0.010850
-0.764172 2.437818 0.011435
-0.746566 2.428990 0.012279
-0.728870 2.419283 0.013139
-0.713835 2.420609 0.013644
-0.699485 2.424906 0.014051
-0.684586 2.426771 0.014527
-0.669241 2.426526 0.015060
-0.651628 2.415370 0.015917
-0.636087 2.413633 0.016479
-0.620765 2.412776 0.017007
-0.605645 2.412780 0.017503
-0.589205 2.405759 0.018201
-0.573610 2.402782 0.018771
-0.557963 2.399233 0.019350
-0.544000 2.404876 0.019653
-0.528039 2.399111 0.020285
-0.512925 2.397940 0.020776
-0.496668 2.389553 0.021468
-0.479995 2.377902 0.022247
-0.468635 2.400053 0.022051
-0.450790 2.379833 0.023060
-0.438287 2.395292 0.023050
-0.420996 2.377250 0.023981
-0.407029 2.382540 0.024248
-0.392817 2.386180 0.024558
-0.378876 2.392122 0.024799
-0.364452 2.394375 0.025139
-0.349508 2.392166 0.025597
-0.332792 2.373653 0.026495
-0.317498 2.366747 0.027067
-0.303248 2.369331 0.027376
-0.289871 2.381016 0.027434
-0.281261 2.445401 0.026073
-0.276037 2.555151 0.023508
-0.261889 2.569438 0.023506
-0.248300 2.592387 0.023273
-0.233473 2.601220 0.023412
-0.218106 2.603234 0.023726
-0.202412 2.600258 0.024166
-0.186443 2.592009 0.024737
-0.170899 2.589876 0.025142
-0.155680 2.593573 0.025389
-0.140481 2.598223 0.025605
-0.125022 2.597354 0.025959
-0.109632 2.597903 0.026269
-0.094008 2.590964 0.026764
-0.078443 2.583572 0.027262
-0.063087 2.582035 0.027604
-0.047780 2.582018 0.027900
-0.032499 2.583503 0.028152
-0.017157 2.578877 0.028550
-0.001809 2.561969 0.029246
0.027411 2.326491 0.035610
0.041151 2.288475 0.036782
0.055183 2.295964 0.036819
0.068917 2.283937 0.037329
0.082755 2.281122 0.037604
0.096807 2.286854 0.037661
0.111279 2.303828 0.037436
0.124523 2.283472 0.038114
0.137994 2.272989 0.038541
0.152307 2.282649 0.038471
0.166103 2.280332 0.038681
0.179990 2.279914 0.038837
0.194189 2.284647 0.038859
0.207467 2.274362 0.039233
0.220259 2.258316 0.039734
0.233388 2.248693 0.040071
0.247917 2.257839 0.039947
0.261494 2.254407 0.040114
0.274612 2.245961 0.040390
0.287794 2.238899 0.040622
0.300781 2.230348 0.040877
0.314223 2.226874 0.041000
0.329485 2.240613 0.040702
0.342980 2.237136 0.040802
0.357012 2.238396 0.040777
0.371096 2.239810 0.040736
0.385896 2.246646 0.040553
0.397300 2.226653 0.040997
0.410290 2.219643 0.041118
0.424049 2.218435 0.041088
0.436850 2.210449 0.041207
0.450706 2.209858 0.041136
0.465426 2.214720 0.040920
0.479934 2.217746 0.040735
0.493834 2.216652 0.040634
0.507161 2.211988 0.040604
0.520949 2.210037 0.040495
0.533872 2.203100 0.040493
0.547429 2.199779 0.040389
0.561325 2.198225 0.040227
0.575814 2.199615 0.039980
0.589846 2.198385 0.039781
0.603916 2.197185 0.039567
0.618453 2.198073 0.039287
0.633070 2.199076 0.038990
0.648653 2.204271 0.038574
0.664074 2.208279 0.038172
0.678536 2.207656 0.037872
0.689224 2.190521 0.037973
0.704947 2.195204 0.037514
0.722059 2.205247 0.036905
0.737983 2.209848 0.036420
0.753333 2.211784 0.035991
0.767595 2.209211 0.035667
0.784794 2.217788 0.035045
0.798031 2.210995 0.034813
0.811921 2.206699 0.034510
0.826431 2.204656 0.034144
0.840690 2.201659 0.033798
0.855506 2.200590 0.033400
0.870303 2.199387 0.033005
0.886122 2.201579 0.032520
0.902156 2.204342 0.032022
0.915956 2.199708 0.031731
0.929723 2.195099 0.031449
0.944955 2.195248 0.031048
0.959383 2.192936 0.030730
0.973584 2.190061 0.030445
0.988087 2.188264 0.030152
1.003497 2.189315 0.029802
1.017464 2.186281 0.029594
1.031928 2.184935 0.029370
1.044345 2.178048 0.029335
1.063144 2.189366 0.028824
1.077164 2.187510 0.028724
1.090287 2.183566 0.028728
1.102936 2.178787 0.028802
1.114636 2.171975 0.028983
1.135232 2.188889 0.028542
1.149916 2.190567 0.028587
1.158090 2.176075 0.029146
1.174783 2.183768 0.029135
1.187107 2.180887 0.029481
1.201785 2.184321 0.029708
-2.449079 2.604130 -0.112397
-2.437145 2.614929 -0.112530
-2.362190 2.566982 -0.107875
-2.377166 2.616475 -0.110287
-2.342588 2.596962 -0.108036
-2.329058 2.607434 -0.107677
-2.285651 2.575277 -0.104448
-2.265323 2.576321 -0.103317
-2.250600 2.585810 -0.102658
-2.222856 2.576348 -0.100709
-2.201020 2.575691 -0.099265
-2.182220 2.579728 -0.098062
-2.162350 2.582301 -0.096711
-2.140091 2.581307 -0.095089
-2.117789 2.580266 -0.093425
-2.102190 2.589761 -0.092374
-2.081049 2.590630 -0.090758
-2.058207 2.588746 -0.088952
-2.032812 2.582622 -0.086874
-2.012585 2.584764 -0.085279
-1.987470 2.578748 -0.083191
-1.967150 2.580517 -0.081558
-1.932975 2.558717 -0.078561
-1.916743 2.567018 -0.077311
-1.899107 2.572909 -0.075919
-1.877127 2.571148 -0.074100
-1.868041 2.591986 -0.073552
-1.917682 2.718231 -0.078803
-1.927405 2.774847 -0.080141
-1.899599 2.803778 -0.078182
-1.881073 2.809725 -0.076760
-1.875465 2.840039 -0.076638
-1.864488 2.860516 -0.075998
-1.837139 2.849467 -0.073735
-1.745160 2.835355 -0.066547
-1.743505 2.874857 -0.066953
-1.720119 2.869814 -0.065170
-1.699830 2.870914 -0.063717
-1.680015 2.872797 -0.062329
-1.660495 2.875107 -0.060987
-1.640228 2.875589 -0.059585
-1.618450 2.872486 -0.058040
-1.594596 2.864405 -0.056293
-1.573970 2.863201 -0.054896
-1.556597 2.869199 -0.053857
-1.536609 2.869025 -0.052558
-1.514817 2.864359 -0.051081
-1.489039 2.849811 -0.049190
-1.468769 2.847986 -0.047899
-1.441858 2.829597 -0.045901
-1.423348 2.831374 -0.044823
-1.408750 2.842836 -0.044187
-1.391853 2.848526 -0.043318
-1.367383 2.834556 -0.041623
-1.345735 2.827394 -0.040248
-1.326275 2.825651 -0.039127
-1.308668 2.828655 -0.038227
-1.297606 2.849469 -0.038088
-1.272571 2.831877 -0.036365
-1.253060 2.829143 -0.035282
-1.232534 2.823236 -0.034089
-1.210218 2.811767 -0.032691
-1.191090 2.809160 -0.031674
-1.168586 2.796193 -0.030259
-1.150987 2.797547 -0.029439
-1.134012 2.800695 -0.028705
-1.117534 2.805327 -0.028043
-1.095822 2.793262 -0.026740
-1.051312 2.706817 -0.022559
-0.964180 2.477051 -0.012880
-0.946114 2.470559 -0.011915
-0.928041 2.463676 -0.010951
-0.904685 2.438111 -0.009290
-0.889487 2.440253 -0.008700
-0.873924 2.441019 -0.008069
-0.858106 2.440743 -0.007409
-0.842582 2.441416 -0.006795
-0.827711 2.444445 -0.006278
-0.811172 2.441014 -0.005532
-0.794927 2.438476 -0.004829
-0.779025 2.437082 -0.004179
-0.763919 2.438751 -0.003649
-0.746918 2.432448 -0.002840
-0.729777 2.425157 -0.002006
-0.712280 2.415880 -0.001112
-0.697106 2.416394 -0.000577
-0.683153 2.422355 -0.000243
-0.668238 2.423981 0.000238
-0.650397 2.411655 0.001201
-0.635039 2.410701 0.001756
-0.621217 2.417216 0.002045
-0.605722 2.415390 0.002616
-0.590213 2.413276 0.003191
-0.573649 2.405264 0.003960
-0.558405 2.403969 0.004491
-0.543265 2.403060 0.005003
-0.527973 2.401095 0.005543
-0.511425 2.391383 0.006338
-0.496275 2.389571 0.006859
-0.480771 2.385281 0.007456
-0.465018 2.378963 0.008114
-0.452569 2.394370 0.008046
-0.437516 2.392537 0.008544
-0.420109 2.373510 0.009600
-0.405350 2.372729 0.010049
-0.392543 2.386824 0.010009
-0.378087 2.388630 0.010366
-0.364019 2.393663 0.010613
-0.349438 2.394521 0.010991
-0.332045 2.369930 0.012177
-0.317481 2.369679 0.012577
-0.303709 2.377053 0.012728
-0.290287 2.388598 0.012745
-0.279554 2.430348 0.011806
-0.272207 2.515090 0.009523
-0.261467 2.568229 0.008243
-0.247890 2.591212 0.007908
-0.233264 2.602656 0.007931
-0.217980 2.605901 0.008205
-0.202326 2.603650 0.008642
-0.186260 2.593937 0.009302
-0.170452 2.587075 0.009867
-0.155571 2.597154 0.009906
-0.140422 2.603164 0.010065
-0.125026 2.604269 0.010368
-0.109251 2.595023 0.010976
-0.093670 2.588881 0.011483
-0.078185 2.583888 0.011947
-0.062922 2.586386 0.012178
-0.047737 2.594059 0.012249
-0.032331 2.590036 0.012661
-0.016876 2.575676 0.013372
-0.001567 2.563511 0.014008
0.013602 2.494911 0.016298
0.027478 2.294830 0.022437
0.041435 2.295057 0.022661
0.055268 2.286523 0.023134
0.069117 2.283020 0.023450
0.082945 2.280027 0.023743
0.096893 2.282282 0.023876
0.110347 2.268687 0.024459
0.124652 2.281255 0.024275
0.137880 2.265231 0.024910
0.151964 2.270716 0.024913
0.166292 2.279894 0.024802
0.179985 2.276042 0.025057
0.193790 2.274507 0.025235
0.207537 2.272185 0.025425
0.220884 2.264277 0.025765
0.235056 2.268342 0.025752
0.248010 2.256317 0.026188
0.261134 2.247523 0.026520
0.274083 2.237511 0.026876
0.287973 2.238495 0.026907
0.301507 2.235560 0.027037
0.316239 2.244477 0.026819
0.329703 2.240556 0.026955
0.342196 2.228047 0.027322
0.355885 2.226691 0.027359
0.369488 2.224533 0.027407
0.385336 2.240272 0.026933
0.398435 2.233531 0.027085
0.410679 2.220723 0.027397
0.423366 2.211747 0.027586
0.437220 2.211264 0.027520
0.451649 2.214462 0.027335
0.466294 2.218662 0.027107
0.480699 2.220885 0.026921
0.495323 2.224106 0.026692
0.508689 2.219431 0.026674
0.521617 2.212268 0.026714
0.535032 2.208010 0.026656
0.548275 2.202809 0.026610
0.561837 2.199361 0.026500
0.576281 2.200459 0.026243
0.590337 2.199305 0.026036
0.604418 2.198106 0.025816
0.619088 2.199592 0.025502
0.633411 2.199142 0.025230
0.649184 2.205187 0.024752
0.664273 2.207655 0.024364
0.679646 2.211050 0.023934
0.693742 2.208561 0.023665
0.706794 2.201549 0.023519
0.723014 2.207746 0.022965
0.739140 2.213106 0.022422
0.754962 2.216851 0.021916
0.769445 2.215037 0.021567
0.783391 2.211061 0.021277
0.798452 2.211250 0.020851
0.812075 2.205987 0.020586
0.825853 2.201332 0.020299
0.839992 2.197996 0.019968
0.856670 2.203507 0.019359
0.870735 2.199788 0.019039
0.885220 2.197531 0.018676
0.900837 2.199034 0.018199
0.915218 2.196437 0.017859
0.929663 2.194117 0.017521
0.945992 2.197809 0.017002
0.962308 2.201379 0.016502
0.976776 2.199276 0.016204
0.990356 2.194674 0.016010
1.003390 2.188722 0.015886
1.019231 2.191266 0.015514
1.029404 2.177676 0.015704
1.044141 2.177581 0.015487
1.060720 2.182861 0.015131
1.077723 2.189436 0.014774
1.090246 2.183996 0.014859
1.101079 2.174514 0.015127
1.117549 2.180510 0.014933
1.130509 2.177588 0.015088
1.141809 2.170866 0.015424
1.154922 2.169342 0.015645
1.171416 2.176792 0.015629
1.189762 2.189132 0.015514
1.192651 2.163680 0.016699
-2.452730 2.612015 -0.130826
-2.377164 2.562572 -0.126032
-2.381643 2.596570 -0.127721
-2.352879 2.584769 -0.126023
-2.337392 2.591860 -0.125585
-2.313307 2.587058 -0.124211
-2.287848 2.580436 -0.122627
-2.267127 2.580817 -0.121459
-2.255930 2.595401 -0.121207
-2.238229 2.600791 -0.120234
-2.205127 2.583376 -0.117615
-2.184192 2.584143 -0.116199
-2.162445 2.583786 -0.114651
-2.138706 2.580423 -0.112851
-2.117512 2.581001 -0.111275
-2.101580 2.589894 -0.110216
-2.084370 2.596934 -0.108993
-2.058666 2.590446 -0.106848
-2.034505 2.586275 -0.104839
-2.010269 2.581818 -0.102799
-1.989074 2.582217 -0.101063
-1.954238 2.559646 -0.097860
-1.938097 2.568134 -0.096635
-1.920388 2.573978 -0.095236
-1.897146 2.570207 -0.093239
-1.878222 2.573743 -0.091701
-1.869020 2.594391 -0.091212
-1.928882 2.738976 -0.098195
-1.929353 2.779073 -0.098789
-1.926872 2.814452 -0.099080
-1.913453 2.830147 -0.098197
-1.882002 2.812180 -0.095356
-1.862331 2.857129 -0.094435
-1.842011 2.859677 -0.092846
-1.804821 2.913878 -0.090806
-1.742708 2.874084 -0.085361
-1.720972 2.872479 -0.083697
-1.699722 2.871604 -0.082102
-1.679443 2.872521 -0.080631
-1.658755 2.872320 -0.079128
-1.638581 2.872988 -0.077700
-1.616960 2.870217 -0.076119
-1.592524 2.860816 -0.074225
-1.573521 2.863265 -0.072974
-1.555669 2.868183 -0.071872
-1.536172 2.869155 -0.070595
-1.513994 2.863594 -0.069014
-1.488209 2.849029 -0.067015
-1.463062 2.835398 -0.065096
-1.442146 2.831558 -0.063693
-1.424572 2.835705 -0.062705
-1.411027 2.849895 -0.062225
-1.389989 2.845118 -0.060845
-1.366851 2.834559 -0.059215
-1.346526 2.830878 -0.057940
-1.327146 2.829407 -0.056792
-1.309699 2.832909 -0.055900
-1.293896 2.840814 -0.055231
-1.273500 2.835989 -0.053987
-1.254800 2.835606 -0.052971
-1.234311 2.829906 -0.051730
-1.211441 2.816927 -0.050179
-1.190478 2.808993 -0.048881
-1.170810 2.804509 -0.047760
-1.152016 2.802364 -0.046762
-1.136195 2.809154 -0.046180
-1.116819 2.804833 -0.045119
-1.096505 2.797211 -0.043930
-1.050414 2.705663 -0.039086
-0.960217 2.465666 -0.027835
-0.944324 2.466251 -0.027129
-0.926356 2.459645 -0.026124
-0.908753 2.453924 -0.025173
-0.891498 2.449089 -0.024275
-0.875262 2.447594 -0.023531
-0.858306 2.443272 -0.022680
-0.840986 2.437296 -0.021772
-0.826280 2.440869 -0.021276
-0.810579 2.440598 -0.020629
-0.794531 2.438812 -0.019930
-0.778030 2.435004 -0.019157
-0.761698 2.431605 -0.018412
-0.748476 2.440926 -0.018197
-0.731842 2.435951 -0.017406
-0.713376 2.422657 -0.016289
-0.696239 2.414576 -0.015396
-0.681799 2.418265 -0.014985
-0.667176 2.421142 -0.014549
-0.648177 2.403216 -0.013292
-0.635014 2.412719 -0.013135
-0.620807 2.417348 -0.012789
-0.606299 2.420539 -0.012394
-0.590926 2.419236 -0.011828
-0.575882 2.419505 -0.011331
-0.558166 2.404943 -0.010265
-0.541776 2.396966 -0.009465
-0.525014 2.386254 -0.008569
-0.510886 2.390547 -0.008257
-0.496287 2.392068 -0.007845
-0.480245 2.384403 -0.007088
-0.465379 2.383817 -0.006608
-0.451566 2.390162 -0.006396
-0.435766 2.382951 -0.005678
-0.419719 2.373338 -0.004878
-0.405027 2.373010 -0.004433
-0.391919 2.384758 -0.004443
-0.379139 2.399874 -0.004580
-0.364239 2.398385 -0.004105
-0.347558 2.381194 -0.003060
-0.333191 2.383293 -0.002731
-0.317536 2.373298 -0.001965
-0.303615 2.379329 -0.001791
-0.290351 2.392583 -0.001883
-0.283330 2.474847 -0.004472
-0.273212 2.530290 -0.006080
-0.259454 2.547799 -0.006319
-0.247914 2.595631 -0.007645
-0.233073 2.604365 -0.007571
-0.218141 2.612778 -0.007490
-0.202393 2.609492 -0.006999
-0.186254 2.598906 -0.006258
-0.170613 2.595413 -0.005775
-0.155321 2.597996 -0.005512
-0.140321 2.607286 -0.005491
-0.124920 2.608645 -0.005198
-0.109223 2.601942 -0.004631
-0.093429 2.589993 -0.003890
-0.078013 2.587600 -0.003489
-0.062879 2.596413 -0.003484
-0.047559 2.598965 -0.003268
-0.032089 2.591641 -0.002721
-0.016617 2.575659 -0.001885
-0.001303 2.561453 -0.001122
0.013839 2.471704 0.002207
0.027679 2.289166 0.008670
0.041577 2.286120 0.009005
0.055462 2.284273 0.009290
0.069279 2.279745 0.009658
0.082970 2.271623 0.010138
0.096375 2.255934 0.010863
0.109514 2.236472 0.011705
0.124726 2.277324 0.010512
0.138235 2.268463 0.010979
0.151724 2.260848 0.011394
0.166072 2.271282 0.011197
0.179724 2.267407 0.011468
0.193493 2.265928 0.011648
0.207092 2.261919 0.011903
0.221318 2.267314 0.011834
0.235187 2.267091 0.011942
0.249236 2.269032 0.011967
0.260274 2.234513 0.013188
0.274187 2.236110 0.013201
0.287970 2.235993 0.013259
0.301868 2.236889 0.013272
0.315095 2.230960 0.013499
0.329464 2.236077 0.013348
0.343064 2.233691 0.013432
0.356983 2.234054 0.013413
0.371284 2.237366 0.013283
0.385939 2.243064 0.013062
0.398446 2.231645 0.013392
0.410303 2.216003 0.013850
0.422986 2.207130 0.014070
0.436867 2.206952 0.013987
0.452193 2.216273 0.013576
0.467037 2.221673 0.013279
0.481336 2.223106 0.013100
0.495889 2.225789 0.012863
0.509976 2.225327 0.012717
0.523711 2.222638 0.012629
0.536304 2.213439 0.012745
0.550649 2.214106 0.012516
0.564018 2.209309 0.012455
0.577210 2.203604 0.012410
0.590806 2.200005 0.012279
0.604431 2.196506 0.012130
0.619898 2.201852 0.011666
0.636096 2.210185 0.011084
0.648149 2.198777 0.011161
0.660261 2.187926 0.011207
0.680255 2.212134 0.010033
0.693187 2.204578 0.009938
0.709089 2.209689 0.009392
0.724532 2.212488 0.008913
0.741442 2.220922 0.008224
0.755782 2.218611 0.007898
0.768419 2.209569 0.007800
0.782837 2.207511 0.007449
0.797421 2.205992 0.007072
0.811711 2.203294 0.006730
0.824661 2.195725 0.006559
0.843048 2.207575 0.005689
0.856411 2.201406 0.005464
0.870822 2.198950 0.005108
0.883988 2.192324 0.004908
0.899732 2.194389 0.004397
0.916396 2.199352 0.003787
0.930394 2.195626 0.003507
0.946356 2.198218 0.003009
0.961799 2.199171 0.002588
0.978134 2.202884 0.002083
0.990761 2.195475 0.002018
1.007769 2.201358 0.001483
1.022443 2.200443 0.001233
1.032698 2.187087 0.001486
1.043794 2.176712 0.001666
1.059704 2.180290 0.001361
1.076286 2.185896 0.001023
1.089806 2.183367 0.001040
1.104860 2.185345 0.000936
1.115325 2.175516 0.001332
1.116705 2.142639 0.002655
1.140298 2.168178 0.001825
1.153045 2.165929 0.002104
1.167193 2.167701 0.002292
1.186056 2.181615 0.002086
1.217250 2.226012 0.000807
-2.441383 2.599563 -0.147716
-2.416226 2.591904 -0.146582
-2.390079 2.583089 -0.145261
-2.368598 2.580951 -0.144360
-2.352932 2.587261 -0.144014
-2.338564 2.595811 -0.143742
-2.313078 2.588884 -0.142192
-2.288194 2.582957 -0.140635
-2.265115 2.579783 -0.139207
-2.253756 2.593986 -0.139010
-2.236280 2.599566 -0.138083
-2.216068 2.601313 -0.136796
-2.184514 2.586072 -0.134188
-2.164829 2.588769 -0.132855
-2.143007 2.588304 -0.131236
-2.121388 2.588202 -0.129597
-2.102422 2.592303 -0.128221
-2.078358 2.588383 -0.126232
-2.053623 2.583285 -0.124134
-2.029115 2.578404 -0.122033
-2.008036 2.578983 -0.120301
-1.983895 2.574408 -0.118196
-1.962306 2.573910 -0.116368
-1.944989 2.580521 -0.115020
-1.923697 2.580325 -0.113204
-1.899569 2.575058 -0.111049
-1.879348 2.576352 -0.109343
-1.884514 2.622458 -0.110609
-1.922328 2.727882 -0.115729
-1.932097 2.784689 -0.117588
-1.930084 2.820987 -0.118079
-1.914169 2.832130 -0.116942
-1.896458 2.839928 -0.115601
-1.875266 2.841065 -0.113855
-1.855289 2.844310 -0.112265
-1.835904 2.848531 -0.110756
-1.758316 2.821190 -0.103943
-1.751845 2.893696 -0.104994
-1.716928 2.864887 -0.101661
-1.699671 2.872353 -0.100514
-1.680936 2.876590 -0.099200
-1.660895 2.877855 -0.097740
-1.639434 2.875794 -0.096116
-1.615953 2.868955 -0.094248
-1.594372 2.865954 -0.092632
-1.572921 2.862929 -0.091045
-1.553640 2.864575 -0.089748
-1.531943 2.860395 -0.088154
-1.510597 2.856695 -0.086615
-1.489659 2.853641 -0.085141
-1.465233 2.841830 -0.083218
-1.446535 2.843532 -0.082058
-1.429348 2.848817 -0.081115
-1.408263 2.844200 -0.079664
-1.390311 2.847242 -0.078645
-1.369361 2.842388 -0.077231
-1.350106 2.841639 -0.076058
-1.325805 2.827221 -0.074194
-1.305627 2.823327 -0.072907
-1.286202 2.821185 -0.071733
-1.271291 2.831328 -0.071210
-1.252309 2.830094 -0.070121
-1.227869 2.813005 -0.068249
-1.214310 2.826828 -0.067964
-1.191216 2.812763 -0.066291
-1.171939 2.809510 -0.065183
-1.152837 2.806510 -0.064106
-1.134246 2.804815 -0.063112
-1.115831 2.803441 -0.062152
-1.088504 2.773431 -0.059810
-1.056868 2.728298 -0.056763
-0.958702 2.462298 -0.043073
-0.941143 2.457244 -0.042079
-0.924511 2.455031 -0.041236
-0.908305 2.454066 -0.040466
-0.892960 2.455961 -0.039845
-0.876203 2.452714 -0.038991
-0.858208 2.444678 -0.037926
-0.838746 2.430747 -0.036599
-0.824252 2.434995 -0.036136
-0.810013 2.440252 -0.035729
-0.792334 2.432025 -0.034707
-0.774934 2.424464 -0.033729
-0.760836 2.429991 -0.033362
-0.747382 2.438298 -0.033130
-0.733067 2.443146 -0.032747
-0.714468 2.429404 -0.031531
-0.698515 2.426714 -0.030826
-0.682557 2.423752 -0.030118
-0.662769 2.402715 -0.028613
-0.648718 2.407877 -0.028288
-0.634158 2.410673 -0.027865
-0.619360 2.412289 -0.027397
-0.603763 2.409775 -0.026753
-0.589995 2.416582 -0.026526
-0.574904 2.416504 -0.026004
-0.557849 2.405468 -0.025012
-0.541785 2.399316 -0.024242
-0.525643 2.392241 -0.023441
-0.511050 2.393901 -0.023024
-0.496585 2.396318 -0.022646
-0.480964 2.391412 -0.021961
-0.465177 2.384986 -0.021219
-0.450327 2.384343 -0.020730
-0.435601 2.384383 -0.020276
-0.420116 2.378828 -0.019593
-0.405298 2.377717 -0.019104
-0.391529 2.384498 -0.018951
-0.378361 2.396468 -0.019019
-0.362256 2.384753 -0.018104
-0.346993 2.379247 -0.017457
-0.331762 2.373415 -0.016803
-0.317426 2.375375 -0.016477
-0.303535 2.381759 -0.016338
-0.290573 2.398220 -0.016615
-0.283362 2.478749 -0.019506
-0.270994 2.508621 -0.020324
-0.261443 2.575795 -0.022654
-0.247520 2.594720 -0.023023
-0.233149 2.609757 -0.023238
-0.217900 2.613868 -0.023016
-0.202189 2.611156 -0.022528
-0.186279 2.604481 -0.021888
-0.170406 2.597123 -0.021229
-0.155087 2.599251 -0.020955
-0.139823 2.602799 -0.020745
-0.124587 2.607601 -0.020590
-0.109010 2.603962 -0.020109
-0.093402 2.598034 -0.019546
-0.077869 2.592527 -0.019008
-0.062566 2.594729 -0.018781
-0.047181 2.593075 -0.018410
-0.031751 2.586483 -0.017856
-0.016384 2.579491 -0.017295
-0.001101 2.576113 -0.016883
0.027965 2.298691 -0.005633
0.041792 2.284067 -0.004837
0.055645 2.280780 -0.004487
0.069406 2.274209 -0.004020
0.082985 2.262483 -0.003365
0.096399 2.248686 -0.002640
0.110857 2.270552 -0.003290
0.125281 2.286029 -0.003702
0.139271 2.287708 -0.003595
0.152790 2.278836 -0.003098
0.166107 2.267488 -0.002517
0.179654 2.262036 -0.002170
0.193874 2.268419 -0.002283
0.207269 2.261080 -0.001887
0.220835 2.257041 -0.001626
0.235186 2.263921 -0.001790
0.247996 2.250308 -0.001191
0.260995 2.240314 -0.000740
0.274272 2.234360 -0.000454
0.288856 2.242926 -0.000727
0.302675 2.242662 -0.000680
0.314801 2.225653 -0.000014
0.329232 2.231553 -0.000223
0.343847 2.238426 -0.000483
0.357756 2.238482 -0.000498
0.372565 2.245786 -0.000801
0.386566 2.245917 -0.000846
0.399176 2.235159 -0.000495
0.411375 2.221905 -0.000063
0.423595 2.209490 0.000323
0.436920 2.205343 0.000383
0.451863 2.212104 0.000017
0.466793 2.218155 -0.000339
0.480837 2.218042 -0.000476
0.495373 2.220733 -0.000735
0.510130 2.224361 -0.001045
0.523651 2.220429 -0.001083
0.538063 2.221495 -0.001327
0.551894 2.219100 -0.001454
0.565766 2.216825 -0.001601
0.579205 2.212188 -0.001673
0.592383 2.206231 -0.001709
0.606492 2.204945 -0.001939
0.621771 2.209151 -0.002398
0.636162 2.208749 -0.002693
0.649657 2.204011 -0.002835
0.663847 2.202403 -0.003112
0.679344 2.206414 -0.003624
0.694349 2.207920 -0.004051
0.710388 2.213523 -0.004654
0.726631 2.219540 -0.005287
0.741520 2.219624 -0.005699
0.754806 2.213150 -0.005859
0.768232 2.207297 -0.006053
0.782889 2.206205 -0.006445
0.799551 2.212504 -0.007142
0.812483 2.204712 -0.007276
0.826252 2.200096 -0.007541
0.842592 2.204642 -0.008181
0.860198 2.213328 -0.008991
0.871662 2.200632 -0.008925
0.885329 2.195715 -0.009172
0.901433 2.198972 -0.009747
0.916538 2.198858 -0.010175
0.929732 2.192651 -0.010337
0.944430 2.191406 -0.010688
0.962300 2.200062 -0.011436
0.974195 2.190352 -0.011392
0.989902 2.192477 -0.011819
1.009672 2.206677 -0.012727
1.023756 2.204098 -0.012895
1.033234 2.188598 -0.012479
1.040962 2.168833 -0.011839
1.063264 2.190476 -0.012916
1.076565 2.187092 -0.012884
1.091536 2.188643 -0.013012
1.107077 2.192024 -0.013166
1.117544 2.182291 -0.012706
1.128018 2.173211 -0.012218
1.140257 2.169315 -0.011892
1.153990 2.169743 -0.011689
1.168350 2.172186 -0.011510
1.179939 2.168142 -0.010993
1.199888 2.185230 -0.011304
-2.393134 2.511470 -0.158544
-2.422954 2.577496 -0.163629
-2.391799 2.588197 -0.163394
-2.376871 2.595080 -0.163249
-2.354855 2.592422 -0.162216
-2.342854 2.604224 -0.162274
-2.315686 2.594804 -0.160497
-2.284015 2.578975 -0.158115
-2.262808 2.578342 -0.156888
-2.248399 2.587910 -0.156402
-2.226160 2.586225 -0.154929
-2.204669 2.585797 -0.153485
-2.181886 2.583546 -0.151831
-2.162401 2.586407 -0.150522
-2.143854 2.590862 -0.149279
-2.124035 2.593488 -0.147841
-2.099540 2.588839 -0.145794
-2.073468 2.581601 -0.143514
-2.047613 2.574547 -0.141225
-2.026975 2.575788 -0.139545
-2.004618 2.574176 -0.137629
-1.984183 2.575640 -0.135927
-1.964701 2.578638 -0.134327
-1.944529 2.580414 -0.132627
-1.924045 2.581565 -0.130876
-1.894783 2.567381 -0.128013
-1.875525 2.570250 -0.126398
-1.879636 2.614404 -0.127735
-1.923664 2.730869 -0.134160
-1.940070 2.799730 -0.137124
-1.930461 2.822278 -0.136798
-1.915867 2.835880 -0.135847
-1.902985 2.852770 -0.135129
-1.881217 2.852964 -0.133276
-1.853050 2.840645 -0.130600
-1.834228 2.845920 -0.129144
-1.796909 2.942938 -0.128489
-1.739803 2.869657 -0.122020
-1.715408 2.862490 -0.119901
-1.698776 2.871261 -0.118835
-1.680629 2.876758 -0.117582
-1.661621 2.880275 -0.116230
-1.639485 2.876784 -0.114464
-1.615793 2.869507 -0.112495
-1.593843 2.865706 -0.110776
-1.573249 2.864640 -0.109255
-1.550616 2.858616 -0.107461
-1.527374 2.850774 -0.105589
-1.508441 2.852666 -0.104336
-1.489696 2.854821 -0.103123
-1.469501 2.853288 -0.101716
-1.448829 2.850316 -0.100251
-1.427237 2.844750 -0.098661
-1.407217 2.842774 -0.097308
-1.386307 2.838253 -0.095834
-1.371062 2.848074 -0.095214
-1.347534 2.836190 -0.093365
-1.324869 2.826063 -0.091646
-1.301938 2.814724 -0.089887
-1.283686 2.815683 -0.088851
-1.264307 2.813338 -0.087650
-1.244943 2.810771 -0.086457
-1.226209 2.809738 -0.085372
-1.207451 2.808416 -0.084290
-1.190603 2.812501 -0.083525
-1.173185 2.814821 -0.082680
-1.153283 2.809473 -0.081434
-1.132797 2.801970 -0.080092
-1.113689 2.798379 -0.078982
-1.090074 2.780118 -0.077102
-1.053998 2.720679 -0.073049
-0.958275 2.462473 -0.058474
-0.941583 2.460327 -0.057588
-0.922536 2.449932 -0.056283
-0.907209 2.451926 -0.055646
-0.892415 2.455727 -0.055114
-0.874960 2.449960 -0.054096
-0.857077 2.442276 -0.052992
-0.838754 2.432532 -0.051798
-0.822521 2.430208 -0.051000
-0.807878 2.433808 -0.050517
-0.793156 2.437098 -0.050027
-0.775380 2.428109 -0.048923
-0.760280 2.429595 -0.048362
-0.745695 2.433162 -0.047916
-0.729525 2.429975 -0.047138
-0.713707 2.428056 -0.046435
-0.698770 2.429843 -0.045926
-0.683110 2.428292 -0.045259
-0.664108 2.410982 -0.043824
-0.648813 2.410396 -0.043226
-0.634234 2.413145 -0.042800
-0.613639 2.385877 -0.040914
-0.600585 2.395693 -0.040851
-0.586062 2.398173 -0.040436
-0.570550 2.395338 -0.039771
-0.555268 2.393493 -0.039162
-0.540504 2.394353 -0.038690
-0.526834 2.401497 -0.038526
-0.512251 2.403458 -0.038119
-0.497746 2.405879 -0.037741
-0.481944 2.400081 -0.036978
-0.465613 2.390324 -0.036038
-0.450396 2.387339 -0.035425
-0.436007 2.389797 -0.035075
-0.421077 2.388387 -0.034550
-0.404941 2.377735 -0.033600
-0.390339 2.378043 -0.033169
-0.376133 2.381406 -0.032886
-0.360789 2.375401 -0.032175
-0.346040 2.373936 -0.031681
-0.333361 2.390920 -0.032041
-0.318184 2.385666 -0.031384
-0.303661 2.386236 -0.031001
-0.290009 2.395734 -0.031030
-0.279707 2.442521 -0.032756
-0.270638 2.508284 -0.035335
-0.260824 2.572273 -0.037825
-0.247265 2.595631 -0.038476
-0.232445 2.604561 -0.038480
-0.217404 2.611281 -0.038389
-0.201966 2.612592 -0.038062
-0.186055 2.605923 -0.037386
-0.170232 2.599524 -0.036731
-0.154603 2.595617 -0.036195
-0.139228 2.596274 -0.035869
