ply
format ascii 1.0
comment ---
element vertex 1649
property float x
property float y
property float z
element face 0
property list uchar uint vertex_indices
end_header
-1.972032 2.562966 -0.646228
-1.959453 2.564180 -0.644527
-1.946560 2.562580 -0.642210
-1.933055 2.555001 -0.638613
-1.919656 2.547645 -0.635060
-1.907038 2.547431 -0.633003
-1.894651 2.549554 -0.631421
-1.882021 2.549037 -0.629268
-1.869674 2.551722 -0.627765
-1.856910 2.549357 -0.625195
-1.845017 2.558268 -0.624939
-1.834754 2.786783 -0.667519
-1.826421 2.874472 -0.683084
-1.769749 2.862608 -0.670867
-1.740953 2.836942 -0.660736
-1.727163 2.839385 -0.658703
-1.713844 2.862981 -0.660825
-1.700228 2.882504 -0.662086
-1.686155 2.882314 -0.659435
-1.671969 2.869875 -0.654377
-1.657923 2.863175 -0.650436
-1.643939 2.860193 -0.647208
-1.629936 2.866762 -0.645804
-1.615870 2.873366 -0.644379
-1.601807 2.875286 -0.642035
-1.587918 2.866803 -0.637702
-1.574481 2.842316 -0.630352
-1.560778 2.835473 -0.626348
-1.546884 2.836456 -0.623808
-1.532692 2.845225 -0.622707
-1.519294 2.833186 -0.617735
-1.504954 2.843844 -0.616959
-1.490544 2.854050 -0.616079
-1.477005 2.847116 -0.612058
-1.463384 2.842747 -0.608519
-1.449956 2.836250 -0.604612
-1.436512 2.831052 -0.600959
-1.422878 2.829279 -0.597942
-1.409368 2.826429 -0.594754
-1.395820 2.824641 -0.591779
-1.381818 2.828485 -0.589825
-1.368445 2.825548 -0.586705
-1.354335 2.830824 -0.585056
-1.343475 2.804213 -0.577910
-1.329449 2.809997 -0.576438
-1.317144 2.800295 -0.572347
-1.305435 2.786698 -0.567658
-1.292205 2.787280 -0.565458
-1.277511 2.800104 -0.565390
-1.263127 2.810211 -0.564911
-1.249916 2.811466 -0.563003
-1.237955 2.804197 -0.559743
-1.225186 2.803689 -0.557696
-1.211266 2.811700 -0.557146
-1.196911 2.822811 -0.557183
-1.184016 2.824601 -0.555763
-1.178177 2.782755 -0.547273
-1.161892 2.807576 -0.549825
-1.150466 2.802928 -0.547643
-1.139445 2.796864 -0.545333
-1.129180 2.787507 -0.542592
-1.117118 2.789268 -0.541758
-1.101300 2.812087 -0.544422
-1.088581 2.818173 -0.544475
-1.081980 2.792829 -0.539568
-1.070820 2.792497 -0.538792
-1.056121 2.810620 -0.541073
-1.038458 2.843357 -0.545788
-1.025828 2.851272 -0.546614
-1.016623 2.843325 -0.544996
-1.006797 2.839214 -0.544087
-3.598121 1.848453 -0.659067
-3.570297 1.833789 -0.652359
-3.574014 1.851541 -0.655319
-3.575625 1.867482 -0.657769
-3.573926 1.880318 -0.659340
-3.577242 1.898744 -0.662584
-3.575251 1.911935 -0.664335
-3.569907 1.921859 -0.665184
-3.567433 1.935141 -0.667056
-3.563806 1.947490 -0.668706
-3.546017 1.944640 -0.666043
-3.546758 1.962289 -0.669326
-3.564309 1.999019 -0.678101
-3.553885 2.005070 -0.678157
-3.561682 2.031911 -0.684179
-3.558408 2.046655 -0.686808
-3.545296 2.050400 -0.686380
-3.540422 2.063828 -0.688745
-3.546501 2.090363 -0.694848
-3.545768 2.109361 -0.698869
-3.537002 2.119154 -0.700352
-3.521408 2.120929 -0.699643
-3.531290 2.153662 -0.707630
-3.528684 2.171699 -0.711544
-3.532644 2.198174 -0.717840
-3.519848 2.204206 -0.718483
-3.513798 2.218811 -0.721542
-3.519664 2.248803 -0.728892
-3.525376 2.279112 -0.736343
-3.514880 2.288919 -0.738144
-3.525328 2.326258 -0.747561
-3.522681 2.346923 -0.752387
-3.524127 2.373356 -0.758809
-3.503518 2.370461 -0.757177
-3.495162 2.384074 -0.760095
-3.492719 2.405967 -0.765289
-3.493195 2.432219 -0.771673
-3.482759 2.443545 -0.773969
-3.272888 2.268457 -0.722384
-3.240753 2.245440 -0.715388
-3.220201 2.239246 -0.712966
-3.200377 2.283965 -0.722796
-3.163717 2.303032 -0.725546
-3.170239 2.366366 -0.740904
-3.159363 2.375366 -0.742449
-3.146950 2.381814 -0.743290
-3.133292 2.386122 -0.743540
-3.125666 2.400684 -0.746515
-3.114426 2.409136 -0.747833
-3.160130 2.517297 -0.775707
-3.156590 2.663152 -0.809096
-3.160352 2.702162 -0.818257
-3.146394 2.708330 -0.818707
-3.126224 2.702559 -0.815994
-3.110729 2.705534 -0.815569
-3.093508 2.705018 -0.814210
-3.066026 2.683958 -0.807453
-3.054339 2.693928 -0.808817
-3.045374 2.709494 -0.811619
-3.030111 2.712315 -0.811070
-3.004987 2.694519 -0.805139
-2.990396 2.698298 -0.804815
-2.976726 2.703968 -0.804965
-2.962810 2.709082 -0.804952
-2.957721 2.733443 -0.809893
-2.931176 2.710782 -0.802672
-2.914506 2.709508 -0.800965
-2.894511 2.700495 -0.797258
-2.864610 2.668322 -0.787609
-2.852949 2.677618 -0.788593
-2.842235 2.689236 -0.790149
-2.824882 2.685137 -0.787676
-2.808865 2.684009 -0.785951
-2.794522 2.686806 -0.785213
-2.780354 2.689960 -0.784551
-2.764099 2.687785 -0.782529
-2.746099 2.680935 -0.779318
-2.719616 2.651747 -0.770479
-2.708184 2.661159 -0.771360
-2.694252 2.664023 -0.770580
-2.676640 2.656863 -0.767278
-2.657330 2.644689 -0.762724
-2.643576 2.647481 -0.761901
-2.630466 2.652034 -0.761503
-2.615210 2.650419 -0.759562
-2.598078 2.643142 -0.756211
-2.583607 2.643371 -0.754714
-2.567250 2.637794 -0.751777
-2.559102 2.656955 -0.754917
-2.542059 2.648997 -0.751377
-2.524979 2.640518 -0.747710
-2.508044 2.632082 -0.744055
-2.492836 2.628847 -0.741667
-2.478545 2.628397 -0.739951
-2.463952 2.626773 -0.737942
-2.448655 2.622533 -0.735294
-2.432751 2.615885 -0.732063
-2.416680 2.608259 -0.728595
-2.403140 2.609372 -0.727224
-2.392967 2.622792 -0.728789
-2.380068 2.626338 -0.727973
-2.363707 2.616637 -0.723988
-2.349422 2.614512 -0.721806
-2.337479 2.621478 -0.721771
-2.323845 2.621717 -0.720130
-2.309048 2.617011 -0.717313
-2.294846 2.614477 -0.715004
-2.280092 2.609312 -0.712072
-2.265447 2.604264 -0.709164
-2.250902 2.599298 -0.706272
-2.238024 2.601652 -0.705079
-2.224595 2.601371 -0.703262
-2.210534 2.597890 -0.700696
-2.194515 2.584415 -0.695819
-2.180823 2.581928 -0.693475
-2.167795 2.582617 -0.691853
-2.156688 2.593432 -0.692535
-2.141706 2.583493 -0.688460
-2.127348 2.576383 -0.685029
-2.114366 2.576669 -0.683273
-2.101289 2.576272 -0.681351
-2.087867 2.573611 -0.678907
-2.074786 2.572788 -0.676868
-2.061623 2.571242 -0.674656
-2.049011 2.573153 -0.673205
-2.035151 2.566424 -0.669815
-2.021084 2.557617 -0.665961
-2.008877 2.561813 -0.664981
-1.995506 2.557265 -0.662055
-1.982611 2.556023 -0.659847
-1.970533 2.561294 -0.659053
-1.958776 2.569627 -0.658904
-1.945343 2.563517 -0.655588
-1.931328 2.551296 -0.650940
-1.918573 2.550157 -0.648689
-1.906077 2.551434 -0.646945
-1.893491 2.551742 -0.644974
-1.881139 2.554634 -0.643540
-1.868271 2.551545 -0.640810
-1.855316 2.546868 -0.637732
-1.842734 2.546535 -0.635562
-1.836926 2.844401 -0.693812
-1.752536 2.820114 -0.674200
-1.725449 2.838275 -0.672893
-1.711987 2.856520 -0.674042
-1.698558 2.886054 -0.677413
-1.684516 2.890429 -0.675667
-1.670191 2.867305 -0.668401
-1.656135 2.857584 -0.663821
-1.642161 2.858229 -0.661293
-1.628125 2.869207 -0.660783
-1.614039 2.874695 -0.659159
-1.600155 2.862572 -0.654070
-1.586544 2.842147 -0.647374
-1.572781 2.835892 -0.643443
-1.558811 2.838894 -0.641294
-1.545250 2.828753 -0.636610
-1.530910 2.841615 -0.636322
-1.516940 2.843029 -0.633830
-1.503865 2.825271 -0.627709
-1.489637 2.832984 -0.626405
-1.475816 2.832339 -0.623522
-1.461666 2.837273 -0.621681
-1.447803 2.837329 -0.618932
-1.434294 2.832526 -0.615296
-1.420506 2.832244 -0.612509
-1.406853 2.830530 -0.609476
-1.393684 2.823533 -0.605505
-1.379951 2.823898 -0.602900
-1.365128 2.836159 -0.602457
-1.352353 2.826800 -0.598159
-1.340065 2.813934 -0.593288
-1.327473 2.805398 -0.589246
-1.311935 2.824265 -0.590092
-1.301732 2.796399 -0.582759
-1.288049 2.799829 -0.580990
-1.274207 2.804787 -0.579539
-1.260539 2.808626 -0.577950
-1.247371 2.809060 -0.575836
-1.236082 2.796548 -0.571573
-1.223253 2.796152 -0.569475
-1.208812 2.807333 -0.569428
-1.194206 2.819605 -0.569635
-1.181722 2.818310 -0.567623
-1.171814 2.801739 -0.563130
-1.161640 2.788325 -0.559280
-1.147364 2.800545 -0.559828
-1.136855 2.791138 -0.556852
-1.126123 2.784135 -0.554384
-1.112430 2.794496 -0.554903
-1.099800 2.799386 -0.554609
-1.088912 2.795581 -0.552974
-1.076464 2.800717 -0.552917
-1.064737 2.802706 -0.552439
-1.054820 2.796302 -0.550679
-1.040320 2.813237 -0.552854
-1.024969 2.834332 -0.555802
-1.013629 2.836449 -0.555728
-1.004822 2.827422 -0.553924
-3.584613 1.830374 -0.665451
-3.583149 1.842654 -0.666839
-3.575405 1.848775 -0.666407
-3.559984 1.847160 -0.663703
-3.573351 1.875675 -0.670079
-3.581565 1.899319 -0.675010
-3.580891 1.914027 -0.677308
-3.571454 1.919728 -0.676982
-3.559637 1.923072 -0.676022
-3.559653 1.939403 -0.678947
-3.563285 1.960052 -0.683181
-3.567032 1.981261 -0.687617
-3.555913 1.986402 -0.687406
-3.560887 2.009739 -0.692550
-3.560487 2.027480 -0.696108
-3.560410 2.045963 -0.699927
-3.546398 2.048818 -0.699278
-3.537132 2.057276 -0.700307
-3.549040 2.090688 -0.708563
-3.544489 2.105311 -0.711453
-3.528691 2.106830 -0.710637
-3.518394 2.114997 -0.711776
-3.538592 2.160290 -0.723552
-3.527171 2.167718 -0.724553
-3.525449 2.187243 -0.729036
-3.517989 2.199948 -0.731611
-3.508126 2.209823 -0.733414
-3.525950 2.255022 -0.745245
-3.527635 2.280314 -0.751450
-3.528754 2.305285 -0.757576
-3.505342 2.298558 -0.754778
-3.508736 2.327019 -0.761915
-3.502048 2.342481 -0.765400
-3.496085 2.359109 -0.769220
-3.496084 2.384060 -0.775379
-3.493808 2.406250 -0.780760
-3.486484 2.421737 -0.784262
-3.292393 2.271553 -0.738357
-3.270714 2.264454 -0.735608
-3.230590 2.229535 -0.725136
-3.210500 2.223919 -0.722806
-3.200801 2.233847 -0.724777
-3.197831 2.254177 -0.729611
-3.201634 2.285305 -0.737405
-3.189907 2.292517 -0.738570
-3.180968 2.304142 -0.740936
-3.128627 2.433373 -0.768995
-3.125801 2.575144 -0.802189
-3.149251 2.649368 -0.821107
-3.153467 2.689103 -0.830644
-3.141975 2.699826 -0.832317
-3.125937 2.701909 -0.831643
-3.109646 2.703372 -0.830786
-3.096373 2.710607 -0.831459
-3.078840 2.709386 -0.829849
-3.059752 2.704840 -0.827337
-3.042570 2.703882 -0.825772
-3.028324 2.708766 -0.825749
-3.008464 2.701918 -0.822591
-2.988220 2.693924 -0.819121
-2.975877 2.702408 -0.820009
-2.965117 2.714356 -0.821791
-2.940227 2.695558 -0.815439
-2.923044 2.693177 -0.813415
-2.900449 2.678446 -0.808135
-2.877604 2.662611 -0.802569
-2.862773 2.664628 -0.801681
-2.851939 2.675850 -0.803184
-2.839876 2.684309 -0.803944
-2.819581 2.673159 -0.799582
-2.802849 2.670188 -0.797344
-2.789923 2.676325 -0.797460
-2.780418 2.690992 -0.799765
-2.763557 2.687351 -0.797319
-2.738916 2.663558 -0.789676
-2.721618 2.657990 -0.786733
-2.709525 2.665807 -0.787220
-2.695305 2.668022 -0.786255
-2.673768 2.650349 -0.780199
-2.657444 2.646328 -0.777632
-2.642765 2.646625 -0.776160
-2.630177 2.652698 -0.776143
-2.615267 2.652146 -0.774434
-2.602529 2.657759 -0.774274
-2.584988 2.649184 -0.770523
-2.571293 2.651757 -0.769577
-2.557066 2.652644 -0.768197
-2.543494 2.655449 -0.767287
-2.524783 2.641986 -0.762303
-2.507339 2.631998 -0.758192
-2.490953 2.624981 -0.754823
-2.479119 2.632678 -0.755104
-2.463948 2.629242 -0.752613
-2.447843 2.622334 -0.749261
-2.432000 2.615954 -0.746039
-2.416858 2.611699 -0.743339
-2.403676 2.614239 -0.742300
-2.393009 2.626011 -0.743506
-2.379096 2.625883 -0.741789
-2.361819 2.612725 -0.736896
-2.347160 2.609132 -0.734330
-2.335280 2.616323 -0.734368
-2.321677 2.616662 -0.732737
-2.307728 2.615435 -0.730719
-2.292394 2.608150 -0.727240
-2.277287 2.601395 -0.723888
-2.262722 2.596594 -0.721002
-2.249235 2.596310 -0.719189
-2.236922 2.601286 -0.718616
-2.223024 2.598867 -0.716276
-2.209188 2.596485 -0.713938
-2.193294 2.583654 -0.709132
-2.178916 2.577742 -0.705958
-2.166351 2.580823 -0.704888
-2.154683 2.588707 -0.704926
-2.141356 2.587774 -0.702890
-2.127120 2.581542 -0.699613
-2.114224 2.582560 -0.698012
-2.101177 2.582600 -0.696173
-2.086315 2.571391 -0.691733
-2.072320 2.564825 -0.688362
-2.060553 2.572208 -0.688180
-2.048239 2.576246 -0.687212
-2.035236 2.575635 -0.685169
-2.020149 2.559902 -0.679686
-2.006041 2.550195 -0.675573
-1.993488 2.551593 -0.673964
-1.981341 2.556213 -0.673062
-1.969243 2.561461 -0.672280
-1.957136 2.566922 -0.671523
-1.943829 2.561917 -0.668417
-1.928194 2.534465 -0.660328
-1.917030 2.548301 -0.661385
-1.905226 2.556748 -0.661220
-1.892671 2.557807 -0.659406
-1.879650 2.553537 -0.656409
-1.866286 2.544522 -0.652369
-1.853422 2.540707 -0.649455
-1.840997 2.542253 -0.647690
-1.837467 2.877857 -0.715485
-1.824123 2.890484 -0.715764
-1.762995 2.778923 -0.682341
-1.737646 2.838561 -0.689901
-1.723743 2.838106 -0.687277
-1.710291 2.857800 -0.688809
-1.696598 2.874327 -0.689633
-1.682614 2.880176 -0.688215
-1.668405 2.865461 -0.682559
-1.654355 2.857367 -0.678259
-1.640372 2.854415 -0.674998
-1.626370 2.858902 -0.673225
-1.612290 2.866454 -0.672043
-1.598465 2.852448 -0.666517
-1.584785 2.837592 -0.660830
-1.570662 2.846316 -0.659832
-1.556553 2.851683 -0.658143
-1.542700 2.847972 -0.654647
-1.529256 2.834544 -0.649248
-1.515448 2.832403 -0.646061
-1.501761 2.828186 -0.642469
-1.488067 2.824903 -0.639060
-1.474023 2.828324 -0.636940
-1.460043 2.830303 -0.634538
-1.445873 2.834976 -0.632647
-1.431515 2.841815 -0.631162
-1.418322 2.832651 -0.626664
-1.404904 2.827538 -0.622953
-1.391629 2.821531 -0.619101
-1.377821 2.822342 -0.616542
-1.363399 2.829852 -0.615242
-1.349749 2.829190 -0.612456
-1.337712 2.813399 -0.606941
-1.324196 2.812972 -0.604283
-1.311586 2.804972 -0.600298
-1.297561 2.810065 -0.598729
-1.284154 2.810182 -0.596312
-1.271289 2.806505 -0.593273
-1.258066 2.806332 -0.590923
-1.245533 2.801626 -0.587837
-1.233833 2.791847 -0.583935
-1.221136 2.790166 -0.581541
-1.205878 2.806406 -0.582357
-1.192473 2.810261 -0.581078
-1.180759 2.803825 -0.578097
-1.167826 2.805940 -0.576690
-1.154208 2.812755 -0.576181
-1.144214 2.798638 -0.572167
-1.133353 2.790875 -0.569352
-1.121941 2.787266 -0.567352
-1.109343 2.791023 -0.566708
-1.097529 2.791132 -0.565541
-1.085786 2.791579 -0.564533
-1.074257 2.791613 -0.563555
-1.062094 2.795551 -0.563337
-1.052132 2.789158 -0.561476
-1.038724 2.800424 -0.562688
-1.024033 2.818089 -0.565070
-1.014471 2.811796 -0.563519
-1.006902 2.797201 -0.560672
-0.999318 2.783810 -0.558123
-3.600025 1.828024 -0.678963
-3.573939 1.815268 -0.672645
-3.585219 1.840525 -0.678142
-3.569225 1.838286 -0.675196
-3.553488 1.836405 -0.672428
-3.580930 1.879575 -0.683474
-3.581244 1.895056 -0.686079
-3.580141 1.909397 -0.688375
-3.572661 1.917283 -0.688765
-3.561522 1.921479 -0.688100
-3.562806 1.939292 -0.691587
-3.563867 1.957254 -0.695158
-3.561037 1.971326 -0.697611
-3.562585 1.990579 -0.701656
-3.559149 2.004668 -0.704208
-3.567971 2.032895 -0.710998
-3.555279 2.037205 -0.710749
-3.543449 2.042636 -0.710894
-3.541595 2.059760 -0.714537
-3.540037 2.077574 -0.718426
-3.539161 2.096540 -0.722692
-3.530022 2.106040 -0.724228
-3.545755 2.145572 -0.734576
-3.538681 2.158203 -0.737097
-3.534611 2.174725 -0.740788
-3.526814 2.186928 -0.743256
-3.518397 2.198550 -0.745587
-3.517382 2.219652 -0.750694
-3.528206 2.256134 -0.760266
-3.526875 2.277660 -0.765523
-3.520968 2.293597 -0.769181
-3.520104 2.316344 -0.774815
-3.506538 2.322660 -0.775729
-3.496737 2.334008 -0.778103
-3.490355 2.350065 -0.781838
-3.495177 2.381555 -0.789998
-3.493900 2.405160 -0.795890
-3.480531 2.412310 -0.797070
-3.233931 2.233755 -0.740430
-3.216318 2.231959 -0.739109
-3.215708 2.255849 -0.745047
-3.210013 2.297688 -0.755171
-3.175256 2.320465 -0.758930
-3.149799 2.305537 -0.753828
-3.137676 2.311978 -0.754715
-3.136554 2.336620 -0.760680
-3.101223 2.358044 -0.763745
-3.126984 2.458576 -0.789665
-3.147203 2.645344 -0.835674
-3.155428 2.692570 -0.847454
-3.140536 2.696929 -0.847392
-3.123846 2.697767 -0.846345
-3.108505 2.701059 -0.845955
-3.095052 2.707952 -0.846533
-3.080355 2.712362 -0.846412
-3.059953 2.705252 -0.843133
-3.044001 2.706838 -0.842213
-3.029216 2.710690 -0.841894
-3.013475 2.712473 -0.840997
-2.990442 2.698775 -0.835894
-2.971071 2.692380 -0.832766
-2.959133 2.701701 -0.833870
-2.946505 2.709585 -0.834566
-2.915478 2.676786 -0.824311
-2.898259 2.673939 -0.822110
-2.884122 2.677853 -0.821710
-2.867845 2.676789 -0.819966
-2.854603 2.682608 -0.820046
-2.838704 2.682156 -0.818442
-2.817470 2.668777 -0.813394
-2.799832 2.663599 -0.810524
-2.790058 2.677440 -0.812680
-2.774046 2.675979 -0.810772
-2.755921 2.668991 -0.807400
-2.734021 2.652000 -0.801396
-2.722724 2.661892 -0.802454
-2.711049 2.670920 -0.803266
-2.692448 2.661571 -0.799259
-2.676586 2.659218 -0.797077
-2.658611 2.650845 -0.793323
-2.643598 2.650335 -0.791610
-2.629617 2.652584 -0.790605
-2.617823 2.661039 -0.791192
-2.602589 2.659571 -0.789203
-2.586720 2.656030 -0.786674
-2.570008 2.649698 -0.783425
-2.554389 2.646360 -0.780942
-2.538941 2.643298 -0.778526
-2.524331 2.642639 -0.776718
-2.504621 2.625445 -0.770699
-2.492636 2.632744 -0.770906
-2.475971 2.624609 -0.767190
-2.462940 2.628324 -0.766468
-2.447195 2.622699 -0.763382
-2.431070 2.615406 -0.759876
-2.416162 2.612036 -0.757354
-2.403016 2.614787 -0.756359
-2.390272 2.618983 -0.755714
-2.375302 2.614817 -0.752975
-2.359552 2.607361 -0.749417
-2.346332 2.609358 -0.748201
-2.333778 2.613953 -0.747616
-2.319741 2.612553 -0.745540
-2.304843 2.607378 -0.742529
-2.289417 2.599599 -0.738880
-2.272923 2.586721 -0.733985
-2.260686 2.591979 -0.733520
-2.248364 2.596938 -0.732966
-2.235358 2.598818 -0.731651
-2.221019 2.594329 -0.728784
-2.207421 2.593072 -0.726694
-2.193054 2.587800 -0.723629
-2.178383 2.580572 -0.720093
-2.164819 2.578609 -0.717816
-2.152426 2.582663 -0.716968
-2.139913 2.586130 -0.715964
-2.126367 2.583814 -0.713573
-2.113014 2.582345 -0.711375
-2.099907 2.582114 -0.709461
-2.085785 2.575493 -0.706032
-2.071200 2.565401 -0.701788
-2.058572 2.567306 -0.700351
-2.046493 2.572882 -0.699755
-2.033427 2.571819 -0.697596
-2.021029 2.575349 -0.696490
-2.004865 2.550941 -0.688915
-1.992100 2.550850 -0.686960
-1.979878 2.554957 -0.685955
-1.967646 2.559173 -0.684955
-1.955260 2.562263 -0.683679
-1.941344 2.551652 -0.679270
-1.927219 2.537990 -0.674171
-1.914972 2.541485 -0.672952
-1.903962 2.558002 -0.674642
-1.891236 2.557403 -0.672454
-1.877711 2.547433 -0.668156
-1.864273 2.537253 -0.663812
-1.851475 2.533978 -0.660999
-1.840009 2.548410 -0.662091
-1.836547 2.889198 -0.732637
-1.779247 2.873984 -0.719481
-1.737186 2.878909 -0.712962
-1.722117 2.841694 -0.702469
-1.708684 2.864163 -0.704677
-1.694610 2.861210 -0.701456
-1.680574 2.859143 -0.698407
-1.666607 2.864070 -0.696807
-1.652558 2.857451 -0.692770
-1.638553 2.859606 -0.690548
-1.624545 2.858563 -0.687642
-1.610639 2.848908 -0.682947
-1.596395 2.866083 -0.683751
-1.582381 2.864063 -0.680590
-1.568720 2.848577 -0.674682
-1.554545 2.855069 -0.673232
-1.540508 2.855734 -0.670584
-1.527291 2.835282 -0.663692
-1.513600 2.829936 -0.659840
-1.499508 2.833877 -0.657833
-1.485477 2.835986 -0.655450
-1.472119 2.826194 -0.650719
-1.458338 2.824672 -0.647622
-1.444302 2.827243 -0.645325
-1.430249 2.829835 -0.643032
-1.416264 2.831362 -0.640534
-1.402771 2.826839 -0.636882
-1.389428 2.821270 -0.633053
-1.374950 2.829014 -0.631780
-1.361362 2.826922 -0.628654
-1.348874 2.814306 -0.623577
-1.335648 2.810188 -0.620143
-1.322428 2.806704 -0.616869
-1.309104 2.804792 -0.613931
-1.295230 2.808090 -0.612002
-1.281728 2.808552 -0.609594
-1.268750 2.805337 -0.606565
-1.256005 2.801079 -0.603409
-1.242710 2.801653 -0.601199
-1.230366 2.796004 -0.597930
-1.217294 2.796270 -0.595807
-1.203368 2.802823 -0.594884
-1.190035 2.805772 -0.593390
-1.177497 2.804192 -0.591170
-1.163100 2.814768 -0.591194
-1.151780 2.807069 -0.588069
-1.139570 2.805624 -0.586148
-1.126739 2.808487 -0.585079
-1.116810 2.795773 -0.581381
-1.105995 2.789160 -0.578859
-1.093606 2.791922 -0.578075
-1.081967 2.791369 -0.576813
-1.071845 2.783802 -0.574438
-1.061888 2.776421 -0.572201
-1.048201 2.788332 -0.573401
-1.036982 2.788604 -0.572687
-1.023422 2.800637 -0.574097
-1.014996 2.789052 -0.571538
-1.010548 2.760324 -0.566132
-0.997767 2.770692 -0.567541
-3.593525 1.817146 -0.687467
-3.589520 1.826757 -0.688159
-3.579857 1.830880 -0.687163
-3.576042 1.841179 -0.688156
-3.571720 1.851231 -0.689114
-3.572320 1.866672 -0.691794
-3.578132 1.887926 -0.696311
-3.575198 1.900398 -0.698140
-3.582933 1.924525 -0.703607
-3.575394 1.932778 -0.704222
-3.559940 1.932722 -0.702348
-3.554617 1.943799 -0.703947
-3.556377 1.962933 -0.708053
-3.561540 1.986245 -0.713468
-3.565654 2.008859 -0.718707
-3.557867 2.018531 -0.720068
-3.548863 2.027053 -0.721137
-3.543339 2.039767 -0.723522
-3.541718 2.057261 -0.727391
-3.542055 2.077389 -0.732089
-3.533885 2.087888 -0.733943
-3.524702 2.097386 -0.735542
-3.545360 2.142840 -0.747904
-3.541955 2.160007 -0.751851
-3.532310 2.169850 -0.753654
-3.527903 2.186301 -0.757451
-3.521288 2.200269 -0.760540
-3.520370 2.221608 -0.765833
-3.524355 2.249512 -0.773081
-3.522727 2.270685 -0.778351
-3.519970 2.290720 -0.783297
-3.514183 2.307085 -0.787172
-3.509965 2.325736 -0.791728
-3.500741 2.337964 -0.794402
-3.495678 2.355910 -0.798759
-3.502459 2.390183 -0.807892
-3.502726 2.416060 -0.814557
-3.464470 2.388858 -0.805713
-3.441907 2.382940 -0.803099
-3.303093 2.260669 -0.764921
-3.263826 2.252650 -0.760903
-3.239667 2.291589 -0.769572
-3.219833 2.286656 -0.767260
-3.199979 2.281416 -0.764854
-3.184796 2.283230 -0.764471
-3.182331 2.305100 -0.769837
-3.173193 2.316561 -0.772189
-3.121291 2.337446 -0.774264
-3.107212 2.340652 -0.774166
-3.112045 2.403861 -0.790057
-3.117753 2.442022 -0.799803
-3.090470 2.422485 -0.793161
-3.133990 2.589571 -0.836880
-3.164047 2.676244 -0.860044
-3.160605 2.702016 -0.866003
-3.143152 2.701672 -0.864597
-3.122819 2.695624 -0.861580
-3.108587 2.701077 -0.861770
-3.094767 2.707287 -0.862152
-3.077839 2.707305 -0.860790
-3.062334 2.710005 -0.860159
-3.044857 2.708589 -0.858371
-3.030897 2.714197 -0.858518
-3.015709 2.717218 -0.857930
-2.988986 2.695848 -0.850591
-2.968642 2.687382 -0.846819
-2.951779 2.686054 -0.845007
-2.951009 2.719705 -0.852792
-2.919084 2.685088 -0.841817
-2.900958 2.680357 -0.839043
-2.885899 2.682308 -0.838089
-2.871141 2.684840 -0.837280
-2.854238 2.682285 -0.835074
-2.838688 2.682701 -0.833667
-2.824900 2.687182 -0.833351
-2.805672 2.678447 -0.829447
-2.786475 2.669397 -0.825459
-2.770488 2.667940 -0.823515
-2.751034 2.657538 -0.819160
-2.736326 2.658840 -0.817947
-2.723666 2.665349 -0.818116
-2.709282 2.667351 -0.817066
-2.691670 2.660646 -0.813686
-2.677571 2.663113 -0.812743
-2.666185 2.672962 -0.813748
-2.638139 2.636479 -0.802468
-2.628600 2.651158 -0.804736
-2.616344 2.658330 -0.805002
-2.600287 2.654480 -0.802352
-2.583969 2.649587 -0.799426
-2.569223 2.649132 -0.797660
-2.551916 2.640680 -0.793798
-2.535930 2.635918 -0.790901
-2.519179 2.628439 -0.787295
-2.507539 2.636984 -0.787848
-2.486980 2.616544 -0.780882
-2.475848 2.626575 -0.781801
-2.461660 2.626486 -0.780094
-2.447944 2.627870 -0.778758
-2.431843 2.620813 -0.775250
-2.415829 2.613668 -0.771720
-2.403927 2.621042 -0.771896
-2.389837 2.620454 -0.770030
-2.373009 2.609392 -0.765497
-2.359288 2.609685 -0.763847
-2.345050 2.607822 -0.761644
-2.331401 2.608094 -0.759974
-2.316690 2.603906 -0.757175
-2.302507 2.601594 -0.754844
-2.287079 2.593756 -0.751126
-2.271793 2.586053 -0.747444
-2.259336 2.590409 -0.746764
-2.247345 2.596927 -0.746606
-2.233975 2.597205 -0.744888
-2.220120 2.595052 -0.742560
-2.206585 2.594200 -0.740547
-2.192036 2.588128 -0.737244
-2.178805 2.588320 -0.735474
-2.164205 2.581224 -0.731914
-2.151056 2.581390 -0.730123
-2.138182 2.582937 -0.728658
-2.124784 2.581456 -0.726447
-2.110734 2.575961 -0.723259
-2.097525 2.575036 -0.721168
-2.083976 2.571811 -0.718516
-2.070414 2.568171 -0.715757
-2.057026 2.565288 -0.713174
-2.044019 2.564651 -0.711117
-2.031775 2.569157 -0.710270
-2.018172 2.564014 -0.707122
-2.004692 2.559286 -0.704067
-1.991593 2.557017 -0.701584
-1.978733 2.556363 -0.699470
-1.966221 2.558420 -0.697977
-1.953282 2.556795 -0.695610
-1.939926 2.551105 -0.692288
-1.924904 2.528968 -0.685154
-1.913637 2.541912 -0.686131
-1.901614 2.548129 -0.685527
-1.889158 2.550099 -0.683925
-1.876483 2.549635 -0.681749
-1.862857 2.537378 -0.676875
-1.851125 2.548047 -0.677203
-1.839363 2.559569 -0.677690
-1.842668 2.794859 -0.728539
-1.831351 2.833248 -0.734807
-1.804254 2.846705 -0.732992
-1.777789 2.879636 -0.735363
-1.761174 2.816563 -0.718954
-1.747988 2.834543 -0.720420
-1.734888 2.860822 -0.723649
-1.720641 2.851979 -0.719165
-1.706979 2.867093 -0.719872
-1.692770 2.857343 -0.715161
-1.678700 2.851939 -0.711383
-1.664768 2.859297 -0.710328
-1.650759 2.864374 -0.708753
-1.636711 2.864046 -0.706002
-1.622601 2.872531 -0.705097
-1.608532 2.870422 -0.701925
-1.594481 2.868109 -0.698696
-1.580689 2.854417 -0.693078
-1.566813 2.848758 -0.689138
-1.552755 2.850642 -0.686755
-1.538623 2.854053 -0.684669
-1.525000 2.843790 -0.679758
-1.511667 2.829138 -0.673959
-1.497139 2.841490 -0.673666
-1.483421 2.836690 -0.669872
-1.470168 2.824724 -0.664637
-1.456586 2.819764 -0.660826
-1.442655 2.820676 -0.658194
-1.428352 2.826674 -0.656571
-1.414771 2.822741 -0.652979
-1.401296 2.818100 -0.649263
-1.387899 2.813236 -0.645522
-1.373883 2.815838 -0.643259
-1.359106 2.826322 -0.642537
-1.346868 2.810908 -0.636822
-1.334133 2.801850 -0.632383
-1.320549 2.801598 -0.629673
-1.307079 2.800710 -0.626878
-1.293247 2.803311 -0.624785
-1.279745 2.803469 -0.622273
-1.266407 2.802775 -0.619650
-1.253329 2.800651 -0.616816
-1.240240 2.799244 -0.614179
-1.225306 2.811443 -0.614127
-1.214276 2.796797 -0.609176
-1.201031 2.798275 -0.607282
-1.186733 2.807054 -0.606798
-1.172741 2.814053 -0.606061
-1.163586 2.791836 -0.600095
-1.150654 2.793862 -0.598633
-1.134660 2.814203 -0.600565
-1.121373 2.818942 -0.599763
-1.112848 2.797849 -0.594422
-1.103433 2.783208 -0.590355
-1.088194 2.800703 -0.592133
-1.075856 2.803154 -0.591320
-1.072000 2.763204 -0.583081
-1.056760 2.782132 -0.585402
-1.045310 2.782551 -0.584540
-1.033028 2.787635 -0.584600
-1.023026 2.782512 -0.582959
-1.013363 2.776679 -0.581293
-1.009675 2.744568 -0.575105
-0.992950 2.772429 -0.579560
-0.968771 2.832844 -0.589819
-3.592633 1.798556 -0.695822
-3.586248 1.805565 -0.695718
-3.581791 1.814745 -0.696356
-3.583478 1.830417 -0.699115
-3.580903 1.842091 -0.700624
-3.579408 1.855177 -0.702622
-3.572756 1.863235 -0.703063
-3.568997 1.874562 -0.704589
-3.570843 1.892088 -0.708115
-3.573005 1.910340 -0.711905
-3.577483 1.931472 -0.716634
-3.570235 1.940407 -0.717584
-3.558807 1.945043 -0.717249
-3.555316 1.958553 -0.719736
-3.564968 1.986908 -0.726874
-3.559349 1.998795 -0.728943
-3.552546 2.009627 -0.730738
-3.546672 2.021761 -0.732985
-3.542538 2.036151 -0.735973
-3.545314 2.058818 -0.741543
-3.545706 2.079143 -0.746429
-3.534261 2.085937 -0.747215
-3.531484 2.103146 -0.751223
-3.543805 2.138755 -0.760865
-3.539715 2.155168 -0.764685
-3.528604 2.163292 -0.766021
-3.520211 2.174877 -0.768439
-3.518311 2.194706 -0.773378
-3.520185 2.219592 -0.779861
-3.522707 2.245706 -0.786725
-3.519059 2.264343 -0.791345
-3.510244 2.276564 -0.794044
-3.508864 2.298629 -0.799713
-3.504810 2.317489 -0.804421
-3.502637 2.339105 -0.809957
-3.501476 2.362382 -0.815987
-3.502805 2.389369 -0.823118
-3.500822 2.412206 -0.828999
-3.485150 2.416367 -0.829302
-3.432316 2.368387 -0.814083
-3.408080 2.359733 -0.810594
-3.285715 2.309321 -0.791090
-3.250931 2.282547 -0.782269
-3.221155 2.262657 -0.775488
-3.200391 2.256031 -0.772618
-3.185235 2.257806 -0.772213
-3.181420 2.277256 -0.776985
-3.173286 2.290095 -0.779792
-3.159074 2.293286 -0.779754
-3.151887 2.307764 -0.783001
-3.137605 2.310753 -0.782870
-3.108557 2.342431 -0.788989
-3.106390 2.365977 -0.794754
-3.114236 2.435433 -0.812656
-3.163774 2.675423 -0.875678
-3.159673 2.699988 -0.881392
-3.145762 2.706365 -0.881863
-3.126164 2.701816 -0.879194
-3.107074 2.697967 -0.876714
-3.093446 2.704556 -0.877197
-3.077506 2.706542 -0.876353
-3.056963 2.699161 -0.872835
-3.043864 2.706548 -0.873495
-3.029978 2.712326 -0.873680
-3.010759 2.706979 -0.870708
-2.991883 2.702053 -0.867848
-2.969618 2.689610 -0.862869
-2.957362 2.698301 -0.863821
-2.937782 2.691037 -0.860285
-2.923086 2.694238 -0.859670
-2.904526 2.688696 -0.856602
-2.884823 2.680256 -0.852724
-2.867803 2.677610 -0.850454
-2.856667 2.688444 -0.851916
-2.845920 2.700328 -0.853647
-2.822773 2.682712 -0.847206
-2.803790 2.674557 -0.843383
-2.785997 2.668955 -0.840263
-2.768338 2.663379 -0.837148
-2.753791 2.665354 -0.836099
-2.741184 2.672202 -0.836372
-2.727199 2.675514 -0.835665
-2.705868 2.659425 -0.829663
-2.690136 2.657683 -0.827569
-2.678495 2.666827 -0.828421
-2.665394 2.672077 -0.828201
-2.648554 2.666901 -0.825153
-2.624853 2.641984 -0.816786
-2.612299 2.648221 -0.816814
-2.596326 2.644522 -0.814163
-2.581171 2.642986 -0.812089
-2.566487 2.642676 -0.810336
-2.552701 2.644962 -0.809268
-2.534225 2.632584 -0.804294
-2.522141 2.639870 -0.804541
-2.506054 2.634384 -0.801394
-2.489554 2.627218 -0.797804
-2.476947 2.632605 -0.797521
-2.462819 2.632894 -0.795885
-2.445774 2.623006 -0.791575
-2.430044 2.617229 -0.788346
-2.415635 2.615807 -0.786253
-2.401782 2.616213 -0.784630
-2.388224 2.617580 -0.783250
-2.373935 2.616099 -0.781123
-2.360150 2.616351 -0.779439
-2.347646 2.621496 -0.779008
-2.329154 2.602753 -0.772424
-2.315056 2.601031 -0.770221
-2.299986 2.595044 -0.766921
-2.285449 2.590926 -0.764099
-2.270978 2.586777 -0.761266
-2.258193 2.589778 -0.760246
-2.245580 2.593554 -0.759411
-2.232272 2.594128 -0.757754
-2.218589 2.592802 -0.755609
-2.204928 2.591377 -0.753433
-2.191224 2.589518 -0.751143
-2.177468 2.587154 -0.748719
-2.165145 2.592031 -0.748094
-2.148816 2.575485 -0.742130
-2.135843 2.576428 -0.740513
-2.122066 2.572711 -0.737733
-2.108296 2.568688 -0.734874
-2.095013 2.567196 -0.732632
-2.082535 2.570449 -0.731544
-2.069654 2.571185 -0.729826
-2.055659 2.564511 -0.726291
-2.043122 2.567132 -0.725013
-2.029691 2.563528 -0.722211
-2.016956 2.564571 -0.720525
-2.003793 2.562339 -0.718038
-1.990506 2.558825 -0.715233
-1.977802 2.559604 -0.713449
-1.965090 2.560243 -0.711616
-1.952242 2.559608 -0.709467
-1.938686 2.552307 -0.705726
-1.925867 2.551245 -0.703455
-1.912372 2.543198 -0.699527
-1.900040 2.546403 -0.698238
-1.887726 2.550010 -0.697024
-1.874331 2.541303 -0.692917
-1.862261 2.547775 -0.692336
-1.849292 2.543172 -0.689165
-1.838432 2.567169 -0.692587
-1.828369 2.812013 -0.744402
-1.816340 2.843082 -0.749116
-1.772930 2.808223 -0.733892
-1.745104 2.801026 -0.727341
-1.731898 2.819433 -0.728963
-1.719360 2.871298 -0.737982
-1.705238 2.869352 -0.734958
-1.690974 2.857266 -0.729677
-1.676934 2.855404 -0.726647
-1.662962 2.861855 -0.725422
-1.648924 2.866950 -0.723868
-1.634828 2.874382 -0.722794
-1.620826 2.859957 -0.716955
-1.606695 2.866488 -0.715641
-1.592699 2.861240 -0.711768
-1.578849 2.851360 -0.706896
-1.564820 2.851530 -0.704164
-1.550711 2.854042 -0.701912
-1.536998 2.844745 -0.697149
-1.523403 2.834561 -0.692203
-1.509143 2.841126 -0.690764
-1.495277 2.838498 -0.687389
-1.481625 2.832369 -0.683284
-1.468086 2.825299 -0.678990
-1.454450 2.820789 -0.675229
-1.440485 2.821709 -0.672582
-1.426485 2.823070 -0.670022
-1.412747 2.820985 -0.666765
-1.399523 2.813047 -0.662339
-1.386318 2.805889 -0.658092
-1.372795 2.803076 -0.654737
-1.358869 2.804893 -0.652322
-1.344624 2.809916 -0.650557
-1.331705 2.802270 -0.646315
-1.317915 2.803413 -0.643835
-1.304703 2.799780 -0.640456
-1.291063 2.800343 -0.637933
-1.277206 2.802990 -0.635854
-1.263461 2.805001 -0.633695
-1.250173 2.803905 -0.630990
-1.236736 2.804429 -0.628652
-1.225050 2.793182 -0.624142
-1.212824 2.786821 -0.620640
-1.198322 2.796370 -0.620212
-1.182208 2.816269 -0.621785
-1.170231 2.809951 -0.618514
-1.160850 2.788867 -0.612589
-1.147965 2.790193 -0.610934
-1.133015 2.804006 -0.611676
-1.119904 2.807495 -0.610592
-1.110367 2.791895 -0.606096
-1.099324 2.785774 -0.603451
-1.081145 2.818087 -0.607930
-1.064933 2.839642 -0.610521
-1.057561 2.816507 -0.605074
-1.050913 2.791431 -0.599396
-1.040097 2.788203 -0.597793
-1.028410 2.789944 -0.597193
-1.016750 2.792186 -0.596782
-1.010036 2.772338 -0.592490
-0.993167 2.799664 -0.596795
-0.988710 2.771662 -0.591238
-0.972085 2.798371 -0.595613
-3.590791 1.792409 -0.705762
-3.583193 1.798273 -0.705344
-3.577453 1.806218 -0.705653
-3.579998 1.822796 -0.708827
-3.583462 1.840682 -0.712452
-3.578398 1.850201 -0.713387
-3.575301 1.862028 -0.715115
-3.569624 1.871467 -0.716115
-3.561421 1.878518 -0.716397
-3.560524 1.893538 -0.719288
-3.570062 1.920052 -0.725897
-3.571218 1.938079 -0.729822
-3.563905 1.947307 -0.730988
-3.562447 1.963193 -0.734320
-3.562205 1.980774 -0.738231
-3.553806 1.989649 -0.739436
-3.547944 2.001593 -0.741661
-3.545195 2.017331 -0.745126
-3.546691 2.038246 -0.750256
-3.543931 2.054661 -0.754012
-3.542294 2.072706 -0.758314
-3.537516 2.087403 -0.761607
-3.531727 2.101171 -0.764647
-3.528542 2.118299 -0.768764
-3.532698 2.144594 -0.775753
-3.526376 2.158572 -0.778945
-3.517344 2.169431 -0.781200
-3.508934 2.181211 -0.783764
-3.515559 2.212018 -0.792215
-3.519746 2.240253 -0.799876
-3.514215 2.256511 -0.803859
-3.501685 2.263940 -0.805141
-3.501966 2.288122 -0.811573
-3.503947 2.314906 -0.818799
-3.501755 2.336540 -0.824443
-3.500721 2.360024 -0.830646
-3.505164 2.391278 -0.839210
-3.492635 2.399721 -0.840809
-3.473941 2.399630 -0.839810
-3.444149 2.383829 -0.834041
-3.313511 2.349861 -0.817974
-3.240530 2.266069 -0.791767
-3.208665 2.242875 -0.783839
-3.184407 2.230708 -0.779231
-3.188247 2.261759 -0.787584
-3.186405 2.284377 -0.793375
-3.174781 2.291786 -0.794589
-3.146968 2.273218 -0.788028
-3.140691 2.288984 -0.791709
-3.100435 2.301446 -0.792257
-3.136057 2.473135 -0.838527
-3.069733 2.442042 -0.825726
-3.160275 2.668594 -0.889567
-3.159235 2.698845 -0.897039
-3.143443 2.701685 -0.896470
-3.128438 2.705919 -0.896290
-3.110294 2.703990 -0.894302
-3.091741 2.701036 -0.892006
-3.077297 2.705986 -0.891989
-3.057927 2.700994 -0.889080
-3.039757 2.698146 -0.886783
-3.026552 2.705266 -0.887350
-3.010937 2.707375 -0.886456
-2.990768 2.699773 -0.882760
-2.973162 2.697284 -0.880526
-2.953842 2.690865 -0.877160
-2.943842 2.704494 -0.879515
-2.936387 2.723941 -0.883502
-2.905433 2.691040 -0.872569
-2.886422 2.684248 -0.869074
-2.868315 2.679204 -0.866072
-2.856279 2.688014 -0.866983
-2.845251 2.699280 -0.868568
-2.825382 2.689541 -0.864216
-2.801013 2.668471 -0.856683
-2.784296 2.665482 -0.854235
-2.768533 2.664633 -0.852382
-2.754684 2.668446 -0.851824
-2.742025 2.675262 -0.852090
-2.730889 2.686075 -0.853452
-2.707314 2.664277 -0.845743
-2.688638 2.654795 -0.841463
-2.674959 2.658434 -0.840813
-2.660797 2.660705 -0.839774
-2.641916 2.649719 -0.835077
-2.626620 2.648415 -0.833045
-2.610163 2.643587 -0.830042
-2.593817 2.638786 -0.827046
-2.579924 2.640970 -0.825954
-2.566495 2.644477 -0.825213
-2.551614 2.643503 -0.823244
-2.538614 2.648210 -0.822809
-2.522813 2.644061 -0.819968
-2.507252 2.640404 -0.817259
-2.489814 2.630335 -0.812822
-2.471203 2.615874 -0.807213
-2.456928 2.615444 -0.805373
-2.443065 2.616275 -0.803864
-2.429007 2.616306 -0.802134
-2.414556 2.614796 -0.799989
-2.401163 2.616930 -0.798806
-2.386247 2.613355 -0.796102
-2.372781 2.614979 -0.794769
-2.360254 2.620131 -0.794357
-2.345807 2.617808 -0.791968
-2.331084 2.614136 -0.789221
-2.313133 2.596988 -0.782950
-2.298953 2.594700 -0.780569
-2.283298 2.585890 -0.776487
-2.269096 2.582878 -0.773914
-2.257405 2.590752 -0.774155
-2.244422 2.592957 -0.772915
-2.231206 2.594035 -0.771374
-2.216601 2.588406 -0.768102
-2.202847 2.586507 -0.765785
-2.189438 2.586090 -0.763840
-2.176305 2.586917 -0.762205
-2.162467 2.583939 -0.759594
-2.149131 2.583362 -0.757586
-2.133133 2.567886 -0.751805
-2.120043 2.567926 -0.749946
-2.106598 2.565754 -0.747522
-2.093671 2.566415 -0.745802
-2.080751 2.567016 -0.744055
-2.068487 2.571686 -0.743312
-2.055256 2.570141 -0.741008
-2.041106 2.562109 -0.737087
-2.029561 2.571678 -0.737515
-2.016384 2.569906 -0.735125
-2.002291 2.560961 -0.730963
-1.989068 2.558002 -0.728269
-1.975817 2.554437 -0.725419
-1.963238 2.556111 -0.723837
-1.950494 2.556334 -0.721887
-1.937804 2.556936 -0.720016
-1.924817 2.554589 -0.717419
-1.912212 2.555729 -0.715650
-1.898839 2.548748 -0.711919
-1.886182 2.548839 -0.709874
-1.874226 2.557000 -0.709736
-1.858911 2.524408 -0.699897
-1.847461 2.538459 -0.701128
-1.837668 2.577453 -0.708201
-1.837236 2.762244 -0.749453
-1.813809 2.828417 -0.760212
-1.730267 2.823623 -0.744294
-1.717306 2.860831 -0.750223
-1.703486 2.872253 -0.750224
-1.689259 2.863886 -0.745717
-1.675204 2.864661 -0.743260
-1.661177 2.872144 -0.742284
-1.647069 2.871394 -0.739437
-1.632969 2.868937 -0.736192
-1.618871 2.868430 -0.733364
-1.604886 2.859315 -0.728619
-1.590995 2.849376 -0.723691
-1.576667 2.862873 -0.723885
-1.562622 2.861039 -0.720700
-1.548863 2.850590 -0.715634
-1.535219 2.839502 -0.710434
-1.521336 2.836627 -0.707004
-1.507371 2.836034 -0.704054
-1.493451 2.834564 -0.700905
-1.479785 2.828703 -0.696818
-1.466036 2.825097 -0.693209
-1.452023 2.826106 -0.690569
-1.438744 2.816404 -0.685683
-1.424416 2.822115 -0.684021
-1.410879 2.817174 -0.680141
-1.397379 2.812444 -0.676318
-1.383795 2.809285 -0.672832
-1.370503 2.803440 -0.668813
-1.357264 2.797790 -0.664858
-1.343874 2.794329 -0.661374
-1.328651 2.808538 -0.661476
-1.315306 2.805006 -0.658019
-1.302311 2.799033 -0.654112
-1.288734 2.798669 -0.651364
-1.274221 2.806136 -0.650205
-1.259885 2.812105 -0.648781
-1.246322 2.812350 -0.646275
-1.233681 2.806425 -0.642617
-1.221586 2.797562 -0.638458
-1.210013 2.786239 -0.633901
-1.196129 2.791224 -0.632573
-1.179392 2.814619 -0.634845
-1.167237 2.809006 -0.631613
-1.157081 2.792274 -0.626352
-1.145097 2.787752 -0.623518
-1.131435 2.793693 -0.622759
-1.118675 2.794985 -0.621207
-1.107922 2.785948 -0.617807
-1.094974 2.789705 -0.616913
-1.076498 2.822832 -0.621605
-1.061233 2.838875 -0.623180
-1.050815 2.830724 -0.620342
-1.043656 2.807629 -0.614841
-1.036502 2.786100 -0.609751
-1.024127 2.790735 -0.609617
-1.009766 2.805115 -0.611380
-0.992470 2.833065 -0.615738
-0.989298 2.797454 -0.608481
-0.979006 2.795078 -0.607449
-0.965530 2.807263 -0.609190
-3.600292 1.784271 -0.717448
-3.587939 1.785313 -0.715411
-3.579074 1.789977 -0.714646
-3.585479 1.810154 -0.719113
-3.590962 1.829825 -0.723427
-3.557678 1.810464 -0.714802
-3.570908 1.838634 -0.722011
-3.572212 1.855036 -0.725344
-3.570266 1.868432 -0.727722
-3.567599 1.881401 -0.730002
-3.562550 1.892171 -0.731606
-3.571790 1.918462 -0.738319
-3.572639 1.936267 -0.742295
-3.569877 1.950550 -0.745167
-3.569072 1.967304 -0.748885
-3.563829 1.979532 -0.751182
-3.554185 1.987149 -0.752044
-3.548538 1.999445 -0.754462
-3.554460 2.025103 -0.761209
-3.552541 2.042306 -0.765278
-3.544640 2.052957 -0.767293
-3.538857 2.066283 -0.770202
-3.537229 2.084737 -0.774780
-3.531658 2.098855 -0.778011
-3.529351 2.117122 -0.782589
-3.530743 2.140167 -0.788703
-3.526972 2.157317 -0.792972
-3.520145 2.170981 -0.796163
-3.520750 2.194073 -0.802344
-3.519924 2.215741 -0.808086
-3.512991 2.230009 -0.811513
-3.514344 2.255053 -0.818330
-3.508414 2.271078 -0.822324
-3.501510 2.286029 -0.825986
-3.508914 2.320003 -0.835591
-3.497033 2.328859 -0.837348
-3.495718 2.351950 -0.843542
-3.495946 2.377452 -0.850474
-3.487157 2.390949 -0.853662
-3.469211 2.391866 -0.852939
-3.322169 2.236071 -0.802706
-3.258913 2.292882 -0.814390
-3.212792 2.248340 -0.799723
-3.196494 2.248504 -0.798774
-3.180567 2.249074 -0.797939
-3.186693 2.284091 -0.807613
-3.160814 2.268919 -0.801941
-3.115689 2.273611 -0.800182
-3.104913 2.281959 -0.801626
-3.090120 2.283595 -0.801019
-3.084493 2.300608 -0.805047
-3.083956 2.326535 -0.811736
-3.102395 2.385691 -0.828402
-3.110003 2.427051 -0.839646
-3.161325 2.702392 -0.914094
-3.144329 2.703033 -0.912841
-3.129470 2.707602 -0.912740
-3.111052 2.705203 -0.910556
-3.094400 2.706032 -0.909318
-3.078471 2.708139 -0.908444
-3.062188 2.709410 -0.907310
-3.043052 2.704744 -0.904416
-3.026782 2.705687 -0.903162
-3.011799 2.709160 -0.902638
-2.991445 2.701236 -0.898766
-2.972707 2.696397 -0.895791
-2.953936 2.691199 -0.892708
-2.929484 2.673288 -0.885920
-2.921246 2.690655 -0.889388
-2.904900 2.690127 -0.887641
-2.883944 2.678957 -0.882806
-2.867530 2.677786 -0.880861
-2.854491 2.684293 -0.881121
-2.842061 2.692253 -0.881782
-2.835652 2.714680 -0.886578
-2.802866 2.673585 -0.873147
-2.783688 2.664670 -0.868954
-2.766291 2.659795 -0.865915
-2.753196 2.665502 -0.865886
-2.739692 2.670170 -0.865548
-2.728889 2.681839 -0.867181
-2.715046 2.685680 -0.866578
-2.690742 2.661518 -0.858062
-2.673658 2.656080 -0.854840
-2.655312 2.646861 -0.850556
-2.642195 2.651831 -0.850255
-2.626270 2.648836 -0.847713
-2.610207 2.645209 -0.844991
-2.594210 2.641517 -0.842250
-2.580925 2.645616 -0.841672
-2.566725 2.646941 -0.840314
-2.552392 2.647755 -0.838807
-2.535718 2.641157 -0.835247
-2.521522 2.642040 -0.833749
-2.506073 2.638778 -0.831105
-2.487638 2.625480 -0.825708
-2.468403 2.608917 -0.819428
-2.454508 2.609726 -0.817905
-2.441086 2.612052 -0.816787
-2.427467 2.613626 -0.815457
-2.413195 2.612776 -0.813462
-2.400492 2.617466 -0.812960
-2.385956 2.615385 -0.810619
-2.370132 2.608212 -0.806905
-2.357119 2.611448 -0.805988
-2.344838 2.617542 -0.805826
-2.328634 2.608009 -0.801476
-2.312986 2.600213 -0.797594
-2.298385 2.596318 -0.794753
-2.284205 2.593907 -0.792304
-2.268358 2.583977 -0.787863
-2.258456 2.599942 -0.790260
-2.245273 2.601538 -0.788847
-2.228500 2.586336 -0.783016
-2.214673 2.584312 -0.780648
-2.201041 2.583002 -0.778461
-2.188953 2.589197 -0.778224
-2.175617 2.589157 -0.776350
-2.161556 2.585156 -0.773442
-2.146709 2.576547 -0.769341
-2.133435 2.576044 -0.767332
-2.118958 2.568510 -0.763508
-2.106294 2.571021 -0.762260
-2.092271 2.565336 -0.758904
-2.078623 2.561488 -0.756015
-2.065909 2.563235 -0.754544
-2.053805 2.568966 -0.754070
-2.040853 2.569142 -0.752173
-2.028132 2.570804 -0.750640
-2.014910 2.568782 -0.748168
-2.000530 2.557714 -0.743421
-1.986604 2.549230 -0.739325
-1.974085 2.551396 -0.737882
-1.961787 2.555457 -0.736894
-1.948792 2.553565 -0.734414
-1.935925 2.552545 -0.732139
-1.923828 2.558701 -0.731618
-1.910333 2.551195 -0.727723
-1.897159 2.546198 -0.724439
-1.884740 2.548956 -0.723040
-1.872071 2.548941 -0.720947
-1.858974 2.543453 -0.717515
-1.846114 2.540301 -0.714639
-1.835500 2.568304 -0.719251
-1.836918 2.782187 -0.768383
-1.825187 2.814562 -0.773768
-1.784277 2.828624 -0.769845
-1.770408 2.829680 -0.767629
-1.755008 2.790587 -0.755960
-1.729276 2.851104 -0.765110
-1.715715 2.870010 -0.766939
-1.701664 2.872712 -0.764965
-1.687438 2.865070 -0.760580
-1.673362 2.865652 -0.758077
-1.659329 2.876443 -0.757889
-1.645186 2.872610 -0.754327
-1.631091 2.864764 -0.749841
-1.616973 2.867241 -0.747683
-1.602924 2.862591 -0.743896
-1.588888 2.859232 -0.740387
-1.574647 2.865917 -0.739110
-1.560616 2.862528 -0.735560
-1.546837 2.852154 -0.730452
-1.533110 2.842849 -0.725581
-1.519116 2.841878 -0.722543
-1.505331 2.836473 -0.718523
-1.491510 2.832677 -0.714850
-1.477685 2.829494 -0.711305
-1.463546 2.831926 -0.708967
-1.450071 2.823831 -0.704355
-1.436199 2.822479 -0.701194
-1.422098 2.824345 -0.698717
-1.408805 2.815902 -0.694049
-1.394997 2.814561 -0.690898
-1.381338 2.811788 -0.687452
-1.367848 2.807600 -0.683723
-1.355290 2.794496 -0.678158
-1.341418 2.795499 -0.675554
-1.327800 2.794274 -0.672507
-1.312284 2.810242 -0.673012
-1.299504 2.801862 -0.668542
-1.286375 2.797291 -0.664892
-1.271273 2.808985 -0.664580
-1.256877 2.814830 -0.663109
-1.243790 2.811037 -0.659740
-1.230761 2.807503 -0.656481
-1.218229 2.801227 -0.652738
-1.205969 2.794001 -0.648878
-1.192169 2.797722 -0.647257
-1.177573 2.806800 -0.646752
-1.164999 2.803538 -0.643893
-1.154408 2.789197 -0.638959
-1.141229 2.791279 -0.637319
-1.127588 2.796514 -0.636375
-1.115817 2.791786 -0.633592
-1.105618 2.779428 -0.629440
-1.091282 2.790215 -0.629840
-1.075732 2.807516 -0.631572
-1.059393 2.828790 -0.634144
-1.048857 2.821063 -0.631279
-1.038961 2.811235 -0.628125
-1.030061 2.797730 -0.624386
-1.017928 2.800601 -0.623857
-0.998967 2.835543 -0.629484
-0.992998 2.811127 -0.624003
-0.983546 2.803733 -0.621840
-0.967635 2.825562 -0.625275
-0.971620 2.761589 -0.612683
-3.597462 1.777180 -0.727090
-3.581244 1.774479 -0.723794
-3.577626 1.784395 -0.724875
-3.583955 1.804542 -0.729475
-3.592768 1.827620 -0.735085
-3.554721 1.803581 -0.724766
-3.550827 1.814256 -0.726270
-3.567672 1.846606 -0.735103
-3.574610 1.869288 -0.740695
-3.578560 1.889316 -0.745424
-3.583762 1.911103 -0.750768
-3.576871 1.920481 -0.752016
-3.569302 1.929389 -0.753161
-3.565598 1.942725 -0.755823
-3.565955 1.960805 -0.760094
-3.563285 1.975941 -0.763435
-3.561193 1.992052 -0.767138
-3.555912 2.004930 -0.769822
-3.557973 2.026385 -0.775353
-3.553165 2.040428 -0.778497
-3.543685 2.049372 -0.780019
-3.536678 2.061364 -0.782576
-3.536022 2.081023 -0.787656
-3.535500 2.101195 -0.792927
-3.534540 2.121198 -0.798167
-3.533027 2.140877 -0.803323
-3.527743 2.156293 -0.807124
-3.525706 2.175933 -0.812304
-3.528742 2.202178 -0.819618
-3.525699 2.221230 -0.824629
-3.524582 2.242998 -0.830519
-3.522405 2.263733 -0.836081
-3.501088 2.260060 -0.833848
-3.501688 2.284758 -0.840685
-3.503429 2.311322 -0.848108
-3.509517 2.344058 -0.857483
-3.498605 2.354468 -0.859747
-3.490250 2.368403 -0.863127
-3.484388 2.385877 -0.867621
-3.469648 2.391245 -0.868273
-3.370378 2.303144 -0.838367
-3.331303 2.272538 -0.827704
-3.228060 2.196395 -0.800759
-3.240405 2.289467 -0.826849
-3.200549 2.253917 -0.814689
-3.168224 2.229125 -0.805906
-3.156039 2.235227 -0.806751
-3.167050 2.278065 -0.819001
-3.145415 2.269332 -0.815192
-3.116851 2.274847 -0.814678
-3.101336 2.275396 -0.813718
-3.094383 2.290112 -0.817117
-3.087378 2.304894 -0.820510
-3.166739 2.679726 -0.924725
-3.159015 2.697667 -0.928706
-3.149530 2.712511 -0.931716
-3.129147 2.706653 -0.928437
-3.112229 2.707192 -0.927084
-3.094374 2.705728 -0.925114
-3.078422 2.707828 -0.924207
-3.065279 2.715440 -0.924942
-3.049806 2.718331 -0.924242
-3.032098 2.716527 -0.922123
-3.012408 2.710384 -0.918700
-2.993305 2.705158 -0.915546
-2.975952 2.703366 -0.913410
-2.957392 2.698758 -0.910430
-2.929964 2.674484 -0.901616
-2.922140 2.692832 -0.905430
-2.905978 2.692796 -0.903785
-2.882096 2.675064 -0.896918
-2.866375 2.675488 -0.895402
-2.853930 2.683402 -0.896075
-2.840158 2.688237 -0.895829
-2.822347 2.683379 -0.892736
-2.803297 2.675230 -0.888680
-2.781691 2.660419 -0.882688
-2.770689 2.671482 -0.884223
-2.748151 2.653545 -0.877329
-2.737113 2.664426 -0.878788
-2.728281 2.681198 -0.881928
-2.713970 2.683859 -0.880975
-2.693860 2.670936 -0.875531
-2.674714 2.660102 -0.870697
-2.661994 2.666498 -0.870802
-2.643170 2.655871 -0.866030
-2.626157 2.649917 -0.862597
-2.609091 2.643481 -0.859029
-2.594342 2.643477 -0.857288
-2.581381 2.648640 -0.857004
-2.566320 2.647481 -0.854922
-2.551720 2.647555 -0.853183
-2.536129 2.644393 -0.850529
-2.521872 2.645214 -0.848991
-2.505148 2.637964 -0.845186
-2.491756 2.641242 -0.844326
-2.473088 2.626897 -0.838545
-2.456145 2.617760 -0.834225
-2.440577 2.612897 -0.831097
-2.426533 2.613069 -0.829363
-2.412480 2.613074 -0.827577
-2.398485 2.613141 -0.825803
-2.384489 2.613064 -0.823983
-2.370137 2.611490 -0.821748
-2.355926 2.610249 -0.819600
-2.341776 2.609057 -0.817461
-2.327011 2.605200 -0.814593
-2.311862 2.599461 -0.811213
-2.298240 2.599727 -0.809460
-2.284545 2.599543 -0.807580
-2.269714 2.594243 -0.804314
-2.256033 2.593691 -0.802326
-2.242897 2.595452 -0.800953
-2.226905 2.583819 -0.795987
-2.213404 2.583386 -0.794018
-2.202273 2.594376 -0.795082
-2.189664 2.598349 -0.794262
-2.174798 2.590774 -0.790372
-2.159601 2.580913 -0.785880
-2.145070 2.573982 -0.782166
-2.131459 2.571636 -0.779658
-2.118200 2.571019 -0.777598
-2.104685 2.568717 -0.775089
-2.090491 2.562016 -0.771429
-2.076634 2.556867 -0.768173
-2.064436 2.561890 -0.767550
-2.051879 2.564710 -0.766341
-2.039736 2.570388 -0.765854
-2.025837 2.563889 -0.762221
-2.012944 2.564144 -0.760316
-1.999030 2.556517 -0.756387
-1.985739 2.553069 -0.753523
-1.973697 2.559416 -0.753140
-1.960808 2.558928 -0.751004
-1.947310 2.552843 -0.747444
-1.934289 2.550492 -0.744821
-1.920927 2.544479 -0.741270
-1.907543 2.537517 -0.737477
-1.894849 2.537065 -0.735305
-1.882663 2.542127 -0.734492
-1.870167 2.543932 -0.732849
-1.857919 2.548934 -0.731979
-1.845621 2.553762 -0.731044
-1.835167 2.585372 -0.736661
-1.835481 2.785692 -0.783499
-1.810736 2.834614 -0.790650
-1.768202 2.819091 -0.779544
-1.727440 2.850268 -0.779464
-1.714010 2.875700 -0.782930
-1.699980 2.881727 -0.781746
-1.685562 2.863954 -0.774926
