ply
format ascii 1.0
comment ---
element vertex 1738
property float x
property float y
property float z
element face 0
property list uchar uint vertex_indices
end_header
1.369298 2.115356 0.737363
-1.625269 2.401790 0.809129
-1.588375 2.494086 0.834205
-1.565830 2.481723 0.832222
-1.523621 2.426035 0.820721
-1.488566 2.385624 0.812401
-1.518936 2.492592 0.835948
-1.496523 2.481738 0.833808
-1.464862 2.449706 0.826949
-1.451627 2.460369 0.829243
-1.435917 2.465815 0.830289
-1.420167 2.471666 0.831307
-1.397745 2.461882 0.828821
-1.369389 2.437681 0.823103
-1.348504 2.431707 0.821237
-1.328637 2.428433 0.819858
-1.322698 2.460741 0.826079
-1.301091 2.453821 0.823720
-1.287464 2.467764 0.825780
-1.272119 2.477760 0.826899
-1.253691 2.479953 0.826257
-1.229535 2.466802 0.822245
-1.209367 2.464407 0.820485
-1.189125 2.461854 0.818633
-1.169058 2.459810 0.816839
-1.147898 2.454620 0.814327
-1.129645 2.457819 0.813565
-1.110758 2.459252 0.812388
-1.089468 2.453475 0.809648
-1.067933 2.446741 0.806685
-1.048158 2.445228 0.804810
-1.029481 2.447077 0.803630
-1.010249 2.447119 0.802055
-0.990601 2.445701 0.800166
-0.972176 2.448194 0.799095
-0.953387 2.449414 0.797755
-0.933045 2.445174 0.795277
-0.910934 2.434411 0.791449
-0.893060 2.438238 0.790675
-0.874965 2.441230 0.789735
-0.853082 2.430079 0.785877
-0.835427 2.434306 0.785224
-0.813811 2.423211 0.781424
-0.795467 2.424337 0.780170
-0.775093 2.417141 0.777225
-0.754593 2.408910 0.774096
-0.733960 2.399554 0.770767
-0.716212 2.401893 0.769860
-0.697653 2.400564 0.768228
-0.679439 2.400476 0.766876
-0.662022 2.403787 0.766241
-0.644559 2.406798 0.765571
-0.628289 2.415412 0.766061
-0.609091 2.409860 0.763708
-0.584878 2.378626 0.756202
-0.566246 2.374279 0.754164
-0.552780 2.396729 0.757551
-0.534907 2.396248 0.756344
-0.517904 2.400337 0.756082
-0.499640 2.397205 0.754399
-0.477984 2.373700 0.748669
-0.457633 2.356481 0.744236
-0.439051 2.349018 0.741786
-0.423810 2.362318 0.743507
-0.408775 2.377589 0.745640
-0.392839 2.387459 0.746718
-0.374996 2.384270 0.745225
-0.356145 2.373226 0.742202
-0.335615 2.348411 0.736480
-0.318725 2.350166 0.736055
-0.303069 2.361931 0.737633
-0.285837 2.360993 0.736721
-0.267866 2.353204 0.734483
-0.252219 2.366007 0.736331
-0.233355 2.348638 0.732256
-0.215724 2.341876 0.730298
-0.199625 2.350527 0.731396
-0.182172 2.344685 0.729667
-0.165827 2.351095 0.730366
-0.150033 2.364930 0.732543
-0.133828 2.374804 0.733962
-0.112451 2.312374 0.721237
-0.095299 2.305077 0.719341
-0.080239 2.330656 0.723900
-0.063831 2.336371 0.724589
-0.046435 2.323826 0.721730
-0.029522 2.318806 0.720363
-0.013966 2.344426 0.724998
0.002823 2.343524 0.724473
0.020308 2.321152 0.719782
0.036981 2.319716 0.719194
0.053681 2.316328 0.718245
0.070033 2.329166 0.720476
0.086706 2.327832 0.719964
0.103490 2.313701 0.716981
0.120118 2.303632 0.714808
0.136645 2.304698 0.714820
0.153172 2.303657 0.714441
0.169663 2.299643 0.713502
0.186121 2.295827 0.712619
0.202722 2.301894 0.713674
0.219264 2.302793 0.713744
0.235405 2.288528 0.710885
0.251594 2.279848 0.709128
0.267838 2.274726 0.708081
0.283290 2.251442 0.703524
0.300278 2.266214 0.706376
0.316932 2.271529 0.707409
0.333167 2.268207 0.706782
0.349138 2.260873 0.705393
0.365227 2.256263 0.704550
0.382431 2.268266 0.706953
0.397437 2.248836 0.703266
0.414254 2.254638 0.704499
0.432061 2.271547 0.707910
0.449142 2.278232 0.709352
0.464904 2.269845 0.707883
0.480430 2.259696 0.706089
0.496918 2.259751 0.706297
0.513963 2.264883 0.707513
0.529514 2.255995 0.706018
0.545412 2.250667 0.705235
0.562252 2.253393 0.706040
0.577587 2.243770 0.704457
0.593778 2.241253 0.704278
0.609839 2.237782 0.703933
0.626022 2.235262 0.703793
0.643295 2.240281 0.705145
0.658347 2.229936 0.703517
0.673497 2.220690 0.702123
0.692275 2.234698 0.705297
0.709338 2.237219 0.706248
0.724514 2.228215 0.704963
0.739960 2.221093 0.704067
0.763673 2.260663 0.712353
0.773059 2.219535 0.704828
0.788167 2.210861 0.703691
0.805335 2.213151 0.704731
0.821555 2.210340 0.704792
0.838112 2.209151 0.705195
0.855860 2.213588 0.706733
0.873722 2.218166 0.708324
0.887593 2.203932 0.706225
0.903176 2.197860 0.705759
0.918495 2.190692 0.705100
0.936385 2.194748 0.706690
0.954428 2.199091 0.708364
0.968522 2.186686 0.706738
0.982796 2.175313 0.705338
1.000813 2.179095 0.706979
1.018622 2.181714 0.708417
1.035256 2.179536 0.708925
1.052133 2.178145 0.709617
1.068548 2.174903 0.709965
1.083921 2.167803 0.709563
1.104252 2.178373 0.712737
1.124946 2.189627 0.716082
1.135270 2.164719 0.712169
1.156327 2.176636 0.715706
1.167359 2.154733 0.712434
1.180038 2.138726 0.710368
1.198832 2.142630 0.712359
1.220010 2.153719 0.715840
1.228767 2.125749 0.711393
1.241400 2.110297 0.709505
1.276082 2.161328 0.721226
1.290658 2.151162 0.720466
1.304819 2.139911 0.719497
1.324729 2.145292 0.721958
1.342551 2.144438 0.723156
1.359716 2.141607 0.723960
1.376486 2.137611 0.724534
-1.596684 2.471557 0.811526
-1.544699 2.431428 0.804345
-1.520823 2.416087 0.801571
-1.514449 2.439950 0.807001
-1.529760 2.513682 0.822907
-1.503671 2.494965 0.819061
-1.460938 2.479536 0.815688
-1.441128 2.475811 0.814675
-1.411788 2.449612 0.808780
-1.389328 2.439760 0.806249
-1.374122 2.447738 0.807395
-1.345953 2.424122 0.801745
-1.332964 2.438265 0.803997
-1.324514 2.464571 0.808721
-1.316519 2.492985 0.813788
-1.286975 2.466177 0.807113
-1.266783 2.463564 0.805469
-1.244565 2.455618 0.802634
-1.224782 2.454220 0.801111
-1.204014 2.450185 0.798976
-1.187683 2.458546 0.799383
-1.166724 2.454086 0.797056
-1.145411 2.448524 0.794460
-1.127149 2.451743 0.793658
-1.109868 2.457985 0.793447
-1.088500 2.452066 0.790685
-1.066193 2.443042 0.787263
-1.047204 2.444005 0.785893
-1.028707 2.446481 0.784821
-1.010047 2.448421 0.783627
-0.989304 2.443489 0.781018
-0.971682 2.448663 0.780481
-0.952805 2.449625 0.779081
-0.926660 2.425376 0.772549
-0.906541 2.421257 0.770140
-0.888688 2.424927 0.769325
-0.871150 2.429693 0.768744
-0.852166 2.429073 0.767086
-0.834105 2.431726 0.766106
-0.814727 2.429182 0.764098
-0.790465 2.407089 0.758185
-0.772177 2.407879 0.756900
-0.753793 2.408081 0.755520
-0.735110 2.406809 0.753870
-0.716295 2.404686 0.752077
-0.697643 2.402948 0.750388
-0.679207 2.401858 0.748856
-0.659949 2.396720 0.746549
-0.642530 2.399696 0.745878
-0.623904 2.396800 0.744074
-0.605723 2.395694 0.742652
-0.582966 2.371317 0.736676
-0.564458 2.367335 0.734755
-0.546030 2.363329 0.732858
-0.533640 2.391593 0.737319
-0.515602 2.389703 0.735888
-0.494893 2.372187 0.731432
-0.476071 2.364539 0.728940
-0.457482 2.357609 0.726619
-0.440630 2.360858 0.726310
-0.425217 2.373317 0.727817
-0.409959 2.387369 0.729654
-0.390194 2.371220 0.725655
-0.374001 2.379053 0.726333
-0.355133 2.367584 0.723301
-0.336832 2.359370 0.720927
-0.319323 2.356547 0.719623
-0.302384 2.357935 0.719157
-0.284342 2.349831 0.716886
-0.267350 2.350130 0.716259
-0.252617 2.371144 0.719639
-0.232897 2.345582 0.714088
-0.215565 2.341573 0.712705
-0.198656 2.341444 0.712090
-0.181556 2.338952 0.711045
-0.164609 2.337773 0.710274
-0.149554 2.359933 0.713989
-0.131519 2.344997 0.710629
-0.112891 2.319431 0.705263
-0.095862 2.314334 0.703832
-0.079464 2.318554 0.704199
-0.064122 2.341980 0.708248
-0.046578 2.326861 0.704967
-0.030610 2.342011 0.707472
-0.013992 2.344939 0.707668
0.003688 2.320270 0.702633
0.020003 2.329637 0.704093
0.036905 2.321217 0.702190
0.053537 2.320582 0.701785
0.070038 2.326231 0.702592
0.086708 2.323552 0.701835
0.103502 2.305614 0.698201
0.120073 2.297715 0.696492
0.136561 2.302900 0.697283
0.153068 2.300880 0.696724
0.169555 2.298802 0.696172
0.185920 2.288926 0.694160
0.202294 2.284590 0.693215
0.218710 2.283802 0.692960
0.235086 2.281705 0.692474
0.251516 2.281797 0.692420
0.267413 2.267163 0.689594
0.283362 2.256946 0.687621
0.298831 2.238213 0.684053
0.315759 2.251695 0.686603
0.333412 2.275904 0.691201
0.349781 2.274742 0.691011
0.366698 2.282105 0.692454
0.382952 2.278752 0.691883
0.398796 2.270115 0.690329
0.414773 2.264052 0.689280
0.431960 2.273082 0.691108
0.449044 2.279834 0.692522
0.465075 2.274366 0.691639
0.480988 2.268053 0.690612
0.496921 2.262374 0.689723
0.513520 2.263287 0.690102
0.529570 2.259033 0.689520
0.544019 2.241165 0.686370
0.560995 2.245477 0.687449
0.579219 2.259259 0.690348
0.593742 2.243439 0.687641
0.610268 2.243413 0.687954
0.623473 2.219442 0.683730
0.642038 2.234016 0.686861
0.657834 2.228927 0.686269
0.673455 2.222850 0.685508
0.691135 2.229946 0.687279
0.708626 2.235306 0.688742
0.723218 2.222950 0.686844
0.740580 2.227121 0.688123
0.757242 2.226952 0.688595
0.775121 2.233285 0.690334
0.787137 2.207823 0.686006
0.804926 2.213496 0.687663
0.822627 2.218265 0.689172
0.837019 2.206223 0.687477
0.851659 2.195770 0.686107
0.868870 2.197760 0.687153
0.885316 2.195937 0.687489
0.902347 2.196652 0.688339
0.917295 2.187937 0.687394
0.934410 2.188774 0.688317
0.951358 2.188673 0.689085
0.964942 2.174426 0.687137
0.981994 2.174651 0.688017
0.997756 2.169532 0.687885
1.014605 2.168656 0.688603
1.033901 2.176989 0.691141
1.052227 2.181161 0.692899
1.068382 2.176962 0.693052
1.086101 2.178377 0.694328
1.101399 2.170926 0.693894
1.120913 2.178260 0.696385
1.132919 2.159364 0.693752
1.147704 2.150282 0.693066
1.165549 2.151451 0.694422
1.180510 2.142975 0.693901
1.194752 2.132268 0.692958
1.215464 2.142114 0.696108
1.228246 2.126836 0.694299
1.254272 2.152272 0.700606
1.273588 2.156554 0.702737
1.289811 2.151353 0.703000
1.304170 2.140694 0.702187
1.319418 2.132719 0.701924
1.337205 2.131971 0.703126
1.358873 2.141864 0.706486
1.372081 2.128101 0.705096
-1.642560 2.395316 0.773827
-1.654373 2.451675 0.786631
-1.649081 2.473829 0.792298
-1.575389 2.457563 0.792185
-1.548683 2.436309 0.788295
-1.552313 2.521082 0.806576
-1.522088 2.493200 0.800951
-1.507649 2.501125 0.802642
-1.481122 2.481763 0.798547
-1.463931 2.484125 0.798849
-1.445469 2.483918 0.798503
-1.413229 2.451190 0.791299
-1.394194 2.449908 0.790516
-1.379252 2.458924 0.791763
-1.352536 2.439317 0.786984
-1.336730 2.446843 0.787727
-1.324256 2.463284 0.790218
-1.311219 2.478944 0.792454
-1.288131 2.469019 0.789332
-1.263402 2.454670 0.785234
-1.242465 2.450243 0.783112
-1.221948 2.446968 0.781167
-1.203765 2.450139 0.780486
-1.183927 2.448858 0.778844
-1.164031 2.447430 0.777127
-1.144163 2.446073 0.775387
-1.126067 2.449874 0.774660
-1.107335 2.451890 0.773541
-1.089012 2.455174 0.772653
-1.067022 2.447258 0.769484
-1.045207 2.439558 0.766350
-1.026959 2.442814 0.765416
-1.008464 2.445281 0.764314
-0.987773 2.440512 0.761761
-0.969284 2.442779 0.760619
-0.949180 2.439493 0.758373
-0.925770 2.424509 0.753814
-0.903611 2.413205 0.750008
-0.884764 2.413165 0.748453
-0.862681 2.401119 0.744543
-0.842504 2.395502 0.741927
-0.832269 2.427135 0.746661
-0.812732 2.423851 0.744537
-0.791187 2.412304 0.740819
-0.771528 2.407640 0.738479
-0.752654 2.405781 0.736714
-0.733838 2.403847 0.734960
-0.716455 2.407726 0.734365
-0.698121 2.407378 0.732972
-0.680130 2.408306 0.731854
-0.663327 2.414460 0.731774
-0.641433 2.396845 0.727130
-0.624025 2.399631 0.726456
-0.603190 2.385499 0.722555
-0.588578 2.401691 0.724513
-0.562220 2.357955 0.715002
-0.547333 2.372320 0.716665
-0.526393 2.354384 0.712175
-0.511737 2.370231 0.714169
-0.496005 2.380553 0.715129
-0.477555 2.375230 0.713134
-0.461956 2.386624 0.714345
-0.442667 2.375438 0.711294
-0.426751 2.385019 0.712209
-0.411396 2.398698 0.713922
-0.393138 2.393142 0.712019
-0.369671 2.350063 0.703062
-0.355743 2.373701 0.706728
-0.337786 2.368201 0.704922
-0.320660 2.368611 0.704254
-0.303024 2.364654 0.702790
-0.285492 2.361033 0.701414
-0.268591 2.362494 0.701016
-0.249515 2.343716 0.696850
-0.232652 2.344433 0.696361
-0.215793 2.345041 0.695875
-0.198243 2.338135 0.694007
-0.181486 2.339180 0.693647
-0.164890 2.342024 0.693644
-0.147379 2.333528 0.691546
-0.131288 2.342665 0.692758
-0.114009 2.335948 0.691035
-0.096314 2.321730 0.687939
-0.080495 2.335822 0.690130
-0.063827 2.337006 0.689939
-0.047533 2.345411 0.691108
-0.030933 2.348768 0.691357
-0.013832 2.340827 0.689529
0.003164 2.333526 0.687840
0.020151 2.324190 0.685793
0.036847 2.321829 0.685058
0.053578 2.316803 0.683848
0.070105 2.319769 0.684136
0.086690 2.320262 0.683983
0.103431 2.305337 0.680996
0.119997 2.296823 0.679214
0.136474 2.300642 0.679729
0.152979 2.302973 0.679986
0.169522 2.307120 0.680594
0.186140 2.313925 0.681711
0.202389 2.296540 0.678376
0.218426 2.276841 0.674632
0.234889 2.279363 0.675008
0.251364 2.281450 0.675320
0.267689 2.278766 0.674767
0.283272 2.258517 0.670990
0.300048 2.268303 0.672772
0.317136 2.282337 0.675355
0.333260 2.276382 0.674265
0.350428 2.288678 0.676560
0.367172 2.292471 0.677302
0.383034 2.282841 0.675583
0.399054 2.276433 0.674476
0.414495 2.263256 0.672135
0.430449 2.257596 0.671199
0.447182 2.261258 0.672001
0.464246 2.267995 0.673389
0.480234 2.262844 0.672598
0.496173 2.257541 0.671796
0.512621 2.257336 0.671954
0.528946 2.255888 0.671899
0.543764 2.241393 0.669448
0.560506 2.243837 0.670150
0.576930 2.243400 0.670336
0.592077 2.233015 0.668698
0.605844 2.212963 0.665286
0.625114 2.233559 0.669426
0.640802 2.227804 0.668701
0.658157 2.233446 0.670110
0.673576 2.225978 0.669105
0.690601 2.228930 0.670056
0.706814 2.226563 0.670038
0.723833 2.228957 0.670927
0.738570 2.217846 0.669322
0.751382 2.196322 0.665795
0.770835 2.212166 0.669254
0.787325 2.211191 0.669600
0.804199 2.212091 0.670319
0.820876 2.211763 0.670831
0.835060 2.198914 0.669022
0.849549 2.187962 0.667588
0.865760 2.185471 0.667760
0.884574 2.194941 0.670201
0.901460 2.195090 0.670919
0.915180 2.181042 0.668990
0.933469 2.187173 0.670882
0.952088 2.194259 0.672981
0.964945 2.176932 0.670500
0.980383 2.170612 0.670118
0.995145 2.161647 0.669258
1.008742 2.148277 0.667586
1.032286 2.173360 0.673231
1.050732 2.178117 0.675053
1.066363 2.172103 0.674855
1.084813 2.176318 0.676630
1.106028 2.190022 0.680247
1.115740 2.162810 0.676075
1.132545 2.160713 0.676724
1.147038 2.150671 0.675875
1.168353 2.163403 0.679422
1.185267 2.161143 0.680119
1.202137 2.158606 0.680787
1.215114 2.143663 0.679083
1.232178 2.141687 0.679904
1.250991 2.144912 0.681755
1.272887 2.157107 0.685377
1.289856 2.154137 0.686078
1.301326 2.135036 0.683654
1.316632 2.127332 0.683463
1.335642 2.130142 0.685344
1.352644 2.127091 0.686096
1.367997 2.119429 0.685955
-1.649981 2.437655 0.767055
-1.625304 2.453386 0.772143
-1.625742 2.525299 0.788167
-1.594850 2.495724 0.782737
-1.569330 2.477738 0.779530
-1.547169 2.467234 0.777718
-1.531484 2.471383 0.778758
-1.533959 2.516966 0.788091
-1.505223 2.492857 0.783160
-1.478121 2.472378 0.778850
-1.453538 2.457687 0.775602
-1.441576 2.472776 0.778283
-1.428630 2.486231 0.780520
-1.405203 2.475041 0.777658
-1.385139 2.472111 0.776370
-1.366771 2.473596 0.775878
-1.338664 2.450975 0.770428
-1.322626 2.458657 0.771010
-1.304051 2.460236 0.770278
-1.283809 2.457703 0.768643
-1.263002 2.453779 0.766660
-1.241889 2.449063 0.764457
-1.225721 2.457781 0.764885
-1.204978 2.454221 0.762803
-1.183276 2.447940 0.760136
-1.163380 2.446643 0.758423
-1.142947 2.443778 0.756364
-1.123492 2.443685 0.754826
-1.104271 2.444258 0.753396
-1.087340 2.451722 0.753304
-1.066076 2.446056 0.750607
-1.043865 2.437165 0.747271
-1.024465 2.436790 0.745605
-1.007430 2.443911 0.745400
-0.987974 2.443200 0.743664
-0.967201 2.437921 0.741044
-0.948175 2.438224 0.739519
-0.927152 2.431464 0.736636
-0.906900 2.426988 0.734213
-0.883429 2.410617 0.729514
-0.858607 2.388503 0.723740
-0.840075 2.388736 0.722295
-0.828744 2.416072 0.726065
-0.812153 2.423922 0.726107
-0.791851 2.417224 0.723390
-0.772717 2.414722 0.721501
-0.751841 2.404728 0.718215
-0.733577 2.405028 0.716915
-0.714710 2.402520 0.715110
-0.698554 2.411520 0.715509
-0.680705 2.413105 0.714530
-0.661582 2.408686 0.712447
-0.645759 2.419266 0.713214
-0.623903 2.401191 0.708625
-0.604729 2.395154 0.706332
-0.583961 2.380566 0.702471
-0.565072 2.374677 0.700271
-0.550733 2.392292 0.702485
-0.528800 2.369394 0.697174
-0.512485 2.376315 0.697447
-0.496538 2.385494 0.698162
-0.481575 2.400739 0.700024
-0.464577 2.404308 0.699744
-0.445649 2.395803 0.697258
-0.426728 2.386578 0.694669
-0.409667 2.388880 0.694236
-0.394580 2.404641 0.696306
-0.375994 2.396433 0.693986
-0.353841 2.361247 0.686739
-0.336703 2.361417 0.686019
-0.319954 2.364437 0.685846
-0.303662 2.371210 0.686382
-0.288101 2.384541 0.688138
-0.269615 2.372792 0.685330
-0.249734 2.346887 0.679966
-0.232607 2.345068 0.679025
-0.215901 2.347145 0.678816
-0.199096 2.348155 0.678434
-0.182425 2.350556 0.678326
-0.165300 2.347650 0.677274
-0.147076 2.330417 0.673642
-0.131033 2.339852 0.674874
-0.114303 2.340595 0.674547
-0.096744 2.328619 0.671935
-0.080029 2.328432 0.671480
-0.063824 2.337024 0.672633
-0.047301 2.340832 0.672938
-0.030601 2.341413 0.672677
-0.014213 2.349277 0.673750
0.003034 2.336140 0.671047
0.019970 2.328481 0.669354
0.036921 2.317579 0.667094
0.053692 2.309725 0.665403
0.070753 2.282785 0.660290
0.086905 2.300718 0.663283
0.103278 2.312824 0.665242
0.119914 2.296225 0.662046
0.136379 2.303532 0.663173
0.152890 2.305712 0.663393
0.169527 2.320194 0.665842
0.186107 2.320119 0.665688
0.202375 2.302535 0.662400
0.218488 2.285208 0.659177
0.234813 2.281533 0.658424
0.251222 2.281427 0.658330
0.267591 2.280147 0.658041
0.283904 2.277643 0.657548
0.300656 2.285121 0.658864
0.317526 2.293426 0.660346
0.334265 2.297822 0.661141
0.350503 2.292991 0.660293
0.366483 2.284711 0.658841
0.383264 2.289020 0.659669
0.398258 2.268388 0.656028
0.413608 2.254625 0.653638
0.429323 2.246651 0.652305
0.445076 2.239808 0.651192
0.462634 2.253068 0.653711
0.479475 2.257508 0.654662
0.494568 2.244209 0.652435
0.511327 2.247583 0.653228
0.529118 2.259813 0.655633
0.545283 2.256861 0.655321
0.560730 2.248029 0.653967
0.575605 2.235138 0.651898
0.590780 2.225331 0.650401
0.606808 2.222395 0.650161
0.623730 2.225908 0.651104
0.640580 2.228531 0.651905
0.656810 2.226662 0.651914
0.675677 2.241915 0.655039
0.689989 2.227324 0.652786
0.705514 2.220860 0.652021
0.724387 2.234525 0.654923
0.737469 2.213740 0.651602
0.752850 2.206851 0.650818
0.770452 2.212344 0.652302
0.788186 2.218081 0.653854
0.802924 2.207741 0.652505
0.818094 2.199930 0.651635
0.834852 2.200193 0.652257
0.848072 2.183119 0.649739
0.866315 2.190423 0.651690
0.885148 2.199945 0.654073
0.899634 2.189189 0.652773
0.915523 2.184925 0.652682
0.933105 2.187983 0.653957
0.949537 2.185843 0.654304
0.968248 2.193070 0.656398
0.980976 2.175450 0.653946
0.994519 2.161582 0.652205
1.012596 2.165794 0.653818
1.032439 2.176423 0.656647
1.047153 2.167142 0.655822
1.064542 2.167883 0.656877
1.085550 2.181521 0.660353
1.100914 2.174360 0.659998
1.109371 2.143077 0.655174
1.128549 2.149536 0.657398
1.154689 2.179081 0.663964
1.170597 2.173437 0.663992
1.187208 2.170072 0.664470
1.200283 2.155252 0.662822
1.217350 2.153317 0.663615
1.232058 2.143908 0.663023
1.251848 2.150133 0.665401
1.275093 2.166350 0.669699
1.293556 2.167695 0.671214
1.302976 2.142424 0.667699
1.315564 2.126825 0.666026
1.333080 2.125440 0.667073
1.348838 2.119010 0.667174
1.362336 2.106382 0.666100
-1.662805 2.459287 0.754547
-1.630738 2.495590 0.764194
-1.629820 2.529971 0.771595
-1.602818 2.509147 0.767953
-1.577521 2.492073 0.764930
-1.553843 2.478661 0.762510
-1.536648 2.479841 0.762862
-1.526693 2.497770 0.766415
-1.511119 2.503715 0.767476
-1.470772 2.453158 0.757225
-1.459105 2.468614 0.759943
-1.456448 2.506021 0.766893
-1.434590 2.498892 0.764916
-1.387943 2.477906 0.759338
-1.369481 2.479486 0.758791
-1.350373 2.479743 0.757895
-1.321659 2.455849 0.752166
-1.302668 2.456541 0.751200
-1.280563 2.449311 0.748608
-1.261618 2.450393 0.747581
-1.246973 2.463161 0.748776
-1.230601 2.471702 0.749083
-1.208722 2.465370 0.746442
-1.186996 2.459334 0.743819
-1.166730 2.457291 0.741937
-1.144361 2.449126 0.738842
-1.123142 2.444054 0.736324
-1.105333 2.448932 0.735705
-1.086087 2.449558 0.734248
-1.063928 2.441180 0.731053
-1.041451 2.431433 0.727595
-1.021725 2.429979 0.725725
-1.004351 2.435932 0.725267
-0.985528 2.437187 0.723914
-0.967720 2.441717 0.723188
-0.946916 2.436059 0.720540
-0.926914 2.432786 0.718360
-0.908641 2.435291 0.717285
-0.889942 2.436159 0.715916
-0.861918 2.402789 0.708147
-0.845683 2.411816 0.708356
-0.828283 2.416550 0.707777
-0.810177 2.418510 0.706701
-0.789564 2.410427 0.703781
-0.771528 2.412154 0.702711
-0.751850 2.406970 0.700386
-0.733129 2.405338 0.698747
-0.714379 2.403269 0.697056
-0.698493 2.413405 0.697640
-0.679993 2.412046 0.696133
-0.663070 2.417602 0.695923
-0.644595 2.415894 0.694407
-0.622018 2.394193 0.689268
-0.604136 2.394244 0.688138
-0.584962 2.387559 0.685810
-0.570720 2.405716 0.688030
-0.552949 2.405900 0.687005
-0.533255 2.395416 0.684074
-0.512986 2.380910 0.680449
-0.495733 2.382643 0.679793
-0.479895 2.392567 0.680641
-0.463864 2.401663 0.681361
-0.445009 2.393434 0.678986
-0.424875 2.376225 0.675027
-0.409211 2.387386 0.676193
-0.392672 2.393038 0.676392
-0.373492 2.380119 0.673289
-0.352975 2.356256 0.668259
-0.336203 2.358921 0.668001
-0.318924 2.357565 0.667048
-0.302892 2.366092 0.667881
-0.287039 2.376620 0.669090
-0.269374 2.371724 0.667574
-0.248085 2.332600 0.660000
-0.231530 2.335568 0.659934
-0.215888 2.347866 0.661542
-0.199549 2.353759 0.662033
-0.183004 2.357756 0.662207
-0.164766 2.341938 0.658896
-0.148269 2.345882 0.659101
-0.129502 2.319885 0.654037
-0.114504 2.343753 0.657801
-0.097204 2.335807 0.655966
-0.080017 2.328289 0.654228
-0.063510 2.331372 0.654377
-0.046532 2.325715 0.653005
-0.029080 2.308678 0.649650
-0.013195 2.324576 0.652108
0.002905 2.338511 0.654235
0.020526 2.310306 0.648974
0.036876 2.317237 0.649904
0.053572 2.312139 0.648740
0.070535 2.290542 0.644697
0.087036 2.286560 0.643763
0.103364 2.295897 0.645182
0.119617 2.334970 0.651828
0.136272 2.316752 0.648446
0.152766 2.300588 0.645443
0.169220 2.297230 0.644699
0.185790 2.304985 0.645917
0.202152 2.296973 0.644391
0.218309 2.283023 0.641840
0.234768 2.284838 0.642065
0.251355 2.290077 0.642905
0.267724 2.287854 0.642454
0.283948 2.282461 0.641465
0.300787 2.291515 0.643018
0.316933 2.284982 0.641859
0.333665 2.290070 0.642750
0.349754 2.283456 0.641608
0.365696 2.275388 0.640228
0.382509 2.280890 0.641237
0.397675 2.263175 0.638200
0.413207 2.252110 0.636341
0.429009 2.245411 0.635262
0.445158 2.243238 0.634991
0.462211 2.250936 0.636465
0.477011 2.234505 0.633729
0.492927 2.230426 0.633172
0.509821 2.235754 0.634279
0.527048 2.243484 0.635825
0.544221 2.249969 0.637171
0.559669 2.241476 0.635906
0.575309 2.235003 0.635013
0.590568 2.225909 0.633676
0.606894 2.225234 0.633835
0.624305 2.232226 0.635359
0.640393 2.229425 0.635180
0.657132 2.231013 0.635791
0.673515 2.230021 0.635968
0.691982 2.242099 0.638466
0.708219 2.239621 0.638421
0.720767 2.215142 0.634514
0.738473 2.221734 0.636106
0.753913 2.215023 0.635370
0.770769 2.216269 0.636060
0.788926 2.224241 0.637961
0.802914 2.209894 0.635934
0.817605 2.199655 0.634653
0.832592 2.191192 0.633706
0.848369 2.186781 0.633498
0.866496 2.193521 0.635292
0.884014 2.196959 0.636525
0.899839 2.192390 0.636357
0.918369 2.199811 0.638348
0.935965 2.202680 0.639554
0.950842 2.193699 0.638669
0.967388 2.191830 0.639078
0.981722 2.180832 0.637875
0.996032 2.169973 0.636718
1.012765 2.168831 0.637327
1.029493 2.167508 0.637929
1.045831 2.164566 0.638265
1.062606 2.163147 0.638900
1.083980 2.178272 0.642549
1.096344 2.160531 0.640289
1.110965 2.151110 0.639553
1.127769 2.149323 0.640223
1.148841 2.161821 0.643516
1.169033 2.170758 0.646195
1.184485 2.163700 0.645990
1.201559 2.161878 0.646763
1.213894 2.144926 0.644793
1.232636 2.148237 0.646553
1.254982 2.162257 0.650308
1.275965 2.171528 0.653224
1.295319 2.175472 0.655189
1.309646 2.164418 0.654409
1.311496 2.117641 0.647029
1.332473 2.126217 0.649906
1.349361 2.122947 0.650606
1.363546 2.112156 0.649922
-1.689052 2.508629 0.747094
-1.668665 2.500599 0.746415
-1.651000 2.498589 0.746780
-1.592951 2.484216 0.745549
-1.577420 2.488468 0.746649
-1.555222 2.478565 0.744890
-1.512177 2.422477 0.734076
-1.526690 2.495108 0.748051
-1.505771 2.489139 0.746701
-1.489222 2.493485 0.747233
-1.380697 2.459292 0.737502
-1.366382 2.471138 0.738867
-1.352890 2.485596 0.740641
-1.326085 2.466852 0.735962
-1.301453 2.453394 0.732232
-1.280374 2.448997 0.730173
-1.263160 2.454843 0.730008
-1.247350 2.464731 0.730553
-1.230615 2.472471 0.730631
-1.208370 2.465292 0.727830
-1.189846 2.468357 0.726934
-1.169319 2.465836 0.724948
-1.135491 2.424837 0.715687
-1.124020 2.448058 0.718508
-1.105521 2.451031 0.717494
-1.084378 2.446032 0.714974
-1.063820 2.442570 0.712735
-1.042748 2.437283 0.710155
-1.022480 2.434244 0.707996
-1.002624 2.432290 0.706044
-0.984647 2.436283 0.705199
-0.964799 2.433997 0.703201
-0.944287 2.429190 0.700752
-0.926179 2.432343 0.699782
-0.909392 2.440060 0.699663
-0.886091 2.424485 0.695297
-0.867908 2.426817 0.694229
-0.847461 2.420584 0.691622
-0.823071 2.398915 0.686239
-0.804458 2.398527 0.684753
-0.787418 2.404096 0.684369
-0.769078 2.404415 0.683060
-0.751503 2.407657 0.682302
-0.733859 2.410495 0.681496
-0.715205 2.408882 0.679917
-0.699341 2.419177 0.680498
-0.681688 2.421667 0.679706
-0.662237 2.415786 0.677447
-0.643158 2.411125 0.675436
-0.626095 2.415671 0.675094
-0.605033 2.400538 0.671284
-0.588459 2.407003 0.671339
-0.570833 2.408115 0.670470
-0.550215 2.393213 0.666800
-0.532709 2.394177 0.665964
-0.513869 2.387515 0.663812
-0.496310 2.387586 0.662873
-0.478731 2.387301 0.661899
-0.461306 2.387699 0.661071
-0.440210 2.364949 0.656217
-0.423367 2.367958 0.655902
-0.407211 2.375487 0.656400
-0.389883 2.375248 0.655564
-0.371855 2.369788 0.653844
-0.353460 2.361039 0.651578
-0.336316 2.360945 0.650843
-0.321302 2.377438 0.653010
-0.302518 2.364088 0.650020
-0.285193 2.361877 0.648987
-0.267624 2.357107 0.647533
-0.248781 2.339905 0.643954
-0.230927 2.330501 0.641749
-0.216368 2.353454 0.645150
-0.199807 2.357148 0.645245
-0.180303 2.327998 0.639702
-0.164802 2.342831 0.641756
-0.145793 2.315205 0.636525
-0.131031 2.340509 0.640415
-0.113481 2.329373 0.638061
-0.097645 2.342537 0.639897
-0.081287 2.348953 0.640592
-0.063587 2.332463 0.637377
-0.045580 2.306871 0.632626
-0.028613 2.298103 0.630776
-0.012040 2.296484 0.630169
0.004284 2.300840 0.630600
0.020265 2.316549 0.632987
0.036659 2.322664 0.633750
0.053360 2.318150 0.632713
0.070175 2.305310 0.630271
0.086932 2.288081 0.627099
0.103135 2.309976 0.630618
0.119554 2.328922 0.633647
0.136173 2.314745 0.631043
0.152657 2.300021 0.628364
0.169167 2.304310 0.628940
0.185613 2.300615 0.628170
0.201976 2.294091 0.626935
0.218133 2.280961 0.624590
0.234895 2.294570 0.626813
0.251499 2.299083 0.627502
0.267711 2.291562 0.626158
0.283990 2.287247 0.625375
0.299631 2.269679 0.622351
0.315859 2.266929 0.621864
0.332543 2.272791 0.622857
0.349436 2.281108 0.624283
0.365448 2.274365 0.623161
0.380561 2.255361 0.619968
0.397633 2.265246 0.621706
0.413447 2.257740 0.620500
0.429052 2.248422 0.619000
0.445822 2.253251 0.619924
0.461396 2.244478 0.618547
0.476372 2.230237 0.616254
0.493055 2.233972 0.617038
0.509562 2.235578 0.617476
0.526261 2.238627 0.618176
0.543031 2.241894 0.618931
0.558969 2.237840 0.618453
0.573724 2.224493 0.616405
0.589199 2.217501 0.615458
0.605781 2.219083 0.615992
0.623134 2.225934 0.617443
0.639264 2.223688 0.617358
0.657217 2.233685 0.619386
0.673331 2.230926 0.619250
0.690442 2.234468 0.620212
0.706131 2.228914 0.619634
0.722927 2.230114 0.620233
0.739192 2.228002 0.620284
0.753967 2.217432 0.618901
0.770168 2.215080 0.618949
0.787381 2.218094 0.619939
0.804581 2.220712 0.620883
0.817487 2.201180 0.618033
0.831601 2.188401 0.616363
0.848681 2.190437 0.617268
0.865191 2.189494 0.617682
0.881786 2.188807 0.618162
0.900177 2.196107 0.620048
0.919377 2.206484 0.622493
0.936492 2.207188 0.623288
0.950428 2.194176 0.621724
0.965902 2.187898 0.621351
0.981148 2.180754 0.620850
0.996385 2.173656 0.620378
1.011107 2.164623 0.619591
1.027127 2.160721 0.619722
1.045428 2.165370 0.621374
1.066533 2.180019 0.624808
1.077886 2.158501 0.621926
1.096889 2.164843 0.623958
1.113294 2.161653 0.624341
1.130280 2.160366 0.625086
1.146724 2.157078 0.625503
1.163695 2.155447 0.626238
1.185659 2.169986 0.629866
1.200212 2.160005 0.629175
1.212670 2.143511 0.627344
1.229576 2.141182 0.628055
1.253399 2.159893 0.632549
1.272366 2.163174 0.634319
1.280872 2.135114 0.630496
1.290981 2.112392 0.627637
1.316838 2.135456 0.633028
1.333710 2.132171 0.633704
1.355094 2.141378 0.636658
1.366093 2.121566 0.634381
-1.675016 2.509408 0.730771
-1.653188 2.499022 0.729490
-1.638582 2.504167 0.731015
-1.619561 2.500453 0.730753
-1.597447 2.490453 0.729184
-1.577611 2.485661 0.728478
-1.556249 2.477852 0.727084
-1.536679 2.474290 0.726374
-1.517884 2.472813 0.725941
-1.499076 2.471673 0.725458
-1.492803 2.499726 0.730366
-1.479597 2.512668 0.732312
-1.431825 2.489640 0.726678
-1.362097 2.459987 0.718460
-1.345694 2.467231 0.718764
-1.323844 2.461042 0.716480
-1.300116 2.450034 0.713230
-1.280547 2.449725 0.711913
-1.262703 2.454093 0.711408
-1.243782 2.455795 0.710353
-1.226920 2.463218 0.710309
-1.209038 2.468090 0.709746
-1.191219 2.473301 0.709208
-1.168501 2.464736 0.706103
-1.142651 2.446843 0.701271
-1.122385 2.444716 0.699319
-1.102873 2.444702 0.697739
-1.085036 2.449664 0.697055
-1.065307 2.448864 0.695315
-1.045438 2.447479 0.693467
-1.022845 2.437255 0.690024
-1.001888 2.431818 0.687459
-0.985653 2.441540 0.687633
-0.961481 2.424898 0.683077
-0.942374 2.424705 0.681494
-0.929188 2.444805 0.683553
-0.906288 2.431190 0.679602
-0.883744 2.418136 0.675782
-0.866134 2.422412 0.675068
-0.848466 2.426409 0.674324
-0.829397 2.425009 0.672646
-0.804167 2.399457 0.666736
-0.784071 2.392923 0.664216
-0.769824 2.409459 0.665776
-0.751752 2.410698 0.664671
-0.734581 2.415527 0.664220
-0.716559 2.416668 0.663150
-0.698572 2.417760 0.662098
-0.679317 2.412966 0.660050
-0.660176 2.408234 0.658044
-0.640973 2.402737 0.655936
-0.623473 2.404910 0.655186
-0.607392 2.413908 0.655640
-0.589896 2.415978 0.654923
-0.570455 2.407866 0.652482
-0.551069 2.399387 0.650010
-0.531139 2.387255 0.646942
-0.512726 2.382700 0.645206
-0.496351 2.389336 0.645411
-0.477878 2.383738 0.643550
-0.458067 2.369459 0.640240
-0.440070 2.365438 0.638706
-0.421004 2.354040 0.635947
-0.403949 2.355067 0.635325
-0.389083 2.370961 0.637248
-0.372579 2.376077 0.637363
-0.354380 2.368886 0.635418
-0.335222 2.353660 0.632142
-0.319783 2.366430 0.633618
-0.301175 2.353991 0.630863
-0.283573 2.348915 0.629374
-0.266351 2.346580 0.628370
-0.248315 2.336296 0.626051
-0.232234 2.343803 0.626744
-0.216936 2.359787 0.628876
-0.198440 2.343053 0.625541
-0.180499 2.330593 0.622946
-0.162726 2.318541 0.620441
-0.147003 2.330591 0.621989
-0.129768 2.323791 0.620403
-0.113217 2.325621 0.620277
-0.097536 2.340727 0.622384
-0.082176 2.363202 0.625734
-0.063341 2.327639 0.619427
-0.045281 2.300465 0.614542
-0.028472 2.294263 0.613169
-0.012220 2.299587 0.613730
0.003875 2.310181 0.615183
0.020004 2.322533 0.616943
0.036557 2.323860 0.616885
0.053341 2.315840 0.615292
0.070040 2.308143 0.613769
0.086636 2.302349 0.612578
0.103131 2.301116 0.612160
0.119595 2.302923 0.612260
0.136080 2.298556 0.611353
0.152540 2.298121 0.611112
0.169055 2.304779 0.612060
0.185553 2.305285 0.612004
0.201402 2.268892 0.605856
0.218266 2.292752 0.609695
0.234705 2.292618 0.609578
0.250955 2.286443 0.608475
0.267263 2.283309 0.607890
0.283408 2.276771 0.606757
0.299457 2.269340 0.605490
0.315306 2.259167 0.603785
0.331991 2.265801 0.604874
0.348930 2.275534 0.606489
0.365087 2.271542 0.605850
0.380082 2.251091 0.602502
0.396371 2.250681 0.602483
0.412641 2.249937 0.602424
0.429213 2.252791 0.602976
0.445971 2.257325 0.603820
0.461797 2.251139 0.602905
0.477748 2.246709 0.602296
0.493685 2.242393 0.601721
0.510002 2.241906 0.601795
0.526339 2.241479 0.601895
0.543518 2.248235 0.603201
0.560071 2.249110 0.603549
0.573203 2.222398 0.599338
0.588341 2.212944 0.598003
0.604754 2.213483 0.598343
0.621976 2.219648 0.599634
0.638892 2.223128 0.600497
0.655556 2.224537 0.601034
0.673548 2.234355 0.602988
0.689133 2.228210 0.602305
0.704375 2.220147 0.601321
0.722422 2.229121 0.603192
0.739471 2.231639 0.604008
0.754201 2.220771 0.602609
0.769452 2.213166 0.601774
0.787634 2.221477 0.603616
0.804610 2.222907 0.604330
0.817157 2.201537 0.601249
0.833943 2.202088 0.601855
0.848754 2.192849 0.600841
0.865052 2.190908 0.601071
0.881632 2.190178 0.601527
0.901484 2.204129 0.604474
0.919052 2.207167 0.605612
0.934551 2.200905 0.605206
0.947228 2.182725 0.602810
0.965393 2.187943 0.604384
0.981166 2.183002 0.604267
0.996567 2.176573 0.603920
1.009279 2.159658 0.601816
1.028624 2.168697 0.604139
1.047750 2.176369 0.606259
1.061306 2.162930 0.604812
1.079607 2.167026 0.606376
1.096207 2.164701 0.606872
1.116889 2.176563 0.609820
1.132667 2.170911 0.609800
1.145893 2.156601 0.608317
1.165205 2.162826 0.610385
1.184004 2.166945 0.612120
1.198763 2.157723 0.611582
1.211546 2.142335 0.609998
1.230240 2.145639 0.611670
1.249915 2.151632 0.613836
1.266878 2.149046 0.614540
1.279727 2.134121 0.613117
1.292377 2.118864 0.611651
1.309461 2.116631 0.612476
1.337193 2.144441 0.618591
1.354683 2.142626 0.619542
1.371590 2.139061 0.620205
-1.703292 2.528857 0.716200
-1.677276 2.509866 0.713433
-1.640782 2.469079 0.706539
-1.611436 2.479580 0.709301
-1.600128 2.492921 0.711995
-1.576151 2.479418 0.709633
-1.561974 2.487622 0.711146
-1.544890 2.489968 0.711465
-1.522644 2.481182 0.709621
-1.499768 2.471166 0.707439
-1.479105 2.466388 0.706113
-1.405534 2.471492 0.704227
-1.383590 2.464927 0.702087
-1.364272 2.464931 0.701066
-1.346138 2.468119 0.700545
-1.320539 2.452633 0.696556
-1.301578 2.453972 0.695563
-1.280278 2.449383 0.693436
-1.261404 2.451195 0.692414
-1.241472 2.450298 0.690854
-1.224530 2.457571 0.690723
-1.208337 2.467157 0.690963
-1.190118 2.471355 0.690200
-1.165413 2.457213 0.686128
-1.144678 2.454063 0.684007
-1.122307 2.445954 0.680991
-1.104625 2.451478 0.680390
-1.085142 2.451626 0.678825
-1.066982 2.455730 0.677955
-1.045754 2.450244 0.675393
-1.024011 2.442788 0.672493
-1.005706 2.446028 0.671482
-0.986987 2.447844 0.670229
-0.963153 2.432429 0.665981
-0.941289 2.422976 0.662798
-0.924951 2.432123 0.662870
-0.907189 2.436366 0.662103
-0.887525 2.433714 0.660162
-0.868283 2.432282 0.658455
-0.847816 2.425993 0.655936
-0.826377 2.415529 0.652730
-0.803236 2.397822 0.648316
-0.787176 2.407153 0.648562
-0.770011 2.412161 0.648090
-0.753872 2.421350 0.648354
-0.736381 2.424998 0.647697
-0.715298 2.413131 0.644435
-0.693160 2.395873 0.640296
-0.676107 2.400392 0.639874
-0.658703 2.403256 0.639199
-0.639225 2.396281 0.636893
-0.621065 2.395053 0.635585
-0.605499 2.406268 0.636392
-0.588567 2.410910 0.636120
-0.569975 2.406966 0.634437
-0.549574 2.393000 0.631112
-0.529795 2.381434 0.628222
-0.515513 2.399690 0.630322
-0.495750 2.387276 0.627347
-0.476853 2.379031 0.625096
-0.458770 2.375013 0.623573
-0.440854 2.371569 0.622172
-0.422020 2.361768 0.619748
-0.405290 2.365113 0.619520
-0.389304 2.373553 0.620153
-0.373140 2.381080 0.620657
-0.355002 2.374416 0.618849
-0.337081 2.368700 0.617221
-0.318426 2.356551 0.614564
-0.300384 2.348275 0.612567
-0.282672 2.341939 0.610912
-0.265605 2.340598 0.610096
-0.248883 2.342127 0.609769
-0.232181 2.343790 0.609485
-0.215806 2.348724 0.609752
-0.198915 2.348452 0.609190
-0.180354 2.329213 0.605563
-0.163908 2.332701 0.605653
-0.146729 2.327211 0.604302
-0.130501 2.333498 0.604882
-0.113923 2.335464 0.604778
-0.094780 2.298531 0.598388
-0.080341 2.332729 0.603542
-0.062386 2.310115 0.599511
-0.045517 2.304199 0.598202
-0.029179 2.308193 0.598512
-0.012695 2.309450 0.598397
0.003312 2.323412 0.600347
0.020019 2.320021 0.599511
0.036576 2.320559 0.599325
0.053289 2.314614 0.598109
0.070099 2.300613 0.595610
0.086681 2.293029 0.594162
0.103110 2.293461 0.594021
0.119512 2.299358 0.594774
0.135973 2.297455 0.594285
0.152384 2.287077 0.592448
0.168836 2.292827 0.593220
0.185093 2.279607 0.590955
0.201594 2.286908 0.592004
0.217830 2.279258 0.590664
0.234184 2.278446 0.590437
0.250563 2.278577 0.590376
0.266583 2.268628 0.588709
0.282890 2.267824 0.588525
0.299608 2.276085 0.589812
0.315941 2.275005 0.589611
0.331934 2.267800 0.588441
0.348283 2.267546 0.588401
0.364417 2.263864 0.587825
0.380315 2.257102 0.586768
0.396143 2.250105 0.585687
0.412349 2.248649 0.585511
0.428510 2.246674 0.585265
0.445502 2.254267 0.586572
0.463070 2.267215 0.588754
0.478826 2.260050 0.587718
0.494493 2.252515 0.586637
0.510818 2.251710 0.586653
0.527078 2.250239 0.586577
0.543375 2.249056 0.586563
0.559606 2.247277 0.586469
0.605100 2.218021 0.582424
0.622865 2.228001 0.584288
0.640541 2.236545 0.585939
0.657414 2.238988 0.586623
0.671763 2.224653 0.584615
0.689220 2.230695 0.585915
0.704550 2.223153 0.585038
0.721020 2.222686 0.585323
0.738121 2.225741 0.586196
0.754115 2.222220 0.586023
0.769297 2.214252 0.585148
0.786554 2.217644 0.586134
0.802301 2.212804 0.585803
0.820367 2.219850 0.587424
0.834443 2.206542 0.585756
0.850085 2.201288 0.585417
0.866018 2.197477 0.585332
0.883668 2.201619 0.586566
0.902106 2.208976 0.588349
0.918011 2.204589 0.588236
0.931652 2.190368 0.586535
0.946657 2.182356 0.585870
0.961908 2.175504 0.585415
0.981438 2.186204 0.587865
0.996375 2.177911 0.587220
1.010159 2.165223 0.585871
1.028827 2.171616 0.587689
1.048362 2.180838 0.590003
1.062275 2.168694 0.588812
1.078488 2.165153 0.589066
1.093163 2.156040 0.588421
1.113357 2.166410 0.591033
1.131329 2.168548 0.592308
1.146663 2.161469 0.592075
1.160326 2.148857 0.590940
1.182380 2.163928 0.594455
1.197834 2.157038 0.594325
1.215754 2.157972 0.595532
1.232783 2.155885 0.596258
1.248597 2.149927 0.596356
1.263727 2.141884 0.596124
1.281121 2.140599 0.597056
1.297322 2.135659 0.597392
1.307575 2.113529 0.594829
1.321634 2.102656 0.594190
1.350239 2.132551 0.600521
1.361879 2.114659 0.598725
-1.721043 2.493411 0.690741
-1.704504 2.493031 0.691536
-1.696564 2.510751 0.695453
-1.672677 2.496272 0.693501
-1.641654 2.467084 0.688796
-1.612709 2.442181 0.684735
-1.588678 2.427714 0.682422
-1.589052 2.465927 0.689434
-1.584060 2.493706 0.694460
-1.566081 2.493972 0.694438
-1.541294 2.479543 0.691668
-1.527678 2.490301 0.693296
-1.506836 2.485280 0.691988
-1.483214 2.474132 0.689477
-1.386676 2.471920 0.685028
-1.366985 2.471313 0.683847
-1.350256 2.478314 0.683941
-1.328885 2.473897 0.681942
-1.305431 2.464149 0.678942
-1.284214 2.460088 0.676894
-1.262845 2.455609 0.674725
-1.241322 2.450654 0.672431
-1.224271 2.457771 0.672214
-1.206839 2.464061 0.671814
-1.186279 2.461763 0.669886
-1.162660 2.450658 0.666406
-1.141646 2.446683 0.664154
-1.125567 2.456991 0.664361
-1.103280 2.449026 0.661400
-1.085748 2.455094 0.660856
-1.066694 2.456542 0.659513
-1.045600 2.451514 0.657063
-1.024156 2.445045 0.654377
-1.006078 2.449069 0.653493
-0.988696 2.455338 0.652999
-0.966135 2.444296 0.649580
-0.943347 2.431890 0.645955
-0.922502 2.425559 0.643384
-0.906559 2.436077 0.643673
-0.888263 2.438303 0.642583
-0.869664 2.439270 0.641303
-0.848364 2.429961 0.638329
-0.825129 2.412692 0.634060
-0.806279 2.411505 0.632504
-0.787082 2.408651 0.630699
-0.769850 2.413359 0.630175
-0.754315 2.425006 0.630821
-0.736584 2.427655 0.630003
-0.711169 2.397171 0.623757
-0.689728 2.382548 0.620164
-0.674198 2.393531 0.620807
-0.659595 2.409012 0.622207
-0.639468 2.399046 0.619468
-0.620720 2.394976 0.617724
-0.602557 2.393347 0.616407
-0.587788 2.408493 0.617844
-0.568090 2.398694 0.615253
-0.548101 2.386609 0.612324
-0.531026 2.389487 0.611848
-0.515492 2.400890 0.612772
-0.494655 2.382258 0.608874
-0.477071 2.381534 0.607894
-0.460460 2.386437 0.607843
-0.441332 2.375669 0.605299
-0.423519 2.372488 0.604001
-0.407167 2.378593 0.604214
-0.391360 2.388617 0.605074
-0.367168 2.339569 0.596521
-0.354195 2.369317 0.600576
-0.336941 2.368405 0.599758
-0.319344 2.364503 0.598487
-0.301055 2.354417 0.596255
-0.282603 2.341920 0.593665
-0.268034 2.362685 0.596375
-0.250405 2.356667 0.594855
-0.232616 2.348359 0.592994
-0.215805 2.348991 0.592569
-0.195647 2.313799 0.586502
-0.181626 2.343592 0.590723
-0.163636 2.329489 0.588030
-0.146814 2.328176 0.587374
-0.131453 2.345970 0.589746
-0.114455 2.342686 0.588814
-0.097202 2.334877 0.587188
-0.079322 2.315432 0.583751
-0.062352 2.308718 0.582335
-0.045870 2.310036 0.582197
-0.029837 2.320928 0.583576
-0.013405 2.324637 0.583843
0.003935 2.305129 0.580487
0.019799 2.324336 0.583213
0.036744 2.311837 0.580987
0.053380 2.307217 0.580011
0.069859 2.308274 0.579938
0.086611 2.291260 0.577054
0.102974 2.296875 0.577723
0.119369 2.305960 0.578948
0.135858 2.301294 0.578038
0.152272 2.288116 0.575814
0.168588 2.277862 0.574061
0.185065 2.287031 0.575353
0.201490 2.288387 0.575440
0.217500 2.270460 0.572532
0.234051 2.278656 0.573712
0.250442 2.279255 0.573722
0.266585 2.272726 0.572633
0.282969 2.273451 0.572688
0.299636 2.280116 0.573683
0.316056 2.280503 0.573713
0.331674 2.266043 0.571442
0.347572 2.258425 0.570251
0.364250 2.263947 0.571122
0.380689 2.265116 0.571328
0.396906 2.262970 0.571030
0.412891 2.257981 0.570304
0.428898 2.253675 0.569697
0.445965 2.261825 0.571047
0.463606 2.275234 0.573231
0.479506 2.269227 0.572402
0.494572 2.255396 0.570366
0.510725 2.252889 0.570111
0.527516 2.256211 0.570780
0.543468 2.251863 0.570267
0.557936 2.235351 0.567869
0.574099 2.233511 0.567776
0.605856 2.225546 0.566968
0.623958 2.237749 0.569120
0.642849 2.254486 0.572000
0.657494 2.241401 0.570228
0.672100 2.228716 0.568533
0.687708 2.222976 0.567943
0.704100 2.222244 0.568154
0.720607 2.222075 0.568471
0.740287 2.240179 0.571678
0.752700 2.216086 0.568272
0.766946 2.203178 0.566641
0.783340 2.202279 0.566915
0.801923 2.212702 0.568993
0.816335 2.201183 0.567633
0.827784 2.175296 0.564022
0.849407 2.199885 0.568399
0.867791 2.207800 0.570167
0.883877 2.204513 0.570185
0.901340 2.207439 0.571209
0.916827 2.201285 0.570815
0.932083 2.194204 0.570295
0.944136 2.173601 0.567645
0.961222 2.174631 0.568454
0.979787 2.181470 0.570212
0.996955 2.182255 0.571031
1.014215 2.183175 0.571896
1.032878 2.189265 0.573613
1.046292 2.175103 0.572113
1.062891 2.173067 0.572577
1.076881 2.161412 0.571520
1.095011 2.164768 0.572899
1.111503 2.162050 0.573327
1.129632 2.164862 0.574672
1.143216 2.151967 0.573505
1.158940 2.146430 0.573549
1.179091 2.155369 0.575966
1.200198 2.166884 0.578833
1.217203 2.164806 0.579520
1.234993 2.165033 0.580608
1.248920 2.153183 0.579748
1.262895 2.141638 0.578957
1.280548 2.141173 0.580003
1.294004 2.128228 0.579021
1.305725 2.110465 0.577260
1.325020 2.114528 0.579117
1.342160 2.112239 0.579948
1.355604 2.099633 0.579087
-1.687979 2.489023 0.674169
-1.664631 2.475718 0.672412
-1.643383 2.467021 0.671338
-1.619586 2.453247 0.669261
-1.601536 2.451895 0.669233
-1.592571 2.470503 0.672571
-1.585655 2.494395 0.676715
-1.564084 2.487049 0.675294
-1.544299 2.483929 0.674495
-1.531037 2.495788 0.676196
-1.509521 2.489566 0.674637
-1.486626 2.480401 0.672461
-1.459215 2.460873 0.668385
-1.452013 2.488728 0.672446
-1.448472 2.526283 0.678083
-1.423692 2.513851 0.674959
-1.388905 2.476923 0.667525
-1.365933 2.468479 0.664950
-1.349249 2.475758 0.665018
-1.329605 2.475880 0.663785
-1.310717 2.478085 0.662851
-1.287677 2.469625 0.660036
-1.266242 2.465255 0.657879
-1.244114 2.458952 0.655355
-1.225776 2.462813 0.654529
-1.205700 2.461986 0.652875
-1.182551 2.452496 0.649732
-1.158851 2.441104 0.646256
-1.141382 2.447302 0.645736
-1.120169 2.442618 0.643374
-1.101478 2.445199 0.642227
-1.083255 2.449153 0.641305
-1.066465 2.457511 0.641115
-1.044237 2.448971 0.638114
-1.022766 2.442383 0.635454
-1.003767 2.443389 0.634064
-0.986056 2.448474 0.633361
-0.965543 2.444153 0.631121
-0.942704 2.431545 0.627543
-0.921942 2.425473 0.625063
-0.902011 2.421884 0.623016
-0.884050 2.425015 0.622088
-0.867464 2.433067 0.621981
-0.847281 2.427758 0.619725
-0.827915 2.425107 0.617929
-0.807909 2.419623 0.615704
-0.789241 2.418967 0.614286
-0.769046 2.411872 0.611861
-0.748969 2.404714 0.609458
-0.731643 2.408576 0.608851
-0.713753 2.409933 0.607869
-0.691784 2.393191 0.604029
-0.675755 2.402102 0.604308
-0.657450 2.400728 0.602976
-0.638464 2.395843 0.601116
-0.620154 2.393727 0.599724
-0.604484 2.404253 0.600357
-0.586074 2.401240 0.598877
-0.565991 2.389186 0.596002
-0.547654 2.385526 0.594479
-0.531453 2.393057 0.594738
-0.510257 2.372848 0.590676
-0.492448 2.370731 0.589478
-0.478244 2.389543 0.591573
-0.460393 2.387074 0.590366
-0.440686 2.372611 0.587317
-0.422363 2.365957 0.585512
-0.406684 2.376251 0.586365
-0.390768 2.385371 0.587054
-0.373133 2.382685 0.585934
-0.353089 2.361888 0.582036
-0.336490 2.365610 0.581955
-0.319114 2.363265 0.580958
-0.301006 2.354525 0.578996
-0.283810 2.352659 0.578117
-0.264850 2.334759 0.574791
-0.249627 2.349755 0.576546
-0.232236 2.344891 0.575267
-0.215365 2.344655 0.574718
-0.197856 2.337410 0.573114
-0.181090 2.337543 0.572659
-0.164629 2.341105 0.572747
-0.146653 2.325917 0.569984
-0.130410 2.331725 0.570450
-0.114572 2.343862 0.571898
-0.097588 2.340116 0.570937
-0.080621 2.335901 0.569921
-0.062873 2.316995 0.566684
-0.045997 2.311333 0.565483
-0.030336 2.330098 0.568015
-0.014121 2.339767 0.569176
0.003230 2.321687 0.566133
0.020723 2.294103 0.561664
0.036736 2.309057 0.563672
0.053078 2.315925 0.564465
0.069671 2.312922 0.563774
0.086250 2.308764 0.562922
0.102759 2.307599 0.562538
0.119239 2.309323 0.562606
0.135743 2.300652 0.561113
0.152189 2.297986 0.560544
0.168589 2.292639 0.559582
0.185063 2.296665 0.560052
0.201483 2.295431 0.559740
0.217679 2.284568 0.557984
0.233765 2.273210 0.556167
0.250287 2.278870 0.556937
0.266720 2.280523 0.557113
0.283059 2.279356 0.556876
0.299379 2.277890 0.556608
0.315428 2.271144 0.555554
0.330968 2.256127 0.553263
0.347188 2.254766 0.553049
0.363970 2.262236 0.554183
0.380788 2.269098 0.555238
0.396608 2.261352 0.554098
0.412655 2.257298 0.553530
0.429471 2.262868 0.554430
0.446578 2.271040 0.555737
0.463558 2.276862 0.556703
0.479473 2.270970 0.555911
0.494639 2.258097 0.554077
0.510365 2.251487 0.553204
0.527132 2.254706 0.553832
0.542237 2.243116 0.552233
0.557424 2.232977 0.550867
0.573135 2.227652 0.550244
0.590730 2.237117 0.551878
0.623436 2.235806 0.552124
0.640137 2.237416 0.552614
0.657024 2.240032 0.553274
0.672234 2.231372 0.552237
0.688072 2.227063 0.551877
0.703570 2.220753 0.551229
0.720556 2.223541 0.551982
0.736794 2.221670 0.552043
0.752360 2.215934 0.551533
0.765586 2.197463 0.549098
0.780783 2.190346 0.548409
0.798335 2.195733 0.549648
0.812816 2.185025 0.548447
0.828420 2.180251 0.548171
0.850263 2.205862 0.552566
0.862853 2.186172 0.550045
0.883267 2.203521 0.553222
0.899266 2.199878 0.553201
0.913875 2.190038 0.552248
0.929360 2.184242 0.551936
0.945071 2.179467 0.551802
0.960226 2.172383 0.551332
0.977255 2.173048 0.552079
0.999434 2.194124 0.556007
1.015831 2.191484 0.556294
1.030795 2.183225 0.555733
1.045915 2.175672 0.555303
1.062588 2.173956 0.555802
1.080913 2.178118 0.557240
1.099591 2.183193 0.558849
1.111640 2.164593 0.556787
1.124818 2.150334 0.555421
1.140291 2.144143 0.555337
1.157764 2.144619 0.556324
1.178032 2.154034 0.558743
1.198526 2.163649 0.561225
1.215729 2.162305 0.562009
1.231197 2.155377 0.561936
1.249833 2.158180 0.563427
1.263112 2.144493 0.562328
1.279644 2.140693 0.562819
1.294501 2.131891 0.562535
1.307910 2.118968 0.561612
1.325874 2.119160 0.562805
1.343452 2.118061 0.563814
1.351460 2.090407 0.560574
-1.744954 2.499639 0.656340
-1.718506 2.512899 0.660133
-1.697412 2.504338 0.659290
-1.663664 2.469964 0.653953
-1.639941 2.492808 0.658453
-1.612846 2.472878 0.655209
-1.590466 2.463125 0.653575
-1.577875 2.474864 0.655474
-1.564153 2.484803 0.656952
-1.547568 2.489027 0.657347
-1.528553 2.488292 0.656792
-1.506850 2.481821 0.655159
-1.488960 2.484317 0.654942
-1.472145 2.489705 0.655113
-1.455163 2.495147 0.655195
-1.439999 2.505337 0.655986
-1.415840 2.494369 0.653127
-1.389020 2.476861 0.649098
-1.365618 2.467558 0.646380
-1.348042 2.472780 0.646031
-1.328686 2.473773 0.644912
-1.309346 2.474954 0.643768
-1.287964 2.470932 0.641709
-1.269114 2.473562 0.640713
-1.250169 2.476051 0.639654
