ply
format ascii 1.0
comment ---
element vertex 1701
property float x
property float y
property float z
element face 0
property list uchar uint vertex_indices
end_header
-3.999304 0.565148 0.255663
-3.999050 0.581698 0.259199
-4.006053 0.601439 0.264937
-4.007496 0.618896 0.269013
-4.000503 0.632704 0.270530
-3.991823 0.645746 0.271523
-3.988877 0.661366 0.274267
-3.984891 0.676548 0.276693
-3.981735 0.692146 0.279378
-3.975154 0.706172 0.281002
-3.976041 0.723767 0.284954
-3.981911 0.743860 0.290482
-4.016037 0.795590 0.308700
-3.973554 0.792070 0.299001
-3.968332 0.807017 0.301079
-3.962241 0.821549 0.302882
-3.957221 0.836658 0.305028
-3.959934 0.855862 0.309672
-3.965012 0.876453 0.315105
-3.960901 0.892271 0.317583
-3.952531 0.905826 0.318677
-3.942528 0.918485 0.319234
-3.929025 0.929180 0.318632
-3.931633 0.948869 0.323334
-3.939570 0.971731 0.329830
-3.948650 0.995461 0.336748
-3.942454 1.010544 0.338605
-3.937377 1.026320 0.340843
-3.927638 1.039379 0.341517
-3.924997 1.056694 0.344588
-3.920721 1.073103 0.347120
-3.917449 1.090195 0.350006
-3.925158 1.114183 0.356667
-3.927076 1.134769 0.361383
-3.931837 1.157312 0.367110
-3.932296 1.177295 0.371385
-3.922371 1.190694 0.372071
-3.922851 1.210902 0.376392
-3.923240 1.231193 0.380710
-3.912692 1.244320 0.381200
-3.913981 1.265434 0.385877
-3.912144 1.284576 0.389474
-3.918320 1.309363 0.395955
-3.921021 1.331964 0.401237
-3.917882 1.350644 0.404455
-3.917830 1.371624 0.408809
-3.908054 1.385770 0.409663
-3.901756 1.402452 0.411786
-3.902320 1.424232 0.416433
-3.889268 1.436090 0.416107
-3.890774 1.458809 0.421148
-3.893716 1.482801 0.426758
-3.890660 1.502421 0.430176
-3.873057 1.510940 0.428178
-3.881412 1.539583 0.435907
-3.879997 1.560840 0.440012
-3.802700 1.657140 0.443396
-3.686311 1.626085 0.412011
-3.658698 1.624607 0.405779
-3.655561 1.644535 0.409222
-3.644380 1.657400 0.409478
-3.632475 1.669608 0.409441
-3.628228 1.688789 0.412486
-3.641871 1.724582 0.422802
-3.645604 1.751598 0.429175
-3.647679 1.777330 0.434925
-3.638442 1.792574 0.436078
-3.626873 1.805624 0.436275
-3.620314 1.823521 0.438547
-3.629357 1.856755 0.447333
-3.614228 1.866537 0.446085
-3.604966 1.882098 0.447287
-3.609772 1.911859 0.454439
-3.610156 1.937452 0.459777
-3.604342 1.956935 0.462521
-3.615891 1.994521 0.472727
-3.598086 2.001895 0.470391
-3.590454 2.019897 0.472429
-3.587781 2.043282 0.476640
-3.588684 2.070718 0.482451
-3.582064 2.090261 0.485014
-3.580889 2.115906 0.490002
-3.572836 2.134178 0.491988
-3.572200 2.160854 0.497296
-3.572049 2.188348 0.502872
-3.566401 2.209857 0.506029
-3.559526 2.230124 0.508662
-3.560605 2.259789 0.514935
-3.565462 2.294221 0.522997
-3.570728 2.329566 0.531329
-3.568986 2.356965 0.536513
-3.565532 2.382585 0.540956
-3.554358 2.399035 0.541847
-3.546759 2.419971 0.544424
-3.552380 2.457536 0.553258
-3.557483 2.494951 0.561942
-3.538872 2.502749 0.559429
-3.549617 2.548108 0.570946
-3.535710 2.562201 0.570725
-3.527516 2.583807 0.573271
-3.529604 2.619191 0.580851
-3.528162 2.650338 0.586792
-3.516896 2.668638 0.587974
-3.510829 2.694149 0.591747
-3.505984 2.721625 0.596177
-3.493996 2.739508 0.597094
-3.483753 2.759974 0.598906
-3.478191 2.787269 0.603118
-3.451631 2.784828 0.596706
-3.429549 2.788594 0.592524
-3.409620 2.795369 0.589413
-3.386031 2.796664 0.584385
-3.357773 2.790806 0.576880
-3.327868 2.782133 0.568438
-3.301429 2.778357 0.561738
-3.272989 2.771217 0.553912
-3.255001 2.780001 0.551585
-3.224929 2.769768 0.542763
-3.201787 2.770145 0.537592
-3.168559 2.754131 0.526897
-3.144765 2.752917 0.521249
-3.128396 2.763694 0.519637
-3.110999 2.772826 0.517460
-3.076316 2.752955 0.505641
-3.039502 2.728848 0.492497
-3.015965 2.726830 0.486707
-2.993300 2.726115 0.481362
-2.970503 2.724984 0.475899
-2.946429 2.721393 0.469653
-2.920249 2.713769 0.462129
-2.891361 2.700876 0.452947
-2.868962 2.699455 0.447489
-2.846293 2.697330 0.441824
-2.825289 2.698120 0.437105
-2.803317 2.696909 0.431767
-2.781258 2.695325 0.426332
-2.759579 2.694258 0.421080
-2.739407 2.695955 0.416710
-2.718700 2.696422 0.411973
-2.698080 2.696865 0.407250
-2.679099 2.700463 0.403518
-2.658693 2.700950 0.398850
-2.631855 2.687660 0.390020
-2.611247 2.687036 0.385092
-2.590032 2.684795 0.379713
-2.568917 2.682400 0.374331
-2.552817 2.690721 0.372196
-2.531467 2.687104 0.366535
-2.509648 2.681924 0.360470
-2.493525 2.689313 0.358173
-2.475371 2.691687 0.354444
-2.449527 2.675425 0.345331
-2.428057 2.668682 0.339092
-2.408112 2.664889 0.333794
-2.388004 2.659979 0.328260
-2.371645 2.663641 0.325276
-2.356035 2.668600 0.322739
-2.339133 2.669645 0.319163
-2.331106 2.692984 0.321997
-2.319007 2.705411 0.321795
-3.845097 -0.294725 0.017869
-3.860889 -0.280519 0.024050
-3.861783 -0.268135 0.026848
-3.867131 -0.254863 0.030763
-3.867339 -0.242137 0.033542
-3.860289 -0.230374 0.034668
-3.846923 -0.219529 0.034339
-3.840903 -0.207396 0.035791
-3.845068 -0.193393 0.039724
-3.837583 -0.181276 0.040910
-3.839196 -0.167426 0.044324
-3.840738 -0.153445 0.047766
-3.840642 -0.139646 0.050848
-3.843521 -0.125151 0.054694
-4.049732 -0.054124 0.112077
-4.045276 -0.039820 0.114430
-4.058888 -0.021545 0.121306
-4.074015 -0.002722 0.128612
-4.067130 0.011297 0.130424
-4.056775 0.024494 0.131355
-4.053458 0.039314 0.134063
-4.056421 0.055678 0.138379
-4.057413 0.071624 0.142203
-4.040863 0.083162 0.141512
-4.054290 0.102336 0.148553
-4.054917 0.118298 0.152299
-4.043519 0.131052 0.152904
-4.052266 0.149255 0.158775
-4.060850 0.167533 0.164625
-4.051942 0.180933 0.165860
-4.043298 0.194343 0.167144
-4.031676 0.206805 0.167611
-4.046330 0.227089 0.175107
-4.037302 0.240292 0.176248
-4.035435 0.255661 0.179308
-4.037722 0.272354 0.183492
-4.038351 0.288566 0.187228
-4.035200 0.303574 0.189927
-4.036739 0.320143 0.193911
-4.034347 0.335428 0.196810
-4.023573 0.347839 0.197374
-4.008426 0.358641 0.196691
-4.003980 0.373113 0.198973
-4.008703 0.390878 0.203829
-4.011584 0.408060 0.208176
-4.008734 0.423189 0.210904
-4.006083 0.438406 0.213685
-4.012037 0.456926 0.218926
-4.014304 0.474131 0.223125
-4.015289 0.490907 0.226963
-4.007812 0.504373 0.228354
-4.008635 0.521164 0.232149
-4.005517 0.536406 0.234798
-4.004308 0.552464 0.238007
-4.003292 0.568649 0.241276
-4.006426 0.586653 0.245777
-4.008922 0.604482 0.250104
-4.008521 0.621137 0.253581
-4.000420 0.634444 0.254759
-3.990562 0.646940 0.255398
-3.986661 0.662104 0.257821
-3.982657 0.677250 0.260214
-3.976537 0.691439 0.261963
-3.971667 0.706225 0.264091
-3.976907 0.725866 0.269320
-3.988526 0.748735 0.276540
-3.969838 0.791835 0.281756
-3.963347 0.806098 0.283409
-3.957889 0.820907 0.285386
-3.954446 0.836790 0.288000
-3.965047 0.860108 0.295071
-3.963321 0.877100 0.298264
-3.960372 0.893514 0.301079
-3.955833 0.909129 0.303393
-3.945629 0.921675 0.303889
-3.935991 0.934516 0.304560
-3.933784 0.951523 0.307637
-3.936835 0.971604 0.312441
-3.939387 0.991549 0.317110
-3.942764 1.012118 0.322077
-3.935757 1.026740 0.323648
-3.927980 1.040931 0.324966
-3.923079 1.056869 0.327241
-3.914867 1.070852 0.328420
-3.914137 1.089445 0.332107
-3.912566 1.107631 0.335533
-3.918897 1.130882 0.341649
-3.935134 1.160630 0.351169
-3.939423 1.183070 0.356687
-3.933773 1.199261 0.358840
-3.932551 1.218410 0.362524
-3.929512 1.236476 0.365604
-3.925092 1.253718 0.368223
-3.915206 1.267343 0.368954
-3.913834 1.286787 0.372659
-3.906229 1.302054 0.374200
-3.916976 1.330154 0.382214
-3.928134 1.358846 0.390434
-3.926198 1.378534 0.394063
-3.917467 1.393462 0.395291
-3.912623 1.411242 0.397917
-3.898694 1.422440 0.397288
-3.895879 1.441827 0.400665
-3.893270 1.461488 0.404139
-3.902495 1.490222 0.411949
-3.896891 1.507933 0.414393
-3.883152 1.519448 0.413861
-3.859767 1.523399 0.409757
-3.889831 1.569239 0.425432
-3.762029 1.600610 0.404957
-3.809146 1.686193 0.432304
-3.723364 1.658593 0.408620
-3.652381 1.619323 0.385676
-3.658013 1.646935 0.392477
-3.648212 1.661022 0.393274
-3.629223 1.666823 0.390447
-3.613337 1.675317 0.388820
-3.623086 1.707352 0.397381
-3.651736 1.757353 0.413576
-3.641965 1.771971 0.414477
-3.634914 1.789198 0.416480
-3.627993 1.806632 0.418550
-3.628418 1.831258 0.423628
-3.621468 1.848904 0.425730
-3.612579 1.864727 0.427050
-3.609832 1.886722 0.430917
-3.612303 1.914140 0.436983
-3.612278 1.939302 0.442061
-3.611102 1.963519 0.446701
-3.609308 1.987314 0.451122
-3.603164 2.006771 0.453741
-3.588385 2.017239 0.452710
-3.585535 2.040370 0.456764
-3.581423 2.062341 0.460311
-3.586111 2.094049 0.467687
-3.583183 2.117767 0.471831
-3.579101 2.140419 0.475511
-3.571878 2.159748 0.477849
-3.574857 2.190724 0.484698
-3.573141 2.216700 0.489537
-3.562811 2.233018 0.490595
-3.556010 2.253506 0.493237
-3.565356 2.293104 0.503157
-3.573124 2.331358 0.512464
-3.566164 2.352487 0.515186
-3.551197 2.364106 0.514285
-3.553037 2.396219 0.521078
-3.562381 2.437969 0.531399
-3.559276 2.464805 0.536064
-3.558596 2.494976 0.541910
-3.546998 2.511641 0.542709
-3.535326 2.528300 0.543485
-3.543760 2.571081 0.553783
-3.529191 2.584399 0.553255
-3.521402 2.606699 0.555969
-3.525245 2.644725 0.564309
-3.524605 2.677242 0.570579
-3.513874 2.696451 0.572019
-3.504849 2.718161 0.574317
-3.492067 2.734865 0.574801
-3.482056 2.755569 0.576670
-3.462860 2.763458 0.574003
-3.463712 2.799980 0.581337
-3.434833 2.794044 0.573819
-3.413050 2.798134 0.569814
-3.390717 2.801282 0.565495
-3.363888 2.797580 0.558838
-3.330981 2.784433 0.548989
-3.299850 2.773511 0.539957
-3.275788 2.773037 0.534514
-3.254533 2.776726 0.530493
-3.239764 2.790499 0.529861
-3.206952 2.775707 0.519668
-3.169303 2.752640 0.506785
-3.145549 2.751448 0.501225
-3.135266 2.772166 0.502900
-3.106144 2.761900 0.494369
-3.080977 2.757867 0.487917
-3.037077 2.721787 0.471080
-3.009134 2.712105 0.462900
-2.991355 2.719675 0.460315
-2.970628 2.722079 0.456065
-2.944475 2.714742 0.448713
-2.917537 2.705659 0.440842
-2.894325 2.702970 0.435031
-2.873039 2.703591 0.430282
-2.852475 2.705401 0.425917
-2.827579 2.698934 0.418981
-2.805803 2.698078 0.413820
-2.782400 2.693885 0.407646
-2.758840 2.689099 0.401319
-2.738159 2.689689 0.396668
-2.715273 2.685683 0.390636
-2.699585 2.695940 0.388959
-2.681679 2.701684 0.385915
-2.659772 2.699028 0.380359
-2.636079 2.692294 0.373620
-2.613849 2.688229 0.367725
-2.592655 2.686001 0.362419
-2.570892 2.682154 0.356680
-2.552368 2.685037 0.352967
-2.528631 2.675936 0.345791
-2.513000 2.684613 0.343857
-2.499220 2.697347 0.343127
-2.480115 2.697537 0.338809
-2.454201 2.681136 0.329795
-2.428428 2.664094 0.320706
-2.413539 2.672431 0.318947
-2.401897 2.688358 0.319393
-2.359854 2.628314 0.298464
-2.353225 2.655371 0.302213
-2.351403 2.694711 0.309424
-2.333731 2.693244 0.305275
-2.314834 2.687702 0.300096
-3.847306 -0.291882 0.005465
-3.864062 -0.277546 0.011751
-3.864524 -0.265242 0.014407
-3.862928 -0.253034 0.016660
-3.861554 -0.240604 0.019028
-3.857288 -0.228456 0.020787
-3.841935 -0.217993 0.020016
-3.837148 -0.205708 0.021742
-3.834720 -0.192895 0.024066
-3.842278 -0.178166 0.028792
-3.835205 -0.165914 0.030110
-3.838613 -0.151623 0.033951
-3.850198 -0.135596 0.039794
-3.855678 -0.120557 0.044229
-4.056050 -0.035246 0.102612
-4.060121 -0.019012 0.107067
-4.057967 -0.004058 0.110020
-4.075243 0.015389 0.117788
-4.061938 0.027912 0.118015
-4.059988 0.043068 0.121057
-4.061337 0.059059 0.124932
-4.062421 0.075040 0.128750
-4.063916 0.091178 0.132682
-4.044414 0.101907 0.131285
-4.050315 0.119204 0.136333
-4.056949 0.136791 0.141585
-4.054070 0.151855 0.144402
-4.054027 0.167713 0.147948
-4.055512 0.184036 0.151892
-4.041368 0.195845 0.151755
-4.037797 0.210668 0.154359
-4.027377 0.223412 0.155149
-4.036023 0.241931 0.160961
-4.035264 0.257628 0.164291
-4.033706 0.273090 0.167404
-4.038334 0.290564 0.172172
-4.028088 0.303230 0.172941
-4.028795 0.319475 0.176650
-4.032811 0.336882 0.181260
-4.028093 0.351355 0.183494
-4.014450 0.362689 0.183270
-4.011322 0.377650 0.185910
-4.011989 0.393984 0.189592
-4.018484 0.412501 0.194895
-4.008347 0.424948 0.195576
-4.007538 0.440846 0.198848
-4.013315 0.459300 0.203973
-4.017087 0.477088 0.208547
-4.009820 0.490622 0.210003
-4.013197 0.508375 0.214477
-4.007559 0.522572 0.216385
-4.000962 0.536369 0.218010
-4.003981 0.554147 0.222396
-4.009249 0.572966 0.227447
-4.010747 0.590297 0.231420
-4.008057 0.605897 0.234182
-4.004983 0.621365 0.236832
-3.999641 0.635859 0.238815
-3.991330 0.649029 0.239917
-3.987206 0.664081 0.242250
-3.983328 0.679273 0.244655
-3.979310 0.694431 0.247020
-3.973362 0.708709 0.248806
-3.966993 0.722796 0.250461
-3.974242 0.743484 0.256235
-3.956602 0.786804 0.261670
-3.957030 0.804485 0.265419
-3.953981 0.820476 0.268110
-3.957764 0.840076 0.272927
-3.961678 0.859886 0.277809
-3.958770 0.876212 0.280584
-3.949389 0.889119 0.281336
-3.950310 0.907619 0.285328
-3.946930 0.923868 0.287978
-3.946084 0.941590 0.291443
-3.936576 0.954531 0.292160
-3.930918 0.969655 0.294104
-3.927786 0.986272 0.296866
-3.929070 1.005532 0.301064
-3.926141 1.022444 0.303920
-3.927448 1.041955 0.308167
-3.925196 1.059462 0.311276
-3.922277 1.076654 0.314182
-3.919067 1.093751 0.317006
-3.917033 1.111661 0.320232
-3.920794 1.133309 0.325401
-3.933692 1.160937 0.333652
-3.941408 1.185544 0.340226
-3.937298 1.202723 0.342869
-3.933334 1.220076 0.345574
-3.932884 1.239838 0.349485
-3.924741 1.254586 0.350801
-3.923631 1.274116 0.354525
-3.911907 1.286521 0.354627
-3.897415 1.296994 0.353769
-3.888943 1.311604 0.354980
-3.889295 1.332458 0.359264
-3.929411 1.381775 0.377463
-3.918034 1.394795 0.377750
-3.913878 1.413049 0.380577
-3.909578 1.431293 0.383369
-3.899706 1.445500 0.384200
-3.894149 1.462952 0.386571
-3.901341 1.490129 0.393524
-3.902009 1.512594 0.398182
-3.887359 1.523411 0.397340
-3.883374 1.542488 0.400355
-3.838593 1.529542 0.388522
-3.800462 1.565552 0.387890
-3.792347 1.672255 0.407614
-3.727046 1.662097 0.392080
-3.657818 1.624359 0.370207
-3.645319 1.635911 0.369933
-3.650877 1.663600 0.376621
-3.609582 1.649226 0.365197
-3.618094 1.679781 0.373066
-3.629650 1.713488 0.382193
-3.641255 1.747649 0.391419
-3.639447 1.769618 0.395428
-3.632912 1.787274 0.397594
-3.632962 1.811332 0.402400
-3.636338 1.838820 0.408579
-3.619215 1.846565 0.406563
-3.610904 1.862898 0.408087
-3.615871 1.892520 0.415013
-3.613782 1.915369 0.419120
-3.611902 1.938621 0.423349
-3.614829 1.966999 0.429594
-3.610260 1.987917 0.432792
-3.601188 2.004281 0.434145
-3.591098 2.019637 0.435082
-3.585116 2.039415 0.437749
-3.587234 2.068040 0.443857
-3.586220 2.093569 0.448693
-3.586506 2.120769 0.454128
-3.576828 2.137213 0.455347
-3.568384 2.155108 0.457107
-3.567065 2.181144 0.461962
-3.569502 2.211722 0.468496
-3.565053 2.234721 0.472087
-3.557823 2.254690 0.474491
-3.557816 2.283278 0.480105
-3.565463 2.321248 0.489169
-3.560229 2.344304 0.492584
-3.551711 2.363598 0.494562
-3.539324 2.378306 0.494819
-3.542508 2.412244 0.502127
-3.557990 2.461909 0.515108
-3.553328 2.487003 0.519012
-3.552405 2.517096 0.524678
-3.541759 2.535086 0.525912
-3.536240 2.559830 0.529545
-3.536972 2.592995 0.536140
-3.531997 2.619056 0.540130
-3.530797 2.650434 0.545950
-3.528978 2.681375 0.551545
-3.516916 2.698774 0.552315
-3.507789 2.720327 0.554510
-3.498768 2.742234 0.556788
-3.487827 2.761669 0.558167
-3.475861 2.779826 0.559070
-3.463181 2.797110 0.559641
-3.446771 2.809138 0.558387
-3.416579 2.801076 0.550283
-3.388672 2.796006 0.543239
-3.367044 2.799976 0.539280
-3.332093 2.783758 0.528553
-3.306302 2.780938 0.522371
-3.285969 2.786253 0.518922
-3.264462 2.789661 0.514843
-3.240410 2.788954 0.509414
-3.210575 2.778858 0.500923
-3.179902 2.767015 0.491906
-3.157330 2.767873 0.487070
-3.132468 2.764818 0.480979
-3.105077 2.757324 0.473480
-3.066364 2.730508 0.459819
-3.030891 2.708415 0.447758
-3.005687 2.703262 0.441157
-2.989681 2.713775 0.439540
-2.972030 2.721478 0.437019
-2.945291 2.713075 0.429439
-2.921396 2.709414 0.423375
-2.895514 2.701898 0.416137
-2.874553 2.703075 0.411621
-2.854280 2.705392 0.407464
-2.835041 2.709534 0.403873
-2.809739 2.702066 0.396746
-2.787446 2.700032 0.391305
-2.761236 2.690130 0.383509
-2.738814 2.687262 0.377874
-2.719421 2.690171 0.373994
-2.703252 2.699459 0.372027
-2.683760 2.701952 0.368043
-2.658574 2.692461 0.360544
-2.636899 2.689843 0.355117
-2.617633 2.692007 0.351126
-2.597031 2.691051 0.346257
-2.574069 2.684604 0.339838
-2.551252 2.677966 0.333424
-2.532550 2.679998 0.329559
-2.511873 2.677200 0.324360
-2.499070 2.691995 0.324222
-2.486685 2.707685 0.324358
-2.456692 2.681738 0.312790
-2.434144 2.672360 0.306002
-2.417466 2.676373 0.303048
-2.387612 2.647530 0.291027
-2.368795 2.644717 0.286361
-2.348081 2.679924 0.288523
-2.337417 2.696284 0.289345
-2.299618 2.641167 0.270753
-3.911634 -0.280394 0.006904
-3.877718 -0.273073 0.001795
-3.873991 -0.261361 0.003477
-3.866257 -0.250079 0.004320
-3.854104 -0.239355 0.004216
-3.851785 -0.226962 0.006390
-3.845823 -0.215010 0.007789
-3.835018 -0.203765 0.008125
-3.854590 -0.187140 0.015487
-3.851590 -0.174237 0.017719
-3.839541 -0.162891 0.017890
-3.832520 -0.150578 0.019251
-3.838793 -0.135628 0.023754
-3.876151 -0.114308 0.035629
-4.066104 -0.046130 0.087125
-4.059398 -0.032274 0.088937
-4.055170 -0.017861 0.091352
-4.073009 0.001537 0.099101
-4.070443 0.016499 0.101964
-4.070250 0.032050 0.105412
-4.056807 0.044475 0.105631
-4.061699 0.061303 0.110337
-4.066870 0.078297 0.115130
-4.062492 0.092944 0.117573
-4.047778 0.104888 0.117433
-4.052195 0.121799 0.122055
-4.060816 0.139929 0.127747
-4.059103 0.155322 0.130848
-4.055870 0.170298 0.133560
-4.045339 0.183174 0.134402
-4.033576 0.195605 0.134904
-4.031475 0.210813 0.137864
-4.041463 0.229684 0.143945
-4.039926 0.245138 0.147054
-4.040001 0.261108 0.150578
-4.042231 0.277792 0.154665
-4.035221 0.291536 0.156323
-4.012003 0.299898 0.153676
-4.018599 0.318020 0.158894
-4.037178 0.340316 0.167323
-4.022913 0.351505 0.166993
-4.017998 0.365854 0.169146
-4.015520 0.381054 0.171946
-4.024474 0.400399 0.177843
-4.014563 0.412959 0.178618
-4.009859 0.427392 0.180798
-4.009832 0.443584 0.184253
-4.015414 0.461971 0.189258
-4.004406 0.474018 0.189680
-4.004263 0.490277 0.193103
-4.009706 0.508817 0.198090
-4.010043 0.525403 0.201661
-4.004524 0.539642 0.203585
-4.003950 0.555936 0.206901
-4.005705 0.573265 0.210884
-4.003624 0.589037 0.213781
-3.998101 0.603357 0.215693
-3.989518 0.616339 0.216718
-3.985839 0.631470 0.219147
-3.985228 0.648010 0.222465
-3.982818 0.663795 0.225267
-3.981520 0.680138 0.228396
-3.981139 0.696971 0.231802
-3.973633 0.710506 0.233115
-3.962221 0.722164 0.233264
-3.955814 0.736195 0.234884
-3.973602 0.779479 0.247286
-3.956459 0.788325 0.245702
-3.949726 0.802351 0.247235
-3.952264 0.821156 0.251577
-3.955699 0.840552 0.256213
-3.954730 0.857766 0.259526
-3.949412 0.872749 0.261515
-3.942400 0.886853 0.262984
-3.940769 0.903905 0.266118
-3.946924 0.925331 0.271684
-3.945160 0.942524 0.274811
-3.939102 0.957382 0.276606
-3.931098 0.971164 0.277791
-3.926283 0.986793 0.279981
-3.924503 1.004242 0.283141
-3.923498 1.022238 0.286563
-3.921856 1.039958 0.289797
-3.922299 1.059030 0.293718
-3.922441 1.078045 0.297563
-3.922517 1.097143 0.301409
-3.925067 1.117905 0.306081
-3.926487 1.138117 0.310413
-3.932160 1.161177 0.316165
-3.929263 1.178943 0.319136
-3.931826 1.200344 0.323927
-3.936032 1.222992 0.329294
-3.928700 1.238190 0.330853
-3.928997 1.258533 0.334969
-3.924030 1.275460 0.337343
-3.921323 1.294003 0.340492
-3.902982 1.301854 0.338362
-3.887954 1.311902 0.337335
-3.931657 1.363286 0.356358
-3.904039 1.364654 0.351063
-3.919594 1.396838 0.360592
-3.917221 1.416371 0.363992
-3.912023 1.433952 0.366433
-3.908305 1.452712 0.369403
-3.895177 1.464526 0.369096
-3.895642 1.486591 0.373563
-3.898575 1.510716 0.378934
-3.897484 1.531945 0.382918
-3.867712 1.530955 0.376703
-3.801887 1.501266 0.357519
-3.816551 1.693271 0.398406
-3.721829 1.657866 0.372214
-3.645876 1.614137 0.348186
-3.629897 1.622465 0.346581
-3.614828 1.631521 0.345302
-3.616703 1.655821 0.350462
-3.632283 1.692857 0.360910
-3.643999 1.726804 0.369963
-3.651612 1.757341 0.377509
-3.608574 1.740619 0.365466
-3.622454 1.777330 0.375495
-3.637384 1.815509 0.386023
-3.636868 1.839236 0.390568
-3.623271 1.850393 0.389979
-3.607198 1.859071 0.388398
-3.613833 1.890277 0.395857
-3.615137 1.916479 0.401246
-3.611964 1.938391 0.404878
-3.612521 1.964300 0.410050
-3.613476 1.990870 0.415429
-3.604507 2.007333 0.416802
-3.590009 2.018030 0.415913
-3.584730 2.038504 0.418815
-3.590264 2.070755 0.426225
-3.596107 2.103717 0.433832
-3.585564 2.119102 0.434652
-3.575769 2.135365 0.435791
-3.568218 2.154202 0.437887
-3.562047 2.174713 0.440587
-3.558362 2.198212 0.444373
-3.559607 2.227592 0.450311
-3.562793 2.259555 0.457143
-3.561097 2.286169 0.461927
-3.557132 2.310368 0.465769
-3.550440 2.331533 0.468455
-3.551984 2.362818 0.474794
-3.553188 2.394057 0.481046
-3.546563 2.416026 0.483882
-3.543914 2.443130 0.488525
-3.559640 2.493602 0.501474
-3.550071 2.512752 0.503134
-3.540857 2.532496 0.504975
-3.542082 2.565896 0.511603
-3.538882 2.593941 0.516274
-3.535686 2.622316 0.521001
-3.536900 2.656898 0.527828
-3.515332 2.661283 0.524107
-3.514930 2.694292 0.530278
-3.502824 2.711669 0.531002
-3.498794 2.740371 0.535571
-3.494760 2.769424 0.540196
-3.481035 2.785132 0.540234
-3.467287 2.800906 0.540269
-3.447991 2.808772 0.537624
-3.415221 2.796925 0.528385
-3.382986 2.785405 0.519312
-3.348957 2.770766 0.509260
-3.325345 2.771295 0.504273
-3.309539 2.783507 0.503140
-3.290299 2.790502 0.500282
-3.265946 2.789508 0.494820
-3.238187 2.782954 0.487577
-3.211134 2.777194 0.480624
-3.185432 2.773288 0.474297
-3.157084 2.764827 0.466541
-3.138809 2.772511 0.463957
-3.106182 2.756408 0.453834
-3.066162 2.727391 0.439699
-3.033573 2.710143 0.429352
-3.011289 2.709992 0.424406
-2.993597 2.717626 0.421890
-2.973364 2.720817 0.417990
-2.952600 2.722976 0.413774
-2.926572 2.715585 0.406636
-2.902524 2.711447 0.400523
-2.879920 2.709692 0.395158
-2.859961 2.712639 0.391231
-2.833873 2.703973 0.383815
-2.813947 2.706635 0.379830
-2.790916 2.703205 0.374036
-2.763316 2.690610 0.365551
-2.744963 2.695737 0.362349
-2.726035 2.699639 0.358793
-2.707175 2.703557 0.355252
-2.680743 2.691865 0.347180
-2.658931 2.689199 0.341782
-2.638277 2.688637 0.337025
-2.619788 2.692384 0.333538
-2.598417 2.689728 0.328248
-2.574562 2.681267 0.321352
-2.549729 2.670084 0.313751
-2.526398 2.661595 0.306984
-2.511058 2.670582 0.305189
-2.498563 2.685900 0.305192
-2.479158 2.685088 0.300735
-2.462010 2.689061 0.297667
-2.452016 2.709671 0.299241
-2.427003 2.693922 0.290870
-2.394498 2.658769 0.277317
-2.379556 2.665631 0.275351
-2.363245 2.668531 0.272383
-2.361630 2.708218 0.279419
-2.349351 2.720638 0.279142
-2.318011 2.682722 0.265472
-3.878008 -0.282525 -0.013585
-3.875215 -0.270917 -0.011798
-3.873087 -0.259015 -0.009794
-3.860717 -0.248487 -0.009983
-3.845604 -0.238296 -0.010734
-3.845470 -0.225622 -0.008112
-3.848117 -0.212301 -0.004806
-3.852133 -0.198547 -0.001128
-3.861102 -0.183720 0.003730
-3.849317 -0.172404 0.003956
-3.839010 -0.160783 0.004542
-3.828087 -0.149247 0.005009
-3.831570 -0.134883 0.008803
-3.935360 -0.100299 0.035796
-3.946398 -0.083605 0.041536
-4.082275 -0.025122 0.079824
-4.078049 -0.010615 0.082253
-4.072505 0.003626 0.084383
-4.076778 0.020140 0.088850
-4.071683 0.034553 0.091107
-4.057719 0.046834 0.091237
-4.051609 0.060951 0.093238
-4.064065 0.079710 0.099730
-4.057708 0.093819 0.101679
-4.056005 0.109117 0.104757
-4.044743 0.121882 0.105486
-4.056782 0.140896 0.111941
-4.058648 0.157248 0.115904
-4.053960 0.171798 0.118239
-4.040903 0.183921 0.118469
-4.030940 0.196838 0.119445
-4.030439 0.212499 0.122787
-4.029984 0.228194 0.126137
-4.044327 0.248478 0.133255
-4.041428 0.263529 0.135991
-4.040210 0.279113 0.139150
-4.036061 0.293762 0.141548
-4.023529 0.305631 0.141758
-4.017170 0.319466 0.143547
-4.020927 0.336711 0.147967
-4.034481 0.357419 0.154971
-4.017528 0.367589 0.153948
-4.018403 0.383973 0.157614
-4.017763 0.399856 0.160878
-4.007132 0.412101 0.161468
-4.006634 0.428051 0.164755
-4.012394 0.446406 0.169731
-4.005940 0.460182 0.171412
-4.002659 0.475170 0.173943
-4.003376 0.491749 0.177561
-4.012599 0.511792 0.183518
-4.014631 0.529071 0.187517
-4.009070 0.543306 0.189423
-4.005296 0.558281 0.191817
-3.999534 0.572434 0.193653
-3.993772 0.586583 0.195479
-3.985635 0.599701 0.196631
-3.983732 0.615531 0.199530
-3.984288 0.632501 0.203129
-3.984240 0.649274 0.206565
-3.983043 0.665594 0.209680
-3.980606 0.681400 0.212444
-3.976971 0.696693 0.214866
-3.974970 0.712795 0.217761
-3.963076 0.724210 0.217785
-3.952000 0.735964 0.218030
-3.974504 0.781530 0.231618
-3.955105 0.789225 0.229411
-3.951105 0.804616 0.231740
-3.949429 0.821246 0.234764
-3.953267 0.840822 0.239447
-3.950394 0.857003 0.242138
-3.947164 0.873055 0.244729
-3.940179 0.887141 0.246189
-3.939586 0.904729 0.249591
-3.936970 0.921295 0.252389
-3.942153 0.942285 0.257589
-3.937696 0.958008 0.259851
-3.934657 0.974592 0.262557
-3.929026 0.989753 0.264470
-3.925519 1.006193 0.267048
-3.923539 1.023602 0.270114
-3.921921 1.041318 0.273307
-3.918393 1.057979 0.275914
-3.917863 1.076540 0.279481
-3.919854 1.096768 0.283869
-3.922411 1.117497 0.288464
-3.930649 1.141959 0.294909
-3.925629 1.158232 0.297129
-3.920186 1.174295 0.299222
-3.926978 1.198359 0.305295
-3.933266 1.222320 0.311245
-3.930854 1.240735 0.314389
-3.920965 1.254246 0.315093
-3.926385 1.278122 0.320848
-3.916478 1.291732 0.321563
-3.909406 1.307306 0.323220
-3.917850 1.333757 0.330068
-3.931895 1.364426 0.338847
-3.933518 1.386598 0.343506
-3.933735 1.407934 0.347721
-3.906884 1.409743 0.342765
-3.905634 1.430119 0.346499
-3.899912 1.447316 0.348724
-3.895153 1.465308 0.351294
-3.893176 1.485496 0.354840
-3.890229 1.505077 0.358074
-3.881730 1.520490 0.359394
-3.877450 1.539230 0.362196
-3.829973 1.524032 0.349822
-3.845191 1.694682 0.386011
-3.840990 1.714495 0.389019
-3.810936 1.712166 0.382588
-3.690495 1.630922 0.342870
-3.638601 1.608011 0.328098
-3.624304 1.617735 0.327134
-3.621538 1.637723 0.330451
-3.624564 1.663088 0.335961
-3.625832 1.687094 0.340855
-3.642918 1.725900 0.351764
-3.649194 1.755147 0.358665
-3.625918 1.756939 0.354362
-3.624983 1.779713 0.358568
-3.626703 1.805222 0.363830
-3.630538 1.833021 0.369954
-3.622697 1.849703 0.371597
-3.610432 1.862093 0.371524
-3.601309 1.877600 0.372678
-3.616882 1.917987 0.383563
-3.612705 1.938857 0.386732
-3.609170 1.960537 0.390183
-3.618284 1.995476 0.398714
-3.608872 2.011485 0.399889
-3.596352 2.024271 0.399816
-3.586456 2.039852 0.400803
-3.589043 2.068907 0.406878
-3.595660 2.102652 0.414658
-3.588602 2.121810 0.416887
-3.574026 2.132770 0.416029
-3.567890 2.153125 0.418664
-3.561581 2.173435 0.421250
-3.557150 2.196031 0.424646
-3.554149 2.220468 0.428677
-3.562470 2.258283 0.437541
-3.565134 2.289958 0.444084
-3.556376 2.308481 0.445805
-3.556948 2.338274 0.451554
-3.564798 2.377196 0.460507
-3.569977 2.413380 0.468391
-3.557309 2.428060 0.468562
-3.548125 2.447117 0.470263
-3.547506 2.477062 0.475763
-3.550228 2.511592 0.482803
-3.544377 2.535593 0.486095
-3.535677 2.556148 0.488147
-3.539744 2.593543 0.495976
-3.527246 2.609606 0.496387
-3.521344 2.634540 0.499809
-3.515463 2.659770 0.503283
-3.507437 2.682363 0.505811
-3.506182 2.714474 0.511508
-3.496353 2.735123 0.513280
-3.489300 2.759852 0.516378
-3.481146 2.783307 0.519001
-3.467508 2.799184 0.519063
-3.441304 2.797031 0.513151
-3.412941 2.791471 0.506146
-3.386914 2.789023 0.500195
-3.355330 2.778046 0.491494
-3.327100 2.771680 0.484338
-3.308048 2.778930 0.481609
-3.287579 2.783959 0.478162
-3.264529 2.784896 0.473408
-3.235433 2.776177 0.465595
-3.203625 2.762785 0.456340
-3.177151 2.757467 0.449683
-3.163771 2.773067 0.449619
-3.134881 2.763427 0.441639
-3.111159 2.761958 0.436238
-3.071735 2.733999 0.422654
-3.044273 2.725494 0.415154
-3.018968 2.720322 0.408712
-2.999224 2.724490 0.405147
-2.976594 2.723536 0.400024
-2.952191 2.719258 0.393909
-2.928091 2.715258 0.387900
-2.902094 2.707562 0.380806
-2.881184 2.708844 0.376423
-2.858260 2.706250 0.370898
-2.833888 2.700709 0.364522
-2.813068 2.701600 0.360066
-2.795819 2.709192 0.357583
-2.769990 2.700095 0.350235
-2.749430 2.700951 0.345814
-2.730726 2.705323 0.342425
-2.708721 2.702924 0.337101
-2.682407 2.691435 0.329209
-2.660294 2.688100 0.323694
-2.638968 2.686069 0.318585
-2.619461 2.687565 0.314508
-2.593098 2.674071 0.306258
-2.572662 2.672803 0.301495
-2.551491 2.669535 0.296223
-2.528830 2.662477 0.289957
-2.514268 2.673152 0.288641
-2.495417 2.673839 0.284618
-2.476788 2.674590 0.280670
-2.461854 2.683542 0.279011
-2.443747 2.684623 0.275274
-2.432746 2.702307 0.276078
-2.400574 2.668039 0.262998
-2.382772 2.667820 0.259165
-2.372356 2.685438 0.260162
-2.361410 2.701427 0.260781
-2.353269 2.724283 0.263274
-2.286508 2.593940 0.225587
-3.860145 -0.282501 -0.030372
-3.859581 -0.270682 -0.028155
-3.865774 -0.257639 -0.024409
-3.882507 -0.242709 -0.018301
-3.838519 -0.237040 -0.025273
-3.841736 -0.223885 -0.021968
-3.850575 -0.209575 -0.017363
-3.852314 -0.196230 -0.014242
-3.841412 -0.184937 -0.013853
-3.841380 -0.171621 -0.011021
-3.835930 -0.159169 -0.009348
-3.831850 -0.146376 -0.007334
-3.830898 -0.132886 -0.004585
-4.041478 -0.031706 0.055905
-4.074462 -0.009210 0.066854
-4.073609 0.006051 0.070061
-4.069450 0.020606 0.072515
-4.069538 0.036185 0.075969
-4.060226 0.049552 0.077227
-4.054406 0.063734 0.079300
-4.040071 0.075759 0.079347
-4.046094 0.092907 0.084222
-4.055855 0.111134 0.090012
-4.053925 0.126374 0.093012
-4.029654 0.135538 0.090608
-4.041714 0.154570 0.096978
-4.046037 0.171568 0.101487
-4.045224 0.187159 0.104745
-4.037748 0.200813 0.106359
-4.024092 0.212570 0.106423
-4.024946 0.228621 0.110064
-4.033869 0.247203 0.115720
-4.037447 0.264225 0.120053
-4.033372 0.278865 0.122462
-4.022066 0.291140 0.123027
-4.024651 0.307915 0.127098
-4.023138 0.323372 0.130126
-4.022939 0.339293 0.133485
-4.029051 0.357433 0.138470
-4.027595 0.373010 0.141507
-4.009183 0.382549 0.140127
-4.011393 0.399408 0.144093
-4.009050 0.414654 0.146869
-4.002433 0.428320 0.148513
-4.007676 0.446452 0.153281
-4.007764 0.462705 0.156691
-4.004435 0.477673 0.159190
-4.012793 0.497274 0.164817
-4.017509 0.515559 0.169484
-4.012052 0.529814 0.171414
-4.007020 0.544240 0.173449
-4.003344 0.559233 0.175846
-3.993275 0.571539 0.176489
-3.983969 0.584121 0.177322
-3.981413 0.599593 0.180003
-3.985348 0.617956 0.184484
-3.985952 0.634946 0.188052
-3.981653 0.649799 0.190257
-3.977405 0.664698 0.192474
-3.977049 0.681423 0.195786
-3.979462 0.699514 0.199889
-3.976262 0.715049 0.202411
-3.969521 0.728927 0.203924
-3.961897 0.742377 0.205178
-3.963872 0.777831 0.212640
-3.964054 0.795299 0.216157
-3.952392 0.806823 0.216237
-3.946462 0.821254 0.217977
-3.947557 0.839370 0.221780
-3.946177 0.856287 0.224868
-3.948583 0.875304 0.229087
-3.947765 0.892710 0.232369
-3.947780 0.910660 0.235911
-3.943805 0.926510 0.238274
-3.942117 0.943692 0.241330
-3.937364 0.959229 0.243473
-3.931609 0.974242 0.245317
-3.930423 0.991930 0.248555
-3.925511 1.007539 0.250668
-3.921421 1.023685 0.253040
-3.919883 1.041415 0.256207
-3.918175 1.059141 0.259337
-3.918552 1.078233 0.263129
-3.919153 1.097591 0.267013
-3.928550 1.122556 0.273677
-3.924453 1.139279 0.276137
-3.921383 1.156728 0.278933
-3.920864 1.175905 0.282553
-3.929985 1.201468 0.289266
-3.920699 1.215205 0.290135
-3.913043 1.230032 0.291526
-3.920206 1.254822 0.297703
-3.909881 1.268007 0.298256
-3.914425 1.291363 0.303645
-3.919224 1.315103 0.309153
-3.922458 1.337963 0.314188
-3.925251 1.360705 0.319111
-3.921589 1.379037 0.321933
-3.909155 1.391147 0.321855
-3.902993 1.407793 0.323863
-3.887218 1.417439 0.322659
-3.902143 1.449798 0.331773
-3.899525 1.469383 0.335026
-3.886758 1.481403 0.334855
-3.882468 1.499878 0.337567
-3.878445 1.518659 0.340387
-3.870636 1.534589 0.341923
-3.856805 1.545821 0.341386
-3.806588 1.639641 0.349553
-3.822888 1.676265 0.359722
-3.693724 1.634032 0.326468
-3.638399 1.608098 0.310723
-3.624636 1.618259 0.309969
-3.632116 1.647390 0.316976
-3.635712 1.673330 0.322613
-3.631958 1.692816 0.325583
-3.635121 1.718806 0.331140
-3.633586 1.740678 0.334993
-3.636221 1.766645 0.340437
-3.627017 1.781630 0.341475
-3.626192 1.804682 0.345682
-3.624913 1.827492 0.349751
-3.622275 1.849165 0.353335
-3.617586 1.868985 0.356162
-3.608856 1.884914 0.357456
-3.597368 1.898129 0.357691
-3.621349 1.947351 0.371704
-3.612864 1.964004 0.373171
-3.608977 1.985486 0.376452
-3.609395 2.011629 0.381457
-3.603731 2.031613 0.384096
-3.591985 2.045258 0.384337
-3.590768 2.070236 0.388786
-3.590482 2.096460 0.393649
-3.584109 2.116273 0.396098
-3.574318 2.132439 0.397180
-3.566252 2.150599 0.398974
-3.564551 2.176044 0.403389
-3.560478 2.199036 0.406869
-3.560610 2.227067 0.412120
-3.552920 2.246315 0.414169
-3.556272 2.278638 0.420851
-3.561572 2.313655 0.428418
-3.558749 2.339402 0.432629
-3.566507 2.378178 0.441372
-3.570402 2.412764 0.448557
-3.559923 2.430097 0.449651
-3.551430 2.449998 0.451612
-3.531961 2.456275 0.448837
-3.552375 2.512978 0.463404
-3.531850 2.518175 0.460201
-3.533017 2.551270 0.466512
-3.527946 2.576647 0.470132
-3.526942 2.607657 0.475602
-3.521672 2.633373 0.479226
-3.521380 2.666065 0.485130
-3.509586 2.683567 0.485903
-3.503001 2.708338 0.489056
-3.494737 2.731055 0.491481
-3.480256 2.745311 0.491082
-3.473689 2.770822 0.494342
-3.462579 2.790146 0.495534
-3.443418 2.798037 0.492985
-3.417818 2.796492 0.487388
-3.394631 2.798256 0.482876
-3.370308 2.798159 0.477783
-3.328102 2.770975 0.464086
-3.316338 2.789258 0.464888
-3.295439 2.793712 0.461291
-3.265453 2.783969 0.453240
-3.234415 2.772179 0.444591
-3.202919 2.759224 0.435626
-3.186755 2.770360 0.434170
-3.162911 2.769126 0.428882
-3.138525 2.766801 0.423275
-3.103533 2.746703 0.412257
-3.078820 2.743181 0.406346
-3.050787 2.733794 0.398680
-3.026214 2.729949 0.392720
-3.001164 2.725024 0.386457
-2.984287 2.734115 0.384399
-2.954655 2.720687 0.375639
-2.926437 2.709315 0.367534
-2.901294 2.703078 0.360982
-2.879248 2.702200 0.356026
-2.856502 2.699832 0.350651
-2.829441 2.689149 0.342883
-2.816473 2.704767 0.342748
-2.795928 2.706032 0.338463
-2.772108 2.700775 0.332325
-2.751477 2.701465 0.327910
-2.730289 2.700855 0.323145
-2.709224 2.700258 0.318407
-2.684561 2.692072 0.311565
-2.662140 2.688068 0.305939
-2.642706 2.689948 0.301987
-2.618864 2.682257 0.295417
-2.596196 2.676582 0.289457
-2.573157 2.669630 0.283201
-2.551930 2.666138 0.277949
-2.533145 2.667620 0.274103
-2.513251 2.666229 0.269530
-2.495696 2.669713 0.266327
-2.479104 2.675048 0.263671
-2.458162 2.669795 0.258248
-2.427508 2.640744 0.246596
-2.404182 2.628013 0.239396
-2.396173 2.651737 0.241891
-2.386985 2.672511 0.243645
-2.375758 2.688014 0.244067
-2.363448 2.700432 0.243749
-2.333795 2.667794 0.231847
-2.338846 2.723885 0.242976
-3.835572 -0.283465 -0.048370
-3.849246 -0.269706 -0.043229
-3.856250 -0.256616 -0.039395
-3.837210 -0.247285 -0.040986
-3.832180 -0.235688 -0.039562
-3.840839 -0.221703 -0.035160
-3.847986 -0.207708 -0.031000
-3.843184 -0.195537 -0.029338
-3.836811 -0.183523 -0.027967
-3.846691 -0.168453 -0.023024
-3.837183 -0.156769 -0.022242
-3.833990 -0.143829 -0.020050
-3.834362 -0.130096 -0.017036
-4.069550 -0.068899 0.037999
-4.098763 -0.032522 0.051075
-4.064389 -0.024576 0.046705
-4.040955 -0.014465 0.044754
-4.046544 0.002065 0.049357
-4.060388 0.020634 0.055874
-4.050497 0.033785 0.057000
-4.059527 0.051471 0.062473
-4.040881 0.062460 0.061576
-4.039175 0.077578 0.064583
-4.048976 0.095685 0.070281
-4.054977 0.112933 0.075115
-4.028209 0.121500 0.072237
-4.031455 0.138020 0.076413
-4.036976 0.155238 0.081140
-4.041483 0.172256 0.085637
-4.042133 0.188235 0.089216
-4.040226 0.203497 0.092178
-4.023832 0.214430 0.091618
-4.036665 0.234120 0.098145
-4.035064 0.249500 0.101162
-4.033696 0.264964 0.104231
-4.032442 0.280478 0.107321
-4.036556 0.297757 0.111740
-4.037331 0.314004 0.115331
-4.012848 0.321791 0.112592
-4.018034 0.339490 0.117263
-4.029045 0.359300 0.123417
-4.025427 0.374107 0.125878
-4.023522 0.389524 0.128765
-4.017746 0.403552 0.130655
-4.015701 0.418933 0.133492
-4.007379 0.431985 0.134699
-4.006442 0.447794 0.137806
-4.007229 0.464300 0.141360
-4.004925 0.479656 0.144106
-4.011308 0.498475 0.149133
-4.009890 0.514283 0.152116
-4.004319 0.528438 0.153995
-4.003469 0.544534 0.157122
-4.000648 0.559853 0.159723
-3.992739 0.573045 0.160954
-3.973058 0.581155 0.158995
-3.986055 0.603318 0.165849
-3.986303 0.620075 0.169268
-3.987552 0.637349 0.172968
-3.985612 0.653264 0.175801
-3.981273 0.668131 0.177976
-3.980568 0.684704 0.181152
-3.979315 0.701086 0.184183
-3.973505 0.715368 0.185948
-3.965542 0.728627 0.187106
-3.964159 0.745074 0.190104
-3.969144 0.782029 0.198317
-3.962313 0.795981 0.199795
-3.955332 0.809863 0.201224
-3.948319 0.823735 0.202640
-3.949600 0.841946 0.206442
-3.949682 0.859633 0.209912
-3.950406 0.877760 0.213582
-3.947618 0.894097 0.216243
-3.951598 0.914198 0.220895
-3.950985 0.931912 0.224219
-3.949559 0.949268 0.227317
-3.939956 0.962092 0.228002
-3.934203 0.977103 0.229827
-3.930451 0.993307 0.232252
-3.929720 1.011339 0.235592
-3.920013 1.024176 0.236242
-3.917687 1.041408 0.239120
-3.923136 1.063419 0.244374
-3.922586 1.081959 0.247830
-3.924695 1.102254 0.252118
-3.924032 1.120972 0.255578
-3.926260 1.141626 0.259951
-3.918528 1.156098 0.261259
-3.924069 1.179132 0.266704
-3.924343 1.198949 0.270538
-3.914385 1.212182 0.271180
-3.908052 1.227818 0.272961
-3.912035 1.250421 0.278017
-3.909814 1.269014 0.281134
-3.917064 1.294200 0.287294
-3.924224 1.319570 0.293469
-3.921798 1.338487 0.296599
-3.913083 1.353075 0.297714
-3.913787 1.374405 0.301890
-3.907628 1.390952 0.303856
-3.897715 1.404828 0.304601
-3.903590 1.430321 0.310540
-3.906924 1.454171 0.315683
-3.903839 1.473414 0.318733
-3.894748 1.488221 0.319800
-3.883086 1.501086 0.320010
-3.874946 1.516658 0.321398
-3.877013 1.540242 0.326238
-3.867958 1.555256 0.327342
-3.808744 1.552313 0.315500
-3.847956 1.628913 0.337390
-3.809828 1.665650 0.337008
-3.668858 1.612705 0.300117
-3.638465 1.608420 0.293496
-3.627741 1.621243 0.293842
-3.621403 1.637995 0.295762
-3.660244 1.695678 0.313996
-3.656685 1.715522 0.317022
-3.640431 1.723797 0.315448
-3.635431 1.742458 0.317970
-3.633415 1.764035 0.321608
-3.631059 1.785456 0.325147
-3.627365 1.805760 0.328219
-3.624286 1.826803 0.331543
-3.625801 1.852489 0.336612
-3.618891 1.870115 0.338556
-3.618747 1.894567 0.343069
-3.615022 1.915643 0.346260
-3.621847 1.947582 0.353501
-3.617343 1.968281 0.356465
-3.609842 1.986027 0.358297
-3.608291 2.010082 0.362445
-3.602750 2.030145 0.365077
-3.600871 2.054245 0.369160
-3.596020 2.075366 0.372112
-3.587696 2.092879 0.373719
-3.581442 2.112751 0.376158
-3.572597 2.129894 0.377585
-3.569975 2.154074 0.381513
-3.567797 2.178977 0.385655
-3.571255 2.210535 0.392113
-3.556689 2.221741 0.391310
-3.557893 2.251224 0.396935
-3.539970 2.258621 0.394765
-3.545358 2.293508 0.402184
-3.552845 2.331339 0.410545
-3.538693 2.343562 0.409977
-3.556244 2.394404 0.422675
-3.541847 2.436887 0.427520
-3.549129 2.476560 0.436138
-3.542545 2.499213 0.438917
-3.548974 2.538721 0.447318
-3.532018 2.548569 0.445707
-3.524094 2.570159 0.448001
-3.523458 2.601547 0.453504
-3.529190 2.641802 0.461863
-3.521325 2.664361 0.464314
-3.509024 2.681121 0.464826
-3.495213 2.695923 0.464674
-3.475460 2.702572 0.461859
-3.484683 2.749659 0.472089
-3.478141 2.775210 0.475288
-3.463623 2.789680 0.474890
-3.447078 2.801308 0.473565
-3.424226 2.803774 0.469323
-3.398548 2.801923 0.463730
-3.364879 2.787947 0.454354
-3.341619 2.789112 0.449764
-3.319178 2.791345 0.445518
-3.302049 2.801576 0.443756
-3.268906 2.787006 0.434336
-3.232175 2.766318 0.423093
-3.211043 2.769697 0.419270
-3.187309 2.768801 0.414149
-3.159606 2.761289 0.407040
-3.138806 2.764720 0.403259
-3.107830 2.751233 0.394407
-3.073985 2.732479 0.384031
-3.053595 2.735875 0.380295
-3.027699 2.729774 0.373751
-3.000302 2.720773 0.366380
-2.977144 2.718810 0.361105
-2.969985 2.744914 0.364023
-2.928362 2.709841 0.349135
-2.903143 2.703453 0.342633
-2.878000 2.696888 0.336109
-2.852298 2.688965 0.329225
-2.836298 2.698850 0.327443
-2.820733 2.709616 0.325897
-2.800196 2.710923 0.321669
-2.774024 2.701131 0.314340
-2.749942 2.695008 0.308078
-2.730725 2.698201 0.304441
-2.708769 2.695737 0.299252
-2.687089 2.693543 0.294168
-2.666466 2.693224 0.289630
-2.643569 2.687880 0.283752
-2.621232 2.683301 0.278128
-2.597743 2.675829 0.271772
-2.576288 2.672255 0.266521
-2.552986 2.664169 0.260118
-2.535251 2.667893 0.256926
-2.515205 2.666088 0.252312
-2.501343 2.677926 0.251359
-2.482413 2.677858 0.247313
-2.469241 2.690780 0.246729
-2.446929 2.681772 0.240482
-2.413008 2.643996 0.226879
-2.396640 2.647403 0.224065
-2.390294 2.674990 0.227540
-2.376957 2.685108 0.226577
-2.359180 2.683492 0.222698
-2.341811 2.682101 0.218977
-2.312861 2.649762 0.207536
-3.829883 -0.281783 -0.062254
-3.850996 -0.266978 -0.055700
-3.846460 -0.255657 -0.054322
-3.840259 -0.244424 -0.053222
-3.836425 -0.232664 -0.051569
-3.838914 -0.219703 -0.048533
-3.843991 -0.206096 -0.044885
-3.840638 -0.193729 -0.042940
-3.842962 -0.180215 -0.039741
-3.844420 -0.166681 -0.036667
-3.845737 -0.153012 -0.033569
-3.838435 -0.140855 -0.032270
-3.837092 -0.127465 -0.029659
-4.042462 -0.072141 0.017774
-4.101535 -0.029725 0.037116
-4.053158 -0.024855 0.029799
-4.047103 -0.010976 0.031755
-4.050505 0.005071 0.035820
-4.055305 0.021549 0.040225
-4.055889 0.037138 0.043711
-4.045705 0.050177 0.044786
-4.043032 0.065026 0.047551
-4.042805 0.080514 0.050875
-4.050510 0.098091 0.056021
-4.020091 0.105747 0.052426
-4.032225 0.124551 0.058596
-4.036373 0.141330 0.062941
-4.043502 0.159016 0.067993
-4.040168 0.173832 0.070608
-4.029261 0.186449 0.071431
-4.021185 0.199816 0.072899
-4.043893 0.222360 0.081665
-4.051648 0.240606 0.086908
-4.045048 0.254503 0.088720
-4.036699 0.267806 0.090093
-4.034973 0.283177 0.093048
-4.041785 0.301345 0.098073
-4.034114 0.314810 0.099570
-4.024322 0.327510 0.100525
-4.005018 0.336880 0.099109
-4.022479 0.358864 0.106758
-4.026259 0.376238 0.111038
-4.022108 0.390845 0.113341
-4.020011 0.406194 0.116148
-4.017070 0.421248 0.118736
-4.008744 0.434294 0.119951
-4.007527 0.449995 0.122957
-4.003341 0.464583 0.125200
-4.007195 0.482316 0.129498
-4.008029 0.498942 0.133026
-4.005050 0.514096 0.135570
-3.999351 0.528160 0.137400
-3.997326 0.543734 0.140180
-3.997183 0.560130 0.143451
-3.984610 0.571310 0.143450
-3.997697 0.593439 0.150213
-3.970570 0.598267 0.146324
-3.991054 0.623852 0.155082
-3.986929 0.638743 0.157298
-3.989827 0.656833 0.161399
-3.985004 0.671489 0.163427
-3.984839 0.688323 0.166714
-3.980937 0.703475 0.168989
-3.969722 0.715183 0.169263
-3.954895 0.725100 0.168527
-3.959798 0.744534 0.173208
-3.974489 0.786257 0.183990
-3.966532 0.799656 0.185147
-3.958549 0.813035 0.186289
-3.953129 0.827732 0.188146
-3.952941 0.845191 0.191481
-3.955036 0.863948 0.195475
-3.951537 0.879836 0.197893
-3.944754 0.894004 0.199375
-3.942861 0.910862 0.202261
-3.954531 0.935299 0.209070
-3.948174 0.949903 0.210697
-3.939396 0.963165 0.211620
-3.935840 0.979409 0.214064
-3.932185 0.995662 0.216485
-3.924955 1.009889 0.217861
-3.920702 1.025896 0.220117
-3.918015 1.042898 0.222845
-3.920025 1.062818 0.226985
-3.926640 1.085693 0.232528
-3.923492 1.102753 0.235169
-3.921171 1.120409 0.238072
-3.929353 1.144777 0.244173
-3.922214 1.159625 0.245650
-3.908500 1.170273 0.245119
-3.913998 1.193360 0.250473
-3.913175 1.212500 0.253913
-3.909469 1.229849 0.256480
-3.909600 1.249856 0.260254
-3.916377 1.274509 0.266124
-3.914490 1.293462 0.269320
-3.922283 1.319230 0.275582
-3.897599 1.322546 0.271621
-3.902857 1.346804 0.277124
-3.907480 1.370832 0.282465
-3.904381 1.389510 0.285370
-3.900020 1.407377 0.287887
-3.899886 1.428443 0.291783
-3.902421 1.451646 0.296570
-3.904820 1.474943 0.301348
-3.900950 1.493685 0.304109
-3.887512 1.505206 0.303743
-3.873362 1.516135 0.303133
-3.874350 1.538835 0.307526
-3.881146 1.566299 0.313885
-3.831900 1.684713 0.326572
-3.695544 1.636221 0.292074
-3.658192 1.626013 0.283186
-3.630460 1.623886 0.277588
-3.632162 1.647830 0.282311
-3.640122 1.677651 0.289288
-3.644534 1.704562 0.295060
-3.645575 1.728640 0.299675
-3.634384 1.741547 0.299935
-3.629039 1.759951 0.302302
-3.629038 1.783532 0.306620
-3.627179 1.805540 0.310297
-3.621055 1.823600 0.312444
-3.620535 1.847232 0.316664
-3.626873 1.877833 0.323449
-3.626236 1.901834 0.327707
-3.626888 1.927342 0.332479
-3.617920 1.943330 0.333691
-3.616949 1.967571 0.337917
-3.616480 1.992550 0.342368
-3.602724 2.003884 0.341811
-3.602718 2.029687 0.346491
-3.600276 2.053146 0.350277
-3.595408 2.074202 0.353160
-3.585815 2.090291 0.354239
-3.579719 2.110276 0.356684
-3.577516 2.134705 0.360669
-3.572645 2.156384 0.363643
-3.570011 2.180757 0.367525
-3.568793 2.206972 0.372003
-3.572016 2.238553 0.378293
-3.551005 2.242383 0.374933
-3.546868 2.265815 0.378331
-3.542619 2.289330 0.381715
-3.547663 2.324162 0.388910
-3.561790 2.370388 0.399890
-3.561108 2.399240 0.404894
-3.547558 2.412596 0.404634
-3.543404 2.437640 0.408270
-3.562581 2.492189 0.421678
-3.566734 2.528553 0.428924
-3.557169 2.547857 0.430461
-3.539668 2.557061 0.428650
-3.528132 2.573989 0.429362
-3.527584 2.605490 0.434790
-3.530506 2.642003 0.441772
-3.521437 2.662910 0.443639
-3.508231 2.678395 0.443728
-3.493339 2.691657 0.443083
-3.492585 2.724526 0.448656
-3.495262 2.762634 0.455814
-3.483253 2.780559 0.456521
-3.464126 2.788478 0.454056
-3.443920 2.794789 0.451085
-3.416224 2.790113 0.444697
-3.393229 2.792047 0.440385
-3.369260 2.792366 0.435585
-3.339590 2.783929 0.428114
-3.297941 2.756948 0.415019
-3.294758 2.788167 0.419699
-3.262998 2.775587 0.411056
-3.231029 2.762223 0.402224
-3.214339 2.772564 0.400545
-3.190579 2.771639 0.395487
-3.165453 2.768307 0.389727
-3.134075 2.754507 0.380892
-3.105459 2.744793 0.373307
-3.079511 2.739151 0.366950
-3.052715 2.731782 0.360113
-3.031903 2.734297 0.356173
-3.004251 2.724893 0.348793
-2.982784 2.725910 0.344441
-2.959062 2.722799 0.338916
-2.934838 2.718557 0.333085
-2.909762 2.712509 0.326764
-2.883301 2.703621 0.319669
-2.861138 2.702300 0.314731
-2.840688 2.703978 0.310646
-2.824163 2.712950 0.308596
-2.802251 2.711627 0.303689
-2.775912 2.701498 0.296377
-2.753032 2.697710 0.290846
-2.731421 2.696138 0.285949
-2.712425 2.699563 0.282432
-2.690101 2.696062 0.277061
-2.670626 2.698095 0.273212
-2.649798 2.697085 0.268575
-2.622670 2.682444 0.260347
-2.599825 2.676291 0.254440
-2.577632 2.671061 0.248833
-2.557428 2.669704 0.244300
-2.536162 2.665567 0.239092
-2.534240 2.704489 0.245136
-2.499708 2.669549 0.232044
-2.488679 2.687551 0.232726
-2.472931 2.694453 0.230589
-2.456092 2.698388 0.227754
-2.433631 2.688319 0.221430
-2.416066 2.689273 0.218000
-2.389559 2.667532 0.208939
-2.384757 2.698731 0.213294
-2.360649 2.681154 0.205495
-2.336370 2.661907 0.197415
-2.342548 2.720377 0.208739
-3.864856 -0.274270 -0.067925
-3.857224 -0.263591 -0.067259
-3.856737 -0.251670 -0.065087
-3.848169 -0.240807 -0.064476
-3.840749 -0.229629 -0.063572
-3.840393 -0.217154 -0.061169
-3.837787 -0.204877 -0.059161
-3.839829 -0.191636 -0.056137
-3.839155 -0.178695 -0.053611
-3.842509 -0.164861 -0.050192
-3.845590 -0.150900 -0.046772
-3.847303 -0.137036 -0.043584
-3.855238 -0.121793 -0.039036
-4.003068 -0.077944 -0.004784
-4.070147 -0.034223 0.015837
-4.056633 -0.021969 0.016182
-4.051486 -0.007896 0.018333
-4.063120 0.010032 0.024143
-4.055214 0.023595 0.025732
-4.052401 0.038356 0.028439
-4.051687 0.053659 0.031617
-4.049022 0.068524 0.034373
-4.049097 0.084104 0.037742
-4.044171 0.098436 0.040000
-4.029974 0.110309 0.040166
-4.033123 0.126742 0.044227
-4.039720 0.144189 0.049081
-4.047384 0.162036 0.054194
-4.044173 0.176896 0.056830
-4.028209 0.188051 0.056515
-4.029876 0.204275 0.060250
-4.040453 0.223225 0.066060
-4.051823 0.242555 0.072077
-4.043896 0.256029 0.073579
-4.035642 0.269342 0.074984
-4.033588 0.284593 0.077838
-4.012741 0.293704 0.076203
-4.029217 0.315030 0.083457
-4.024846 0.329521 0.085729
-4.027797 0.346510 0.089756
-4.033617 0.364564 0.094484
-4.021437 0.376347 0.094831
-4.024491 0.393507 0.098881
