ply
format ascii 1.0
comment ---
element vertex 1649
property float x
property float y
property float z
element face 0
property list uchar uint vertex_indices
end_header
-4.318674 -5.814957 0.710892
-4.341687 -5.813957 0.714361
-4.366117 -5.813973 0.718169
-4.381992 -5.806455 0.719874
-4.401605 -5.802013 0.722493
-4.432157 -5.806597 0.727768
-4.454427 -5.803983 0.731019
-4.477317 -5.801693 0.734414
-4.497759 -5.797212 0.737215
-4.524239 -5.797448 0.741462
-4.548491 -5.795656 0.745167
-4.545721 -5.772251 0.742427
-4.570382 -5.770558 0.746238
-4.587166 -5.762528 0.748178
-4.595778 -5.748111 0.748195
-4.604918 -5.734117 0.748355
-4.598594 -5.708464 0.744903
-4.609161 -5.695669 0.745442
-4.617281 -5.681050 0.745426
-4.596035 -5.644929 0.738597
-4.610887 -5.635446 0.740201
-4.616357 -5.619141 0.739645
-4.605694 -5.591407 0.735389
-4.602053 -5.568898 0.732792
-4.602436 -5.549369 0.731152
-4.596294 -5.525449 0.728047
-4.588935 -5.500900 0.724701
-4.585636 -5.479315 0.722316
-4.583680 -5.458786 0.720270
-4.580702 -5.437716 0.718022
-4.578589 -5.417361 0.716002
-4.574977 -5.396164 0.713675
-4.568355 -5.373181 0.710701
-4.567008 -5.353744 0.708947
-4.558855 -5.330132 0.705697
-4.562805 -5.314267 0.705188
-4.566405 -5.298227 0.704625
-4.564050 -5.278595 0.702759
-4.561990 -5.259258 0.700989
-4.552755 -5.235748 0.697656
-4.551483 -5.217146 0.696120
-4.556944 -5.202579 0.696096
-4.565168 -5.189621 0.696701
-4.556734 -5.167107 0.693663
-4.551160 -5.146394 0.691283
-4.554338 -5.130723 0.690850
-4.556301 -5.114415 0.690172
-4.547950 -5.092511 0.687264
-4.531113 -5.066191 0.682536
-4.517276 -5.041755 0.678496
-4.524485 -5.028684 0.679055
-4.525697 -5.012460 0.678330
-4.523100 -4.994323 0.676798
-4.516117 -4.974047 0.674339
-4.511954 -4.955348 0.672509
-4.505616 -4.935683 0.670229
-4.506456 -4.919700 0.669511
-4.503803 -4.902078 0.668055
-4.492437 -4.880374 0.664744
-4.484756 -4.860629 0.662239
-4.487870 -4.846111 0.662054
-4.488357 -4.830419 0.661311
-4.486089 -4.813545 0.659985
-4.480046 -4.795081 0.657859
-4.465379 -4.772933 0.653902
-4.458732 -4.754574 0.651653
-4.457860 -4.738897 0.650626
-4.455744 -4.722801 0.649329
-4.452598 -4.706401 0.647804
-4.444407 -4.688046 0.645202
-4.441646 -4.672139 0.643734
-4.433106 -4.654041 0.641031
-4.438188 -4.641633 0.641173
-4.439213 -4.627706 0.640436
-4.433486 -4.611281 0.638256
-4.427415 -4.594939 0.635979
-4.427695 -4.581235 0.634996
-4.427595 -4.567556 0.633898
-4.419102 -4.550951 0.631020
-4.414240 -4.535938 0.628860
-4.413429 -4.522619 0.627501
-4.420177 -4.512186 0.627658
-4.428052 -4.502281 0.627996
-4.427248 -4.489509 0.626497
-4.440134 -4.481620 0.627756
-4.443160 -4.470511 0.626939
-4.419619 -4.450773 0.620658
-4.421998 -4.439951 0.619622
-4.425123 -4.429568 0.618686
-4.434507 -4.421377 0.618964
-4.422651 -4.406639 0.614908
-4.427298 -4.397347 0.614133
-4.399655 -4.378326 0.606850
-2.479625 -6.326208 0.537582
-2.489308 -6.322466 0.538979
-2.493106 -6.296000 0.536524
-2.504983 -6.299257 0.538993
-2.520701 -6.315549 0.543628
-2.530394 -6.309041 0.544375
-2.541052 -6.305352 0.545552
-2.555798 -6.315197 0.548995
-2.567107 -6.312281 0.550218
-2.570979 -6.283738 0.546984
-2.582509 -6.280739 0.548088
-2.602221 -6.303868 0.553678
-2.613849 -6.299712 0.554510
-2.626098 -6.297050 0.555559
-2.650055 -6.288657 0.557006
-2.655585 -6.264396 0.554142
-2.661892 -6.242702 0.551676
-2.672426 -6.233609 0.551393
-2.687519 -6.237551 0.553392
-2.698292 -6.228702 0.553095
-2.723065 -6.259011 0.559762
-2.727016 -6.230579 0.555927
-2.741232 -6.230614 0.557159
-2.754056 -6.226627 0.557658
-2.762540 -6.211017 0.556047
-2.776874 -6.210858 0.557210
-2.792287 -6.213256 0.558833
-2.810828 -6.223306 0.561847
-2.822622 -6.216017 0.561712
-2.831975 -6.202730 0.560479
-2.851542 -6.214471 0.563819
-2.866378 -6.214388 0.565007
-2.878495 -6.207718 0.564992
-2.893748 -6.208408 0.566338
-2.905906 -6.201810 0.566348
-2.919878 -6.199380 0.567138
-2.930065 -6.188385 0.566348
-2.937598 -6.171664 0.564495
-2.949139 -6.164024 0.564339
-2.965828 -6.167587 0.566291
-2.977715 -6.160699 0.566302
-2.987499 -6.149433 0.565501
-2.997251 -6.138267 0.564726
-3.008950 -6.131269 0.564749
-3.023425 -6.129972 0.565868
-3.039671 -6.132156 0.567669
-3.054264 -6.130898 0.568838
-3.066032 -6.124018 0.568950
-3.073264 -6.108391 0.567397
-3.079013 -6.090171 0.565350
-3.102261 -6.105411 0.569771
-3.106402 -6.084402 0.567206
-3.089512 -6.024796 0.557134
-3.074247 -5.969386 0.547830
-3.073546 -5.941469 0.543862
-3.081714 -5.929941 0.543100
-3.095846 -5.929117 0.544455
-3.111408 -5.930701 0.546307
-3.126398 -5.931146 0.547959
-3.139819 -5.928771 0.549074
-3.154752 -5.928892 0.550709
-3.169771 -5.929033 0.552371
-3.182314 -5.924936 0.553205
-3.191014 -5.914486 0.552776
-3.205980 -5.914316 0.554437
-3.220536 -5.913363 0.555963
-3.242062 -5.923400 0.559753
-3.255131 -5.919769 0.560785
-3.266825 -5.913937 0.561383
-3.279633 -5.909806 0.562348
-3.296557 -5.911915 0.564623
-3.313555 -5.913957 0.566913
-3.333239 -5.919839 0.570031
-3.346745 -5.916304 0.571212
-3.357567 -5.908758 0.571569
-3.371658 -5.905967 0.572942
-3.389343 -5.908259 0.575414
-3.404268 -5.906426 0.577037
-3.417869 -5.902611 0.578259
-3.433213 -5.901160 0.580007
-3.447933 -5.898721 0.581566
-3.460610 -5.893379 0.582518
-3.474957 -5.890254 0.583968
-3.495617 -5.895515 0.587269
-3.508332 -5.889947 0.588233
-3.523300 -5.887301 0.589855
-3.538954 -5.885440 0.591674
-3.557256 -5.886878 0.594248
-3.573240 -5.885161 0.596148
-3.592294 -5.887207 0.598916
-3.609514 -5.886746 0.601151
-3.626675 -5.886056 0.603361
-3.641125 -5.881874 0.604805
-3.659870 -5.882844 0.607445
-3.680561 -5.885980 0.610611
-3.695671 -5.882204 0.612222
-3.712474 -5.880336 0.614295
-3.731520 -5.880965 0.616974
-3.751004 -5.881918 0.619760
-3.774309 -5.887085 0.623567
-3.788934 -5.882065 0.625015
-3.794836 -5.867091 0.624123
-3.820350 -5.874198 0.628487
-3.843109 -5.877936 0.632092
-3.865062 -5.880535 0.635465
-3.882011 -5.877450 0.637502
-3.897936 -5.873132 0.639267
-3.918118 -5.873262 0.642140
-3.936978 -5.871801 0.644657
-3.950295 -5.864361 0.645730
-3.968360 -5.861806 0.648031
-3.997350 -5.870363 0.653131
-4.018707 -5.870780 0.656249
-4.041333 -5.872276 0.659678
-4.050935 -5.860502 0.659788
-4.065495 -5.853669 0.661162
-4.089413 -5.855966 0.664894
-4.109925 -5.854702 0.667755
-4.129117 -5.851987 0.670277
-4.145220 -5.846165 0.672024
-4.162055 -5.840940 0.673953
-4.175020 -5.831973 0.674924
-4.193671 -5.828252 0.677300
-4.215465 -5.827286 0.680442
-4.242624 -5.831023 0.684885
-4.254606 -5.820758 0.685616
-4.272552 -5.815811 0.687802
-4.295060 -5.814786 0.691089
-4.322512 -5.817908 0.695557
-4.354476 -5.824677 0.701090
-4.373290 -5.819756 0.703456
-4.383370 -5.807240 0.703740
-4.399246 -5.799635 0.705413
-4.420047 -5.796072 0.708256
-4.459899 -5.808166 0.715590
-4.480129 -5.803656 0.718278
-4.496659 -5.795978 0.720097
-4.518808 -5.792740 0.723234
-4.546055 -5.793395 0.727555
-4.567247 -5.788998 0.730461
-4.583328 -5.780427 0.732182
-4.585055 -5.760618 0.730599
-4.598759 -5.750149 0.731798
-4.606237 -5.734881 0.731579
-4.618852 -5.723526 0.732555
-4.627135 -5.708893 0.732556
-4.631376 -5.691290 0.731656
-4.631736 -5.670920 0.729901
-4.618034 -5.640476 0.724994
-4.612729 -5.616394 0.722027
-4.606119 -5.591588 0.718802
-4.598948 -5.566607 0.715489
-4.588986 -5.539901 0.711587
-4.594827 -5.524368 0.711252
-4.588133 -5.500301 0.708149
-4.584489 -5.478507 0.705758
-4.588696 -5.462133 0.705138
-4.584263 -5.440083 0.702633
-4.580283 -5.418496 0.700260
-4.579299 -5.399014 0.698578
-4.574023 -5.376886 0.695983
-4.568450 -5.354739 0.693355
-4.567252 -5.335518 0.691715
-4.568243 -5.317772 0.690581
-4.565915 -5.298057 0.688750
-4.562278 -5.277664 0.686664
-4.558974 -5.257606 0.684681
-4.547884 -5.233023 0.681043
-4.547526 -5.215010 0.679756
-4.553393 -5.200725 0.679833
-4.563195 -5.188721 0.680775
-4.567894 -5.173750 0.680641
-4.550968 -5.146558 0.675900
-4.550337 -5.128774 0.674677
-4.555004 -5.114002 0.674607
-4.549599 -5.093734 0.672413
-4.539735 -5.071189 0.669298
-4.530554 -5.049202 0.666357
-4.530761 -5.032361 0.665430
-4.523812 -5.011846 0.663011
-4.516839 -4.991469 0.660610
-4.508428 -4.970511 0.657930
-4.503273 -4.951365 0.655956
-4.506066 -4.936311 0.655672
-4.505912 -4.919841 0.654782
-4.498683 -4.900000 0.652424
-4.488868 -4.879072 0.649541
-4.489935 -4.863500 0.648946
-4.488373 -4.846757 0.647812
-4.483889 -4.828757 0.646076
-4.481093 -4.811660 0.644698
-4.474987 -4.793184 0.642637
-4.463290 -4.772375 0.639420
-4.456512 -4.753955 0.637227
-4.455562 -4.738238 0.636239
-4.449172 -4.720301 0.634120
-4.451129 -4.706072 0.633717
-4.453913 -4.692278 0.633470
-4.447100 -4.674617 0.631234
-4.437807 -4.656147 0.628474
-4.433586 -4.639944 0.626739
-4.436816 -4.626872 0.626508
-4.438798 -4.613423 0.625993
-4.433137 -4.597163 0.623888
-4.431453 -4.582632 0.622565
-4.425752 -4.566780 0.620393
-4.420314 -4.551257 0.618241
-4.422322 -4.538683 0.617561
-4.425871 -4.526831 0.617150
-4.428777 -4.514909 0.616563
-4.426465 -4.501330 0.614880
-4.431266 -4.490434 0.614580
-4.440337 -4.481157 0.615083
-4.477582 -4.481481 0.621151
-4.450627 -4.460394 0.614355
-2.537775 -6.335671 0.536226
-2.549853 -6.336322 0.538090
-2.555982 -6.315571 0.536353
-2.568945 -6.318045 0.538425
-2.577792 -6.305903 0.538010
-2.589819 -6.303977 0.539258
-2.602336 -6.303063 0.540634
-2.615586 -6.303911 0.542270
-2.627826 -6.300951 0.543223
-2.639205 -6.294845 0.543603
-2.650147 -6.287055 0.543656
-2.660886 -6.278393 0.543522
-2.665992 -6.252773 0.540439
-2.675812 -6.241304 0.539743
-2.685154 -6.228395 0.538764
-2.708167 -6.254368 0.544485
-2.719668 -6.246984 0.544422
-2.732919 -6.244326 0.545159
-2.745957 -6.240869 0.545742
-2.758609 -6.236200 0.546100
-2.771661 -6.232470 0.546612
-2.781348 -6.219846 0.545551
-2.798903 -6.227564 0.548062
-2.813750 -6.228008 0.549295
-2.830281 -6.232454 0.551238
-2.844804 -6.231661 0.552258
-2.855223 -6.220753 0.551484
-2.871178 -6.223250 0.553098
-2.882818 -6.215329 0.552861
-2.897552 -6.214700 0.553935
-2.915260 -6.220801 0.556230
-2.926966 -6.212977 0.556034
-2.935668 -6.198491 0.554642
-2.944440 -6.184409 0.553326
-2.958350 -6.181804 0.554096
-2.972678 -6.180055 0.555038
-2.988495 -6.181412 0.556564
-2.998334 -6.170033 0.555778
-3.010546 -6.163762 0.555938
-3.015578 -6.142771 0.553402
-3.024311 -6.129693 0.552326
-3.032703 -6.116132 0.551168
-3.045388 -6.111298 0.551638
-3.064677 -6.119415 0.554536
-3.070968 -6.102049 0.552706
-3.085711 -6.101161 0.553966
-3.105135 -6.109046 0.556896
-3.111003 -6.091260 0.555020
-3.090341 -6.024657 0.543915
-3.074378 -5.968026 0.534644
-3.077778 -5.947583 0.532216
-3.084838 -5.934028 0.531099
-3.094079 -5.924518 0.530764
-3.108490 -5.924153 0.532197
-3.126897 -5.930604 0.534966
-3.139556 -5.926947 0.535812
-3.154227 -5.926658 0.537329
-3.168432 -5.925474 0.538695
-3.180590 -5.920793 0.539399
-3.195674 -5.920891 0.541058
-3.207653 -5.915813 0.541722
-3.224624 -5.918744 0.543984
-3.240109 -5.919117 0.545768
-3.253638 -5.916270 0.546934
-3.262807 -5.906550 0.546747
-3.282413 -5.913001 0.549813
-3.295504 -5.909234 0.550855
-3.307679 -5.904017 0.551623
-3.333482 -5.919168 0.556541
-3.346021 -5.914219 0.557411
-3.357601 -5.907817 0.558002
-3.374106 -5.908554 0.560072
-3.395247 -5.915797 0.563510
-3.409647 -5.913151 0.564938
-3.419310 -5.903728 0.564977
-3.431929 -5.898468 0.565894
-3.441805 -5.889367 0.566023
-3.460276 -5.892057 0.568643
-3.479865 -5.896060 0.571570
-3.498566 -5.898639 0.574228
-3.514993 -5.897985 0.576228
-3.524902 -5.888604 0.576383
-3.538799 -5.884445 0.577670
-3.556476 -5.885089 0.580013
-3.576856 -5.889019 0.583097
-3.594938 -5.889799 0.585529
-3.608995 -5.885347 0.586843
-3.622807 -5.880511 0.588092
-3.650023 -5.892107 0.592990
-3.667596 -5.891554 0.595241
-3.680771 -5.885527 0.596298
-3.693593 -5.879021 0.597264
-3.708510 -5.874950 0.598793
-3.733756 -5.882914 0.603065
-3.756302 -5.887414 0.606596
-3.777510 -5.890112 0.609754
-3.787021 -5.879228 0.609831
-3.809982 -5.883581 0.613428
-3.829536 -5.883857 0.616121
-3.841872 -5.875936 0.616936
-3.861661 -5.876173 0.619674
-3.871754 -5.865663 0.619915
-3.899539 -5.874258 0.624682
-3.921361 -5.876131 0.627905
-3.943846 -5.878486 0.631281
-3.967689 -5.882032 0.634982
-3.983984 -5.877476 0.636771
-3.997286 -5.869729 0.637808
-4.022556 -5.874146 0.641829
-4.043533 -5.873945 0.644765
-4.056766 -5.865796 0.645778
-4.069818 -5.857422 0.646750
-4.088795 -5.854828 0.649178
-4.111781 -5.855986 0.652578
-4.134232 -5.856406 0.655835
-4.151646 -5.851800 0.657859
-4.165766 -5.843954 0.659086
-4.173541 -5.830096 0.658791
-4.192265 -5.826463 0.661134
-4.212942 -5.824489 0.663938
-4.232162 -5.821013 0.666388
-4.256051 -5.821607 0.669940
-4.279398 -5.821493 0.673352
-4.299042 -5.817879 0.675882
-4.318763 -5.814182 0.678427
-4.348389 -5.818955 0.683281
-4.372708 -5.818841 0.686882
-4.383793 -5.807199 0.687402
-4.398687 -5.798770 0.688813
-4.430754 -5.804665 0.694188
-4.463990 -5.811190 0.699811
-4.480462 -5.803567 0.701575
-4.496921 -5.795841 0.703340
-4.520096 -5.793440 0.706638
-4.546381 -5.793328 0.710637
-4.569368 -5.790363 0.713881
-4.580076 -5.777576 0.714355
-4.594871 -5.767956 0.715761
-4.604926 -5.754621 0.716115
-4.607562 -5.735635 0.714826
-4.616066 -5.721182 0.714870
-4.626495 -5.708189 0.715359
-4.627529 -5.688234 0.713783
-4.622771 -5.664158 0.710955
-4.621841 -5.643064 0.709004
-4.608490 -5.613190 0.704355
-4.601390 -5.588082 0.701119
-4.591864 -5.561492 0.697389
-4.594677 -5.543765 0.696387
-4.591387 -5.521904 0.694082
-4.586714 -5.499260 0.691509
-4.587137 -5.480245 0.690071
-4.586920 -5.460907 0.688521
-4.584695 -5.440351 0.686567
-4.583348 -5.420508 0.684830
-4.581049 -5.400169 0.682918
-4.580263 -5.380937 0.681359
-4.579000 -5.361509 0.679725
-4.583187 -5.345630 0.679278
-4.576841 -5.323223 0.676619
-4.565073 -5.297647 0.672843
-4.563920 -5.278792 0.671347
-4.555227 -5.255486 0.668288
-4.552969 -5.236224 0.666616
-4.548368 -5.215688 0.664480
-4.552850 -5.200604 0.664276
-4.552011 -5.182465 0.662980
-4.542761 -5.159599 0.659952
-4.553681 -5.148342 0.661160
-4.563599 -5.136463 0.662175
-4.561533 -5.117898 0.660717
-4.552197 -5.095451 0.657775
-4.547858 -5.075895 0.655896
-4.546688 -5.058157 0.654697
-4.520337 -5.027184 0.648325
-4.516872 -5.008564 0.646704
-4.513183 -4.989938 0.645058
-4.510231 -4.971799 0.643584
-4.504212 -4.952215 0.641500
-4.512837 -4.940072 0.642435
-4.515969 -4.925186 0.642255
-4.492479 -4.897374 0.636653
-4.490992 -4.880489 0.635563
-4.487602 -4.862789 0.634096
-4.480237 -4.843337 0.631833
-4.474259 -4.824687 0.629862
-4.476339 -4.809872 0.629534
-4.476910 -4.794430 0.628902
-4.468178 -4.774920 0.626391
-4.463018 -4.757169 0.624605
-4.452891 -4.737411 0.621816
-4.452197 -4.721911 0.620927
-4.453916 -4.707542 0.620515
-4.459368 -4.694821 0.620840
-4.460347 -4.680311 0.620251
-4.454093 -4.662971 0.618197
-4.440407 -4.642846 0.614642
-4.441652 -4.628912 0.614053
-4.451292 -4.618384 0.615110
-4.454377 -4.605379 0.614829
-4.431130 -4.582497 0.609286
-4.434362 -4.569941 0.608975
-4.438745 -4.557948 0.608853
-4.440733 -4.545217 0.608217
-4.492326 -4.550491 0.617315
-4.505566 -4.541848 0.618786
-2.482560 -6.299439 0.510639
-2.492764 -6.296736 0.512043
-2.528724 -6.345592 0.523394
-2.536788 -6.332278 0.522996
-2.554907 -6.311470 0.522967
-2.566472 -6.308987 0.524157
-2.582294 -6.320191 0.527532
-2.603177 -6.304540 0.527961
-2.612820 -6.293581 0.527591
-2.637957 -6.289169 0.529610
-2.651242 -6.288474 0.530819
-2.662128 -6.280079 0.530716
-2.669634 -6.261434 0.528868
-2.671971 -6.227800 0.524470
-2.687597 -6.233099 0.526553
-2.698521 -6.224524 0.526288
-2.717332 -6.237940 0.529709
-2.733862 -6.244368 0.531945
-2.748167 -6.244273 0.533070
-2.762034 -6.242743 0.533943
-2.775082 -6.238848 0.534405
-2.786825 -6.231442 0.534260
-2.798351 -6.223478 0.534012
-2.817665 -6.235238 0.537143
-2.835511 -6.242832 0.539570
-2.847306 -6.235159 0.539375
-2.859964 -6.229630 0.539550
-2.868723 -6.214761 0.538111
-2.884905 -6.217684 0.539759
-2.898902 -6.215302 0.540497
-2.917258 -6.222880 0.542984
-2.929759 -6.216843 0.543108
-2.940604 -6.207131 0.542597
-2.950989 -6.196529 0.541937
-2.967997 -6.200553 0.543863
-2.986267 -6.207088 0.546256
-2.991953 -6.186535 0.543868
-3.009094 -6.190488 0.545838
-3.022742 -6.186975 0.546501
-3.031257 -6.172894 0.545290
-3.026118 -6.131330 0.539156
-3.031758 -6.112259 0.537047
-3.049148 -6.116817 0.539202
-3.070366 -6.128663 0.542702
-3.090358 -6.137749 0.545737
-3.114256 -6.124537 0.546173
-3.117746 -6.102160 0.543526
-3.123199 -6.083802 0.541614
-3.074795 -5.967229 0.521601
-3.079738 -5.949617 0.519772
-3.082390 -5.928180 0.517235
-3.093935 -5.922833 0.517689
-3.110857 -5.926899 0.519916
-3.126802 -5.929070 0.521816
-3.141377 -5.928728 0.523269
-3.151437 -5.920622 0.523280
-3.164716 -5.917965 0.524334
-3.176805 -5.913267 0.525019
-3.190512 -5.911197 0.526223
-3.214905 -5.926401 0.530752
-3.227838 -5.922741 0.531703
-3.243171 -5.922844 0.533397
-3.253386 -5.914755 0.533529
-3.264379 -5.907908 0.533914
-3.280246 -5.908587 0.535780
-3.296254 -5.909330 0.537684
-3.311986 -5.909503 0.539500
-3.328343 -5.910467 0.541496
-3.342889 -5.908590 0.542954
-3.354798 -5.902738 0.543644
-3.376195 -5.910636 0.547093
-3.395036 -5.914557 0.549782
-3.414048 -5.918499 0.552506
-3.422887 -5.907873 0.552316
-3.430737 -5.895924 0.551865
-3.447400 -5.896238 0.553917
-3.466325 -5.899489 0.556596
-3.483823 -5.900589 0.558864
-3.503465 -5.904391 0.561716
-3.519305 -5.902909 0.563504
-3.533116 -5.898625 0.564732
-3.544458 -5.891045 0.565288
-3.560766 -5.889862 0.567199
-3.586194 -5.900205 0.571567
-3.601547 -5.897424 0.573199
-3.610609 -5.886638 0.573147
-3.625908 -5.883641 0.574766
-3.650029 -5.891398 0.578718
-3.673321 -5.897828 0.582426
-3.686197 -5.891385 0.583381
-3.697335 -5.882813 0.583887
-3.714852 -5.881791 0.586056
-3.733891 -5.882402 0.588611
-3.749521 -5.878863 0.590278
-3.766458 -5.876722 0.592277
-3.792046 -5.884318 0.596474
-3.806379 -5.878869 0.597790
-3.826517 -5.879843 0.600572
-3.843577 -5.877204 0.602567
-3.856102 -5.869447 0.603422
-3.881491 -5.875661 0.607488
-3.896458 -5.870332 0.608944
-3.919472 -5.873517 0.612388
-3.947707 -5.881985 0.617100
-3.971678 -5.885634 0.620739
-3.990338 -5.883503 0.623063
-3.996069 -5.867908 0.622237
-4.016475 -5.867379 0.624983
-4.044064 -5.873925 0.629450
-4.060387 -5.868873 0.631188
-4.072334 -5.859377 0.631878
-4.089127 -5.854620 0.633728
-4.111084 -5.854781 0.636802
-4.137353 -5.858897 0.640885
-4.154782 -5.854284 0.642865
-4.168693 -5.846222 0.644018
-4.179387 -5.835085 0.644422
-4.197941 -5.831252 0.646667
-4.217095 -5.827834 0.649047
-4.238842 -5.826633 0.652023
-4.259263 -5.824046 0.654684
-4.283844 -5.825015 0.658294
-4.300271 -5.818521 0.660027
-4.317096 -5.812278 0.661852
-4.339029 -5.810378 0.664839
-4.368279 -5.814599 0.669476
-4.384219 -5.807150 0.671092
-4.399196 -5.798799 0.672494
-4.446350 -5.817342 0.681117
-4.463355 -5.810277 0.682960
-4.479149 -5.802114 0.684536
-4.498169 -5.796496 0.686834
-4.521099 -5.793898 0.689998
-4.548233 -5.794468 0.694086
-4.568435 -5.789295 0.696639
-4.580561 -5.777641 0.697422
-4.585665 -5.760506 0.696682
-4.598683 -5.749532 0.697688
-4.614577 -5.740705 0.699330
-4.616426 -5.721196 0.697936
-4.617252 -5.701040 0.696346
-4.610157 -5.675153 0.693076
-4.610759 -5.655146 0.691496
-4.616534 -5.639019 0.691052
-4.606264 -5.611414 0.687198
-4.595812 -5.583954 0.683346
-4.598767 -5.566212 0.682382
-4.597984 -5.545945 0.680650
-4.592803 -5.522772 0.678015
-4.586393 -5.498950 0.675154
-4.580825 -5.475899 0.672503
-4.578955 -5.455513 0.670660
-4.577164 -5.435317 0.668863
-4.576790 -5.416181 0.667390
-4.576123 -5.396964 0.665883
-4.576339 -5.378426 0.664586
-4.581565 -5.363174 0.664354
-4.586390 -5.347698 0.664061
-4.582674 -5.326928 0.662025
-4.568920 -5.300105 0.657948
-4.560257 -5.276659 0.654956
-4.560658 -5.258888 0.653858
-4.559814 -5.240454 0.652529
-4.559595 -5.222482 0.651353
-4.544284 -5.195766 0.647122
-4.555164 -5.184479 0.648263
-4.556526 -5.167685 0.647484
-4.554132 -5.148821 0.645966
-4.561792 -5.135692 0.646509
-4.561787 -5.118296 0.645520
-4.542478 -5.090403 0.640655
-4.549322 -5.076974 0.641098
-4.541753 -5.055817 0.638656
-4.529806 -5.032504 0.635361
-4.516698 -5.008797 0.631860
-4.514327 -4.990865 0.630537
-4.512755 -4.973434 0.629394
-4.529922 -4.965548 0.632011
-4.500590 -4.934327 0.625362
-4.511029 -4.923123 0.626665
-4.502942 -4.902842 0.624291
-4.500727 -4.885549 0.623101
-4.496144 -4.867227 0.621454
-4.480211 -4.843703 0.617571
-4.473333 -4.824635 0.615496
-4.486232 -4.814771 0.617336
-4.485555 -4.798702 0.616496
-4.477912 -4.779616 0.614286
-4.470374 -4.760751 0.612101
-4.462528 -4.741927 0.609857
-4.456489 -4.724062 0.607967
-4.459309 -4.710114 0.607809
-4.461052 -4.695790 0.607429
-4.469390 -4.684277 0.608324
-4.470727 -4.669942 0.607833
-4.491043 -4.663333 0.611022
-4.521321 -4.660579 0.616115
-2.490122 -6.329270 0.502932
-2.531663 -6.356544 0.512410
-2.552204 -6.301624 0.508702
-2.565973 -6.306577 0.511007
-2.580271 -6.312458 0.513425
-2.595578 -6.320832 0.516205
-2.604834 -6.308600 0.515676
-2.613921 -6.295597 0.514975
-2.625598 -6.290596 0.515508
-2.639336 -6.291620 0.516972
-2.646440 -6.271793 0.515047
-2.658702 -6.267646 0.515610
-2.672344 -6.267283 0.516757
-2.681806 -6.254295 0.515830
-2.686959 -6.228899 0.512849
-2.699177 -6.223961 0.513171
-2.714856 -6.228519 0.515029
-2.734137 -6.242571 0.518436
-2.748221 -6.241826 0.519410
-2.761114 -6.237659 0.519812
-2.778468 -6.245140 0.522132
-2.788508 -6.233177 0.521231
-2.801433 -6.228738 0.521570
-2.819520 -6.237281 0.524070
-2.838484 -6.247597 0.526877
-2.850244 -6.239758 0.526658
-2.855155 -6.215374 0.523663
-2.870132 -6.215575 0.524793
-2.885368 -6.216244 0.526012
-2.902483 -6.221142 0.527958
-2.919048 -6.224523 0.529664
-2.933536 -6.222982 0.530551
-2.942718 -6.209482 0.529414
-2.951662 -6.195683 0.528230
-2.968400 -6.199137 0.530005
-2.987106 -6.206639 0.532496
-3.017442 -6.238606 0.539226
-3.020438 -6.212186 0.535924
-3.035810 -6.212011 0.537160
-3.036700 -6.150805 0.529098
-3.042545 -6.131948 0.527104
-3.053489 -6.123527 0.526940
-3.073146 -6.132247 0.529799
-3.116127 -6.126339 0.532882
-3.128211 -6.120044 0.533181
-3.131514 -6.097542 0.530604
-3.072294 -5.961139 0.507641
-3.074509 -5.938689 0.505002
-3.083387 -5.928534 0.504573
-3.097591 -5.927905 0.505875
-3.112030 -5.927586 0.507255
-3.129094 -5.931699 0.509463
-3.140502 -5.925924 0.509893
-3.152738 -5.921553 0.510594
-3.159930 -5.908702 0.509754
-3.174174 -5.907691 0.511104
-3.196751 -5.920247 0.514987
-3.212301 -5.921006 0.516717
-3.227433 -5.920950 0.518319
-3.238057 -5.913594 0.518576
-3.253923 -5.914509 0.520401
-3.265984 -5.909345 0.521103
-3.276465 -5.901712 0.521352
-3.297417 -5.910081 0.524656
-3.312143 -5.908736 0.526141
-3.327555 -5.908304 0.527823
-3.338875 -5.901680 0.528336
-3.352743 -5.898780 0.529581
-3.371413 -5.902764 0.532180
-3.394102 -5.912301 0.535890
-3.403216 -5.902185 0.535797
-3.420638 -5.903824 0.538019
-3.434510 -5.900329 0.539255
-3.449534 -5.898341 0.540808
-3.472427 -5.907005 0.544500
-3.488640 -5.906296 0.546359
-3.502382 -5.902130 0.547548
-3.518903 -5.901579 0.549482
-3.533727 -5.898647 0.550959
-3.547164 -5.893803 0.552066
-3.561587 -5.890165 0.553437
-3.580770 -5.892520 0.556054
-3.606499 -5.902957 0.560367
-3.612855 -5.888731 0.559620
-3.633098 -5.891861 0.562481
-3.652428 -5.893642 0.565092
-3.671445 -5.894840 0.567611
-3.691236 -5.896781 0.570315
-3.708208 -5.895141 0.572292
-3.719893 -5.887095 0.572929
-3.730915 -5.878246 0.573405
-3.743673 -5.871410 0.574323
-3.757402 -5.865644 0.575486
-3.789657 -5.880952 0.581238
-3.801508 -5.872730 0.581920
-3.805606 -5.855800 0.580704
-3.843353 -5.876337 0.587733
-3.863301 -5.876748 0.590382
-3.882724 -5.876398 0.592893
-3.897490 -5.870846 0.594269
-3.913545 -5.866590 0.595956
-3.941478 -5.874801 0.600481
-3.959423 -5.872195 0.602600
-3.977088 -5.869157 0.604647
-3.989403 -5.860478 0.605425
-4.009896 -5.860106 0.608132
-4.036936 -5.866165 0.612363
-4.060880 -5.868816 0.615850
-4.075322 -5.861799 0.617111
-4.091089 -5.856013 0.618681
-4.116270 -5.859300 0.622422
-4.137441 -5.858456 0.625225
-4.156163 -5.855087 0.627458
-4.182369 -5.858658 0.631394
-4.205364 -5.858947 0.634582
-4.221685 -5.852819 0.636248
-4.246955 -5.833553 0.637923
-4.264280 -5.828107 0.639821
-4.283351 -5.824111 0.642109
-4.305419 -5.822629 0.645059
-4.318646 -5.813193 0.646043
-4.338721 -5.809670 0.648545
-4.367886 -5.813829 0.653046
-4.389437 -5.811183 0.655860
-4.405632 -5.803832 0.657497
-4.441272 -5.812681 0.663376
-4.464414 -5.810760 0.666516
-4.474499 -5.797906 0.666822
-4.493855 -5.792608 0.669143
-4.522168 -5.794396 0.673392
-4.551460 -5.796692 0.677840
-4.568126 -5.788709 0.679575
-4.568649 -5.767973 0.677873
-4.577275 -5.753675 0.677920
-4.594519 -5.746027 0.679810
-4.618745 -5.743590 0.683182
-4.628182 -5.729790 0.683434
-4.622399 -5.704627 0.680502
-4.609721 -5.674588 0.676158
-4.597679 -5.645336 0.671990
-4.598166 -5.625481 0.670473
-4.594358 -5.602665 0.668090
-4.595976 -5.583893 0.666862
-4.593153 -5.562096 0.664740
-4.594904 -5.543651 0.663592
-4.595456 -5.524475 0.662220
-4.589356 -5.500863 0.659510
-4.581839 -5.476490 0.656541
-4.572699 -5.451244 0.653274
-4.574631 -5.433576 0.652298
-4.576130 -5.415704 0.651258
-4.572381 -5.394506 0.649178
-4.570234 -5.374490 0.647450
-4.574630 -5.358768 0.647071
-4.580675 -5.344124 0.647046
-4.582551 -5.326896 0.646203
-4.579273 -5.306555 0.644349
-4.567655 -5.281255 0.640854
-4.564187 -5.261117 0.639021
-4.565188 -5.243780 0.638106
-4.566243 -5.226545 0.637226
-4.570432 -5.211212 0.636992
-4.561338 -5.188218 0.634145
-4.549375 -5.163773 0.630761
-4.544034 -5.143304 0.628717
-4.553854 -5.131464 0.629688
-4.559729 -5.117388 0.629899
-4.545663 -5.092393 0.626210
-4.562704 -5.084481 0.628654
-4.549549 -5.060266 0.625195
-4.529161 -5.032452 0.620350
-4.517756 -5.009651 0.617291
-4.518108 -4.993132 0.616550
-4.525619 -4.980330 0.617220
-4.503119 -4.952350 0.612070
-4.531522 -4.950101 0.616830
-4.510609 -4.923266 0.612031
-4.518950 -4.910994 0.612920
-4.539842 -4.904727 0.616244
-4.527037 -4.882269 0.613063
-4.551836 -4.877681 0.617150
-4.543951 -4.857725 0.614939
-4.542602 -4.824834 0.613318
-4.530525 -4.803433 0.610327
-4.591164 -4.814277 0.621274
-4.590555 -4.797897 0.620470
-4.675312 -4.801850 0.635260
-4.652801 -4.776164 0.630242
-4.705098 -4.656197 0.632682
-2.489650 -6.286596 0.485839
-2.522485 -6.323402 0.494662
-2.534221 -6.323037 0.496205
-2.540068 -6.301189 0.494444
-2.553679 -6.306167 0.496706
-2.567828 -6.312106 0.499081
-2.582474 -6.318843 0.501545
-2.597705 -6.326643 0.504141
-2.606768 -6.313490 0.503471
-2.617004 -6.303903 0.503306
-2.643764 -6.303493 0.505776
-2.641421 -6.254434 0.499328
-2.648840 -6.235815 0.497583
-2.672318 -6.264982 0.503309
-2.684828 -6.260819 0.503786
-2.693830 -6.246314 0.502605
-2.701130 -6.227072 0.500647
-2.718419 -6.235989 0.503131
-2.733811 -6.239131 0.504692
-2.748964 -6.241267 0.506086
-2.761298 -6.235558 0.506220
-2.775344 -6.234293 0.507059
-2.787653 -6.228341 0.507141
-2.797485 -6.216019 0.506192
-2.814770 -6.222675 0.508302
-2.838965 -6.246185 0.513152
-2.851147 -6.239392 0.513106
-2.854771 -6.211904 0.509694
-2.871113 -6.215405 0.511325
-2.889911 -6.224472 0.513881
-2.904012 -6.222244 0.514603
-2.922653 -6.230378 0.517040
-2.933886 -6.221390 0.516677
-2.941493 -6.204406 0.515000
-2.950763 -6.191415 0.513987
-2.967590 -6.195125 0.515752
-2.996240 -6.224105 0.521748
-3.014749 -6.230686 0.524048
-3.029890 -6.229921 0.525143
-3.032433 -6.202916 0.521850
-3.043113 -6.161851 0.517436
-3.043407 -6.131780 0.513614
-3.049439 -6.113663 0.511815
-3.076391 -6.107146 0.513303
-3.091907 -6.107736 0.514734
-3.115499 -6.123463 0.518790
-3.139911 -6.140253 0.523069
-3.068459 -5.952654 0.493353
-3.075263 -5.938620 0.492262
-3.086866 -5.933358 0.492710
-3.101163 -5.932858 0.494007
-3.116026 -5.933240 0.495481
-3.128897 -5.930055 0.496348
-3.143781 -5.930262 0.497833
-3.151325 -5.917921 0.497109
-3.162018 -5.910992 0.497357
-3.174379 -5.906849 0.498118
-3.190953 -5.909578 0.500129
-3.213351 -5.921572 0.503837
-3.226324 -5.918055 0.504775
-3.235535 -5.908500 0.504634
-3.250036 -5.907330 0.506031
-3.268765 -5.912634 0.508634
-3.280630 -5.907115 0.509278
-3.294612 -5.904802 0.510528
-3.309367 -5.903563 0.511996
-3.323539 -5.901339 0.513301
-3.336013 -5.896502 0.514138
-3.349532 -5.893153 0.515270
-3.363590 -5.890508 0.516551
-3.383979 -5.896863 0.519553
-3.401393 -5.898717 0.521733
-3.420182 -5.902321 0.524273
-3.435792 -5.901271 0.525951
-3.452477 -5.901574 0.527911
-3.470303 -5.903280 0.530165
-3.485236 -5.900879 0.531650
-3.499377 -5.897307 0.532927
-3.515590 -5.896397 0.534742
-3.530637 -5.893813 0.536250
-3.544807 -5.889976 0.537532
-3.559763 -5.887067 0.539014
-3.573894 -5.882997 0.540285
-3.593429 -5.885682 0.542925
-3.617259 -5.893538 0.546633
-3.634277 -5.892620 0.548609
-3.639106 -5.876554 0.547537
-3.663316 -5.884244 0.551301
-3.679250 -5.881629 0.552995
-3.700394 -5.885122 0.555967
-3.716408 -5.882302 0.557667
-3.727985 -5.874155 0.558282
-3.741330 -5.868041 0.559332
-3.767423 -5.876547 0.563462
-3.785669 -5.875767 0.565680
-3.800208 -5.870634 0.567002
-3.818970 -5.870147 0.569331
-3.852398 -5.885754 0.575129
-3.869698 -5.883169 0.577079
-3.884912 -5.878177 0.578532
-3.897807 -5.870592 0.579441
-3.913566 -5.866023 0.581022
-3.936846 -5.869314 0.584347
-3.953192 -5.865082 0.586052
-3.965637 -5.856688 0.586855
-3.984747 -5.855120 0.589192
-4.009930 -5.859581 0.592909
-4.033380 -5.862016 0.596213
-4.060513 -5.867898 0.600337
-4.072997 -5.858949 0.601132
-4.087664 -5.852111 0.602423
-4.114160 -5.856713 0.606366
-4.129926 -5.850684 0.607895
-4.148226 -5.846985 0.609988
-4.192729 -5.867948 0.617884
-4.251515 -5.858532 0.624918
-4.250497 -5.836297 0.622750
-4.263651 -5.827060 0.623694
-4.282289 -5.822689 0.625834
-4.297638 -5.815268 0.627260
-4.317193 -5.811462 0.629596
-4.335332 -5.806276 0.631624
-4.368579 -5.813986 0.636883
-4.386319 -5.808089 0.638815
-4.412808 -5.809477 0.642606
-4.435574 -5.807491 0.645598
-4.457918 -5.804962 0.648495
-4.472136 -5.795568 0.649677
-4.483875 -5.784094 0.650346
-4.516436 -5.789396 0.655381
-4.547413 -5.793092 0.660070
-4.558567 -5.780788 0.660624
-4.562775 -5.763028 0.659750
-4.573825 -5.750669 0.660311
-4.590525 -5.742640 0.662050
-4.607021 -5.734358 0.663752
-4.631868 -5.732279 0.667171
-4.639112 -5.716834 0.666992
-4.603585 -5.669790 0.658118
-4.606627 -5.651647 0.657145
-4.602873 -5.628667 0.654818
-4.603238 -5.608832 0.653353
-4.591714 -5.580665 0.649517
-4.589095 -5.559057 0.647509
-4.592195 -5.541597 0.646676
-4.593361 -5.522881 0.645479
-4.596620 -5.505697 0.644723
-4.580246 -5.475297 0.640082
-4.575170 -5.452802 0.637725
-4.575550 -5.434104 0.636479
-4.576361 -5.415791 0.635342
-4.569929 -5.392864 0.632802
-4.569277 -5.373844 0.631430
-4.569592 -5.355547 0.630272
-4.573608 -5.339675 0.629864
-4.578650 -5.324485 0.629677
-4.573419 -5.302981 0.627507
-4.552537 -5.272080 0.622320
-4.566561 -5.262624 0.623954
-4.571134 -5.247425 0.623768
-4.562745 -5.224585 0.621095
-4.568797 -5.210381 0.621241
-4.549378 -5.181437 0.616496
-4.543211 -5.160403 0.614338
-4.536340 -5.139121 0.612072
-4.545957 -5.127232 0.612994
-4.622315 -5.152257 0.626706
-4.623258 -5.135109 0.625981
-4.615841 -5.113492 0.623682
-4.626080 -5.101489 0.624772
-4.626326 -4.997736 0.620059
-4.624349 -4.979679 0.618955
-4.639443 -4.970028 0.621082
-4.660435 -4.963104 0.624324
-4.700597 -4.965114 0.631170
-4.730422 -4.961871 0.636068
-4.701892 -4.914199 0.629352
-4.710522 -4.884091 0.629623
-4.642451 -4.820787 0.615611
-4.682689 -4.788932 0.621091
-2.461000 -6.302568 0.470774
-2.479226 -6.289687 0.472323
-2.521036 -6.318205 0.481285
-2.533632 -6.320745 0.483191
-2.540657 -6.302836 0.482048
-2.549880 -6.292348 0.481942
-2.592691 -6.308782 0.488480
-2.604963 -6.306149 0.489382
-2.612959 -6.289313 0.488114
-2.646964 -6.354459 0.499149
-2.645346 -6.306476 0.493119
-2.641471 -6.252569 0.486123
-2.672741 -6.263996 0.490086
-2.688288 -6.268600 0.491874
-2.694299 -6.245283 0.489372
-2.705282 -6.236410 0.489054
-2.717255 -6.230259 0.489136
-2.734886 -6.239563 0.491588
-2.750095 -6.241777 0.492943
-2.760442 -6.230702 0.492234
-2.771942 -6.222761 0.492000
-2.782886 -6.213396 0.491538
-2.813298 -6.216407 0.494002
-2.837304 -6.239485 0.498627
-2.853740 -6.243211 0.500233
-2.861748 -6.226296 0.498594
-2.875504 -6.223422 0.499172
-2.890929 -6.224426 0.500373
-2.908062 -6.229250 0.502195
-2.918169 -6.217710 0.501427
-2.931041 -6.212614 0.501693
-2.941360 -6.201829 0.501060
-2.952643 -6.193339 0.500802
-2.973559 -6.205945 0.503950
-2.994159 -6.217454 0.506949
-3.009283 -6.216934 0.508030
-3.018589 -6.204103 0.507132
-3.029212 -6.194211 0.506721
-3.040726 -6.186274 0.506639
-3.046223 -6.166236 0.504590
-3.047105 -6.137332 0.501087
-3.047989 -6.109002 0.497672
-3.062890 -6.108619 0.498864
-3.114183 -6.119332 0.504542
-3.125613 -6.083494 0.501247
-3.066559 -5.947751 0.479779
-3.076884 -5.940154 0.479814
-3.087926 -5.933890 0.480088
-3.102234 -5.933419 0.481360
-3.115705 -5.931381 0.482386
-3.128283 -5.927725 0.483153
-3.138997 -5.920840 0.483383
-3.150238 -5.914875 0.483784
-3.165737 -5.916039 0.485433
-3.177837 -5.911426 0.486101
-3.190832 -5.908251 0.487035
-3.211669 -5.917735 0.490201
-3.222956 -5.911564 0.490652
-3.235741 -5.907769 0.491536
-3.252599 -5.910324 0.493559
-3.269084 -5.912113 0.495472
-3.280007 -5.905160 0.495851
-3.292129 -5.900039 0.496570
-3.305637 -5.896977 0.497673
-3.320275 -5.895524 0.499085
-3.340606 -5.902381 0.502021
-3.352869 -5.897141 0.502789
-3.364927 -5.891564 0.503511
-3.382078 -5.893263 0.505580
-3.398053 -5.893112 0.507334
-3.414916 -5.894064 0.509314
-3.438773 -5.904599 0.513097
-3.451960 -5.900045 0.514106
-3.463558 -5.893255 0.514712
-3.478131 -5.890468 0.516083
-3.491681 -5.886210 0.517195
-3.511763 -5.890550 0.519954
-3.529174 -5.891135 0.522028
-3.544376 -5.888673 0.523543
-3.561821 -5.888992 0.525612
-3.578063 -5.887603 0.527376
-3.594809 -5.886717 0.529259
-3.614819 -5.889774 0.531934
-3.626233 -5.881936 0.532504
-3.646546 -5.885022 0.535235
-3.662365 -5.882407 0.536869
-3.678738 -5.880340 0.538631
-3.694572 -5.877499 0.540261
-3.710402 -5.874533 0.541886
-3.727930 -5.873444 0.543909
-3.748034 -5.875193 0.546530
-3.771295 -5.880371 0.549879
-3.788897 -5.878821 0.551889
-3.803755 -5.874022 0.553256
-3.819017 -5.869585 0.554714
-3.836006 -5.866966 0.556569
-3.875894 -5.889369 0.563666
-3.891055 -5.884263 0.565071
-3.903137 -5.875746 0.565774
-3.918094 -5.870273 0.567133
-3.936232 -5.868080 0.569209
-3.955527 -5.866954 0.571538
-3.966191 -5.856694 0.571929
-3.984461 -5.854261 0.574022
-3.996710 -5.845544 0.574773
-4.033168 -5.861246 0.580876
-4.048605 -5.855430 0.582317
-4.073416 -5.858819 0.585812
-4.090802 -5.854655 0.587670
-4.101726 -5.844080 0.588119
-4.125113 -5.845516 0.591277
-4.142999 -5.841469 0.593234
-4.185293 -5.860390 0.600438
-4.257032 -5.841760 0.608193
-4.264226 -5.827095 0.607857
-4.277653 -5.818064 0.608848
-4.295951 -5.813303 0.610866
-4.311902 -5.806354 0.612392
-4.337366 -5.807590 0.615902
-4.355724 -5.802461 0.617926
-4.388405 -5.809430 0.622914
-4.414512 -5.810484 0.626526
-4.435171 -5.806728 0.629007
-4.452810 -5.800307 0.630867
-4.468539 -5.792203 0.632339
-4.483227 -5.783171 0.633603
-4.520280 -5.792108 0.639416
-4.536171 -5.783732 0.640923
-4.550172 -5.773777 0.642053
-4.568134 -5.766871 0.643990
-4.579462 -5.754700 0.644599
-4.587893 -5.740284 0.644640
-4.603012 -5.730986 0.646031
-4.620933 -5.723725 0.647988
-4.626641 -5.707227 0.647527
-4.607053 -5.672080 0.642081
-4.612271 -5.655521 0.641575
-4.615964 -5.637918 0.640789
-4.612095 -5.614964 0.638540
-4.604548 -5.589578 0.635600
-4.591588 -5.560614 0.631636
-4.593269 -5.542163 0.630560
-4.595783 -5.524385 0.629670
-4.587592 -5.499374 0.626728
-4.576368 -5.472539 0.623231
-4.576878 -5.453828 0.622033
-4.577937 -5.435585 0.620963
-4.571811 -5.412719 0.618538
-4.574862 -5.396002 0.617901
-4.577105 -5.378828 0.617130
-4.576529 -5.359928 0.615844
-4.576353 -5.341386 0.614659
-4.576786 -5.323320 0.613614
-4.567498 -5.299344 0.610750
-4.557642 -5.275229 0.607810
-4.561110 -5.259381 0.607416
-4.561907 -5.241976 0.606539
-4.569230 -5.228504 0.606911
-4.550189 -5.199594 0.602356
-4.562514 -5.189159 0.603710
-4.638912 -5.215330 0.617057
-4.653036 -5.151621 0.616066
-4.705208 -5.144090 0.624040
-2.459550 -6.256677 0.453813
-2.521264 -6.318995 0.468787
-2.551010 -6.295528 0.469728
-2.562016 -6.290462 0.470344
-2.576715 -6.297269 0.472627
-2.588243 -6.292741 0.473243
-2.598443 -6.283428 0.473126
-2.623262 -6.320626 0.479732
-2.643238 -6.340857 0.483865
-2.638720 -6.283955 0.476702
-2.630511 -6.217045 0.467997
-2.646200 -6.223625 0.470025
-2.670075 -6.253853 0.475525
-2.685823 -6.259079 0.477332
-2.696315 -6.248696 0.476813
-2.706488 -6.237400 0.476137
-2.711725 -6.212379 0.473396
-2.739366 -6.249366 0.479889
-2.756976 -6.257874 0.482139
-2.761837 -6.231890 0.479214
-2.769989 -6.215089 0.477650
-2.785978 -6.218884 0.479179
-2.801047 -6.220039 0.480315
-2.818016 -6.225781 0.482150
-2.837183 -6.236669 0.484777
-2.853510 -6.240150 0.486291
-2.866144 -6.234470 0.486418
-2.878192 -6.227409 0.486339
-2.890992 -6.222182 0.486548
-2.906425 -6.223085 0.487709
-2.915844 -6.210064 0.486737
-2.931283 -6.210888 0.487909
-2.945059 -6.207868 0.488502
-2.958587 -6.204269 0.489019
-2.972751 -6.202040 0.489763
-2.992247 -6.211229 0.492307
-2.999142 -6.193321 0.490632
-3.010324 -6.184743 0.490426
-3.023794 -6.181009 0.490995
-3.047489 -6.166933 0.491136
-3.051717 -6.144750 0.488820
-3.062074 -6.135091 0.488500
-3.077181 -6.134829 0.489694
-3.090707 -6.102144 0.486971
-3.110424 -6.053961 0.483057
-3.069789 -5.952250 0.467809
-3.077098 -5.939181 0.466960
-3.090914 -5.937899 0.468051
-3.101861 -5.931466 0.468313
-3.112451 -5.924434 0.468489
-3.125754 -5.922121 0.469461
-3.137636 -5.917311 0.470035
-3.152114 -5.916872 0.471353
-3.165845 -5.915069 0.472464
-3.179095 -5.912385 0.473445
-3.193711 -5.911868 0.474809
-3.208446 -5.911427 0.476207
-3.223461 -5.911319 0.477681
-3.237655 -5.909776 0.478932
-3.256311 -5.915145 0.481386
-3.270504 -5.913329 0.482632
-3.279716 -5.903740 0.482556
-3.291870 -5.898694 0.483276
-3.305192 -5.895373 0.484310
-3.319084 -5.892830 0.485496
-3.342173 -5.903799 0.489071
-3.364596 -5.913433 0.492448
-3.373910 -5.903724 0.492439
-3.384412 -5.895765 0.492749
-3.397973 -5.892162 0.493846
-3.414772 -5.893039 0.495762
-3.433940 -5.897050 0.498265
-3.453213 -5.900977 0.500780
-3.463684 -5.892642 0.501100
-3.476429 -5.887394 0.501991
-3.492430 -5.886454 0.503685
-3.508335 -5.885249 0.505351
-3.529785 -5.891199 0.508359
-3.548689 -5.893561 0.510735
-3.563437 -5.890356 0.512100
-3.581113 -5.890790 0.514163
-3.600377 -5.893062 0.516597
-3.614556 -5.888752 0.517815
-3.628562 -5.884143 0.518992
-3.652451 -5.891605 0.522487
-3.666397 -5.886650 0.523640
-3.679549 -5.880658 0.524609
-3.702564 -5.886396 0.527861
-3.714497 -5.878736 0.528543
-3.721526 -5.865293 0.528107
-3.754480 -5.882049 0.533598
-3.774235 -5.883125 0.536054
-3.798160 -5.888758 0.539441
-3.807399 -5.877521 0.539505
-3.821462 -5.871711 0.540660
-3.833328 -5.863392 0.541324
-3.848788 -5.858994 0.542792
-3.895359 -5.888345 0.551141
-3.915433 -5.888408 0.553592
-3.925720 -5.877831 0.553887
-3.937035 -5.868349 0.554414
-3.963916 -5.875170 0.558334
-3.968868 -5.858906 0.557481
-3.984642 -5.853883 0.558980
-4.014974 -5.863601 0.563609
-4.030475 -5.857970 0.565035
-4.048508 -5.854783 0.567001
-4.070206 -5.855091 0.569740
-4.087782 -5.851148 0.571597
-4.104102 -5.845857 0.573185
-4.123959 -5.843873 0.575515
-4.154727 -5.852143 0.580123
-4.183936 -5.858582 0.584383
-4.200963 -5.853279 0.586091
-4.207649 -5.838264 0.585656
-4.231948 -5.839522 0.588871
-4.256255 -5.840553 0.592075
-4.266953 -5.829066 0.592480
-4.279650 -5.819367 0.593302
-4.296956 -5.813718 0.595068
-4.315737 -5.809252 0.597133
-4.333847 -5.804068 0.599060
-4.361387 -5.806883 0.602887
-4.382268 -5.803742 0.605364
-4.411199 -5.807240 0.609448
-4.436186 -5.807143 0.612733
-4.453524 -5.800473 0.614488
-4.465005 -5.788883 0.615085
-4.504624 -5.800180 0.621252
-4.526837 -5.796994 0.623966
-4.534781 -5.782232 0.623875
-4.549794 -5.773099 0.625183
-4.576188 -5.772813 0.628720
-4.590031 -5.762545 0.629808
-4.594254 -5.744829 0.629037
-4.609529 -5.735615 0.630426
-4.619465 -5.722297 0.630791
-4.612371 -5.696264 0.627893
-4.615894 -5.678326 0.627064
-4.617355 -5.658967 0.625861
-4.619818 -5.640449 0.624873
-4.616205 -5.617666 0.622749
-4.599670 -5.585877 0.618199
-4.596035 -5.563529 0.616133
-4.596036 -5.543892 0.614782
-4.593293 -5.522480 0.612938
-4.585088 -5.497493 0.610093
-4.579370 -5.474416 0.607746
-4.575085 -5.452489 0.605695
-4.575758 -5.434019 0.604599
-4.578017 -5.416687 0.603820
-4.579362 -5.398837 0.602893
-4.580354 -5.380844 0.601924
-4.585361 -5.365494 0.601720
-4.581900 -5.344841 0.599972
-4.582818 -5.327059 0.599057
-4.575181 -5.304078 0.596591
-4.564484 -5.279418 0.593593
-4.557131 -5.257003 0.591238
-4.559722 -5.240714 0.590730
-4.545773 -5.214690 0.587224
-4.562263 -5.206736 0.589294
-4.582075 -5.200575 0.591980
-4.763048 -5.066594 0.614170
-4.786521 -4.901349 0.612035
-4.681997 -4.772913 0.590734
-4.679312 -4.661609 0.585669
-4.672967 -4.557598 0.578446
-2.476207 -6.279567 0.446343
-2.534313 -6.322530 0.458059
-2.551935 -6.341393 0.462037
-2.560733 -6.328377 0.461581
-2.562257 -6.290267 0.457589
-2.574180 -6.287553 0.458457
-2.611587 -6.239298 0.456299
-2.625531 -6.241096 0.457622
-2.629615 -6.212278 0.454578
-2.642900 -6.211575 0.455490
-2.665445 -6.237906 0.460238
-2.682766 -6.247848 0.462643
-2.693153 -6.237249 0.462097
-2.707245 -6.237130 0.463036
-2.728230 -6.255929 0.466690
-2.748406 -6.271688 0.469911
-2.756392 -6.253777 0.468263
-2.762956 -6.232366 0.466091
-2.772065 -6.218050 0.464935
-2.788230 -6.222222 0.466467
-2.807407 -6.233793 0.469085
-2.823401 -6.236863 0.470470
-2.833591 -6.225284 0.469712
-2.850682 -6.230779 0.471468
-2.868950 -6.238832 0.473614
-2.879126 -6.227257 0.472872
-2.891505 -6.221045 0.472929
-2.905219 -6.217979 0.473462
-2.918677 -6.214294 0.473915
-2.932784 -6.212061 0.474596
-2.941035 -6.196708 0.473325
-2.959673 -6.204526 0.475539
-2.991422 -6.207399 0.478111
-2.998089 -6.189085 0.476434
-3.027144 -6.186039 0.478205
-3.048818 -6.167801 0.477721
-3.055083 -6.149712 0.476119
-3.067356 -6.143806 0.476398
-3.079919 -6.138494 0.476783
-3.074428 -6.098358 0.471784
-3.091321 -6.101729 0.473535
-3.113008 -6.113957 0.476692
-3.118105 -6.094859 0.474977
-3.086683 -6.008731 0.462737
-3.069565 -5.950481 0.454821
-3.078387 -5.940183 0.454447
-3.089158 -5.933473 0.454650
-3.099564 -5.926154 0.454770
-3.110867 -5.920439 0.455158
-3.123813 -5.917569 0.456015
-3.138185 -5.917076 0.457273
-3.151696 -5.915019 0.458297
-3.165586 -5.913515 0.459429
-3.178877 -5.910927 0.460403
-3.194873 -5.912698 0.462106
-3.210570 -5.913821 0.463725
-3.225939 -5.914264 0.465255
-3.241966 -5.915610 0.466954
-3.259259 -5.918786 0.468980
-3.270394 -5.912186 0.469404
-3.281457 -5.905473 0.469821
-3.294189 -5.901299 0.470676
-3.307283 -5.897618 0.471629
-3.325082 -5.900896 0.473774
-3.345942 -5.908493 0.476678
-3.363534 -5.911010 0.478748
-3.376105 -5.906054 0.479563
-3.387094 -5.898780 0.479994
-3.400164 -5.894458 0.480946
-3.415430 -5.893159 0.482436
-3.431476 -5.892822 0.484114
-3.447682 -5.892562 0.485825
-3.468002 -5.897773 0.488520
-3.480332 -5.891918 0.489291
-3.494051 -5.887880 0.490397
-3.513467 -5.891325 0.492851
-3.531025 -5.892101 0.494855
-3.547603 -5.891428 0.496623
-3.563411 -5.889613 0.498205
-3.577477 -5.885445 0.499381
-3.598547 -5.890052 0.502171
-3.615420 -5.889150 0.503983
-3.629964 -5.885207 0.505257
-3.640822 -5.876641 0.505695
-3.668480 -5.888525 0.509935
-3.683023 -5.884195 0.511197
-3.696245 -5.878198 0.512163
-3.715341 -5.879094 0.514440
-3.729903 -5.874485 0.515701
-3.747417 -5.873216 0.517613
-3.785977 -5.896010 0.524145
-3.792896 -5.882137 0.523705
-3.817142 -5.887910 0.527056
-3.830309 -5.881000 0.527983
-3.832355 -5.861714 0.526510
-3.854777 -5.864976 0.529443
-3.889776 -5.881676 0.535056
-3.904569 -5.876107 0.536322
-3.933424 -5.885469 0.540575
-3.945627 -5.876858 0.541280
-3.960529 -5.871045 0.542558
-3.979031 -5.868886 0.544591
-3.976830 -5.845286 0.542290
-4.023202 -5.871423 0.550132
-4.039495 -5.866520 0.551684
-4.055780 -5.861504 0.553232
-4.074063 -5.858364 0.555189
-4.086824 -5.849665 0.556010
-4.110040 -5.851094 0.558971
-4.128792 -5.847998 0.561011
-4.151352 -5.848392 0.563820
-4.205186 -5.856714 0.571161
-4.217217 -5.846633 0.571822
-4.233694 -5.840619 0.573378
-4.249967 -5.834319 0.574893
-4.264922 -5.826735 0.576147
-4.284976 -5.823639 0.578413
-4.301680 -5.817419 0.580014
-4.317650 -5.810454 0.581472
-4.337803 -5.807037 0.583751
-4.360059 -5.805275 0.586437
-4.382601 -5.803569 0.589174
-4.407814 -5.803927 0.592423
-4.436891 -5.807288 0.596411
-4.457148 -5.803041 0.598687
-4.472376 -5.794511 0.599995
-4.481219 -5.780711 0.600086
-4.518375 -5.789759 0.605596
-4.533410 -5.780735 0.606875
-4.552715 -5.775019 0.608971
-4.579303 -5.774871 0.612447
-4.591928 -5.763646 0.613282
-4.603058 -5.751236 0.613846
-4.613135 -5.738011 0.614224
-4.623861 -5.725275 0.614737
-4.614542 -5.697563 0.611522
-4.617278 -5.679040 0.610584
-4.621701 -5.661855 0.609980
-4.622970 -5.642454 0.608811
-4.606461 -5.610404 0.604382
-4.599086 -5.585212 0.601675
-4.596467 -5.563599 0.599871
-4.595754 -5.543475 0.598442
-4.591763 -5.521219 0.596438
-4.588176 -5.499414 0.594535
-4.583214 -5.476844 0.592408
-4.578960 -5.454928 0.590437
-4.580960 -5.437326 0.589624
-4.584976 -5.421129 0.589197
-4.586332 -5.403256 0.588310
-4.583870 -5.383012 0.586759
-4.584185 -5.364667 0.585730
-4.588573 -5.348983 0.585454
-4.584115 -5.327822 0.583617
-4.577539 -5.305505 0.581428
-4.566067 -5.280373 0.578394
-4.563218 -5.260686 0.576923
-4.547417 -5.233378 0.573180
-4.543382 -5.213314 0.571552
-4.552189 -5.200895 0.572217
-4.574378 -5.196191 0.575259
-4.757458 -5.227610 0.604035
-4.787477 -5.151787 0.605364
-4.752994 -5.061849 0.596624
-4.773866 -5.000947 0.597745
-4.772185 -4.827156 0.591888
-2.475194 -6.405197 0.445689
-2.464840 -6.321147 0.436429
-2.489580 -6.288029 0.436622
-2.511637 -6.283710 0.438848
-2.526266 -6.293331 0.441464
-2.551788 -6.340196 0.449016
-2.560174 -6.325552 0.448346
-2.564541 -6.296970 0.445753
-2.577182 -6.296359 0.446866
-2.590430 -6.297135 0.448132
-2.603892 -6.297986 0.449376
-2.612445 -6.282556 0.448378
-2.619708 -6.263018 0.446778
-2.628975 -6.249805 0.446003
-2.641112 -6.245307 0.446387
-2.648482 -6.226209 0.444741
-2.665512 -6.235876 0.447027
-2.680711 -6.239562 0.448476
-2.691297 -6.229576 0.448021
-2.705327 -6.229318 0.448898
-2.725854 -6.246872 0.452245
-2.742935 -6.254204 0.454171
-2.757757 -6.254982 0.455181
-2.763427 -6.231151 0.452739
-2.776198 -6.226439 0.452968
-2.793709 -6.233943 0.454915
-2.809798 -6.237434 0.456305
-2.819554 -6.224743 0.455411
-2.833881 -6.223594 0.456154
-2.851434 -6.230228 0.458010
-2.869396 -6.237540 0.459977
-2.891656 -6.254763 0.463377
-2.892601 -6.221333 0.459544
-2.904165 -6.213287 0.459345
-2.917971 -6.210469 0.459908
-2.930790 -6.205389 0.460157
-2.947630 -6.209299 0.461719
-2.971900 -6.229364 0.465644
-2.988507 -6.232167 0.467091
-3.003139 -6.197845 0.464201
-3.018908 -6.198868 0.465432
-3.034405 -6.199203 0.466580
-3.044507 -6.157319 0.462638
-3.052647 -6.143127 0.461672
-3.069578 -6.146512 0.463329
-3.087923 -6.093709 0.458980
-3.114522 -6.115295 0.463446
-3.119414 -6.095829 0.461744
-3.077746 -5.990873 0.447070
-3.067322 -5.945069 0.441317
-3.075644 -5.933949 0.440836
-3.086606 -5.927668 0.441104
-3.098975 -5.923890 0.441771
-3.112112 -5.921417 0.442654
-3.126797 -5.921552 0.443959
-3.138462 -5.916407 0.444463
-3.151779 -5.914042 0.445414
-3.167329 -5.915337 0.446956
-3.182027 -5.915071 0.448274
-3.197348 -5.915703 0.449753
-3.213146 -5.916967 0.451353
-3.231261 -5.921789 0.453540
-3.247849 -5.923960 0.455330
-3.260250 -5.919374 0.456061
-3.270936 -5.912082 0.456371
-3.282874 -5.906726 0.457004
-3.296706 -5.904227 0.458114
-3.313059 -5.905438 0.459846
-3.333372 -5.912396 0.462538
-3.348800 -5.911852 0.464029
-3.360475 -5.905684 0.464612
-3.373460 -5.901390 0.465518
