ply
format ascii 1.0
comment ---
element vertex 1703
property float x
property float y
property float z
element face 0
property list uchar uint vertex_indices
end_header
-3.164970 2.755533 0.186109
-3.151101 2.767421 0.185741
-3.131169 2.771451 0.185226
-3.083597 2.738933 0.184064
-3.063154 2.741711 0.183525
-3.039181 2.739612 0.182899
-3.008795 2.728569 0.182121
-2.980302 2.719704 0.181384
-2.947974 2.705144 0.180556
-2.932061 2.713069 0.180104
-2.910864 2.713468 0.179529
-2.894129 2.720027 0.179056
-2.863980 2.707114 0.178279
-2.838266 2.700156 0.177606
-2.813207 2.693761 0.176953
-2.794482 2.696388 0.176449
-2.768415 2.687730 0.175785
-2.742759 2.679206 0.175140
-2.723488 2.679983 0.174649
-2.707032 2.684794 0.174233
-2.684758 2.680212 0.173700
-2.662532 2.675215 0.173183
-2.642380 2.673016 0.172729
-2.620399 2.667376 0.172252
-2.597452 2.659575 0.171773
-2.578475 2.657678 0.171405
-2.567102 2.667894 0.171231
-2.552274 2.671968 0.171004
-2.520349 2.646524 0.170412
-2.494648 2.630683 0.169987
-3.841889 -0.240859 0.121488
-3.821010 -0.228657 0.121807
-3.831288 -0.215943 0.122061
-3.838470 -0.202998 0.122360
-3.846703 -0.189771 0.122689
-3.841140 -0.176674 0.123089
-3.841434 -0.163261 0.123502
-3.831108 -0.150074 0.123969
-3.824897 -0.136658 0.124448
-4.007879 -0.114446 0.124542
-4.068786 -0.096604 0.124961
-3.976304 -0.086559 0.125700
-4.036952 -0.068079 0.126174
-4.054461 -0.036325 0.127367
-4.042580 -0.021732 0.128009
-4.031905 -0.007090 0.128656
-4.029317 0.008186 0.129301
-4.030590 0.023828 0.129950
-4.024365 0.038824 0.130606
-4.017668 0.053748 0.131263
-4.014418 0.068990 0.131919
-4.022937 0.085495 0.132578
-4.021904 0.101022 0.133235
-4.019568 0.116398 0.133889
-4.017989 0.131855 0.134539
-4.009338 0.146401 0.135177
-4.016144 0.162913 0.135828
-4.003761 0.176860 0.136446
-4.002320 0.192242 0.137074
-3.999897 0.207465 0.137692
-4.004918 0.223794 0.138319
-4.004392 0.239301 0.138928
-3.999078 0.254027 0.139518
-3.993468 0.268649 0.140097
-3.999538 0.285218 0.140700
-4.002898 0.301368 0.141289
-3.999577 0.316339 0.141850
-3.995862 0.331207 0.142400
-3.984733 0.344624 0.142914
-3.987424 0.360642 0.143468
-3.984446 0.375553 0.143992
-3.978659 0.389863 0.144496
-3.988453 0.407403 0.145057
-3.988271 0.422900 0.145569
-3.991461 0.439147 0.146088
-3.989513 0.454281 0.146576
-3.990672 0.470125 0.147071
-3.989989 0.485562 0.147549
-3.983890 0.499712 0.147992
-3.978377 0.513964 0.148428
-3.978774 0.529657 0.148889
-3.974057 0.544075 0.149313
-3.972404 0.559265 0.149747
-3.966506 0.573342 0.150149
-3.961834 0.587719 0.150550
-3.951208 0.600446 0.150907
-3.967478 0.620610 0.151424
-3.960681 0.634411 0.151791
-3.952276 0.647713 0.152140
-3.950983 0.663061 0.152529
-3.950711 0.678738 0.152918
-3.947652 0.693605 0.153283
-3.946512 0.709075 0.153656
-3.937706 0.722166 0.153967
-3.934220 0.736911 0.154311
-3.943252 0.755730 0.154743
-3.954388 0.775382 0.155187
-3.958461 0.792832 0.155576
-3.944786 0.804342 0.155823
-3.938973 0.818476 0.156125
-3.939720 0.834902 0.156475
-3.938736 0.850775 0.156806
-3.934310 0.865453 0.157106
-3.933877 0.881604 0.157434
-3.931350 0.897032 0.157741
-3.928940 0.912539 0.158045
-3.920854 0.925917 0.158297
-3.919332 0.941812 0.158601
-3.924654 0.960439 0.158963
-3.922201 0.976099 0.159254
-3.907962 0.987051 0.159435
-3.903028 1.001718 0.159696
-3.907300 1.020210 0.160038
-3.905240 1.036165 0.160320
-3.904203 1.052604 0.160609
-3.902668 1.068891 0.160892
-3.901906 1.085572 0.161179
-3.901551 1.102501 0.161469
-3.896566 1.117435 0.161711
-3.891831 1.132504 0.161954
-3.881078 1.144846 0.162134
-3.880861 1.162028 0.162416
-3.881121 1.179514 0.162703
-3.883203 1.197949 0.163007
-3.883244 1.215512 0.163289
-3.880696 1.231901 0.163543
-3.875370 1.246979 0.163766
-3.867880 1.261007 0.163965
-3.866764 1.278244 0.164230
-3.872718 1.299159 0.164570
-3.867493 1.314473 0.164789
-3.862611 1.329996 0.165010
-3.860207 1.346859 0.165256
-3.860261 1.365097 0.165530
-3.856081 1.381147 0.165755
-3.852792 1.397727 0.165989
-3.846952 1.412958 0.166193
-3.844012 1.429832 0.166429
-3.847208 1.450224 0.166736
-3.848251 1.469528 0.167017
-3.837853 1.482360 0.167164
-3.830540 1.496959 0.167345
-3.841273 1.522182 0.167740
-3.841989 1.541690 0.168016
-3.836850 1.615914 0.169019
-3.827031 1.629354 0.169162
-3.787937 1.643744 0.169194
-3.762223 1.646739 0.169126
-3.698417 1.624645 0.168563
-3.623345 1.594389 0.167843
-3.615523 1.608030 0.167985
-3.615699 1.627057 0.168230
-3.609944 1.642169 0.168396
-3.605523 1.658232 0.168578
-3.602246 1.675144 0.168774
-3.599954 1.692816 0.168982
-3.595383 1.708964 0.169157
-3.592700 1.726517 0.169357
-3.591522 1.745238 0.169575
-3.588154 1.762471 0.169762
-3.581954 1.777699 0.169907
-3.580031 1.796140 0.170110
-3.596580 1.828530 0.170571
-3.599178 1.850730 0.170835
-3.589851 1.863989 0.170929
-3.593220 1.887043 0.171201
-3.583766 1.900296 0.171287
-3.570085 1.910223 0.171309
-3.574205 1.934220 0.171584
-3.572966 1.954128 0.171780
-3.566316 1.969786 0.171894
-3.564317 1.989290 0.172073
-3.566628 2.012470 0.172312
-3.569311 2.036148 0.172555
-3.577502 2.064654 0.172877
-3.571271 2.081222 0.172980
-3.561488 2.094815 0.173025
-3.560421 2.115949 0.173198
-3.560251 2.138020 0.173380
-3.541915 2.144273 0.173280
-3.538055 2.163263 0.173396
-3.549713 2.196285 0.173747
-3.546407 2.216142 0.173863
-3.559069 2.250718 0.174223
-3.555089 2.270362 0.174319
-3.547889 2.287142 0.174359
-3.543032 2.306200 0.174429
-3.527792 2.315542 0.174330
-3.534198 2.345532 0.174566
-3.539176 2.374473 0.174774
-3.535088 2.394892 0.174832
-3.526013 2.410563 0.174803
-3.523196 2.432511 0.174868
-3.526560 2.460836 0.175024
-3.523304 2.482776 0.175066
-3.513575 2.498303 0.174997
-3.512228 2.522533 0.175055
-3.513024 2.549226 0.175140
-3.506043 2.568048 0.175090
-3.495205 2.582926 0.174969
-3.487731 2.601468 0.174894
-3.481795 2.621809 0.174835
-3.470574 2.636573 0.174680
-3.457909 2.649826 0.174493
-3.451250 2.669790 0.174393
-3.455602 2.702259 0.174463
-3.448396 2.722083 0.174335
-3.436442 2.736671 0.174119
-3.415041 2.740464 0.173740
-3.398713 2.750034 0.173434
-3.381312 2.758340 0.173100
-3.363142 2.765707 0.172743
-3.334060 2.759977 0.172201
-3.306306 2.755558 0.171671
-3.278541 2.750857 0.171132
-3.261907 2.759591 0.170763
-3.240777 2.762730 0.170312
-3.218247 2.763993 0.169831
-3.193504 2.762297 0.169306
-3.163774 2.754007 0.168696
-3.128148 2.737752 0.167986
-3.119318 2.755983 0.167691
-3.084661 2.740340 0.166985
-3.064417 2.743396 0.166500
-3.044606 2.746909 0.166016
-3.016185 2.738604 0.165395
-2.979449 2.718523 0.164646
-2.952654 2.711613 0.164048
-2.930518 2.710880 0.163520
-2.910882 2.713453 0.163029
-2.887191 2.710056 0.162480
-2.863880 2.706901 0.161938
-2.841793 2.705215 0.161420
-2.820331 2.704154 0.160915
-2.796773 2.699668 0.160388
-2.761741 2.677531 0.159704
-2.741433 2.677003 0.159244
-2.721969 2.677428 0.158808
-2.704457 2.680539 0.158414
-2.686733 2.683006 0.158032
-2.665560 2.679665 0.157619
-2.641251 2.670818 0.157182
-2.616981 2.661408 0.156766
-2.595392 2.655715 0.156411
-2.580664 2.660730 0.156176
-2.568815 2.670125 0.156007
-2.549114 2.665966 0.155755
-2.523297 2.650781 0.155447
-3.827284 -0.240301 0.108194
-3.834971 -0.227875 0.108357
-3.841865 -0.215183 0.108562
-3.851130 -0.202183 0.108786
-3.850093 -0.189151 0.109122
-3.862598 -0.175559 0.109391
-3.851267 -0.162458 0.109864
-3.829979 -0.149662 0.110431
-3.817291 -0.136547 0.110961
-3.939734 -0.088205 0.111650
-4.070080 -0.065717 0.111397
-4.052660 -0.036112 0.112689
-4.030080 -0.022338 0.113429
-4.029996 -0.006932 0.114049
-4.030099 0.008549 0.114676
-4.026655 0.023768 0.115328
-4.019176 0.038618 0.116004
-4.013427 0.053603 0.116672
-4.019334 0.069764 0.117288
-4.023485 0.085817 0.117914
-4.021246 0.101206 0.118567
-4.019924 0.116696 0.119214
-4.018825 0.132212 0.119857
-4.019114 0.147901 0.120491
-4.004931 0.161680 0.121167
-4.002692 0.176965 0.121796
-4.010692 0.193686 0.122389
-4.003058 0.208184 0.123020
-4.006614 0.224308 0.123614
-4.006058 0.239820 0.124212
-3.993826 0.253437 0.124826
-3.993622 0.268936 0.125404
-3.998666 0.285333 0.125966
-3.998066 0.300783 0.126530
-3.991720 0.315186 0.127093
-3.998255 0.331925 0.127630
-4.001050 0.348016 0.128165
-3.987500 0.360936 0.128706
-3.981165 0.375176 0.129229
-3.985275 0.391508 0.129736
-3.994526 0.408970 0.130234
-3.993280 0.424270 0.130729
-3.985875 0.438212 0.131215
-3.983816 0.453297 0.131691
-3.985764 0.469297 0.132160
-3.985243 0.484751 0.132620
-3.984679 0.500207 0.133072
-3.982945 0.515390 0.133516
-3.974936 0.529010 0.133946
-3.970297 0.543430 0.134370
-3.971318 0.559299 0.134791
-3.970857 0.574811 0.135203
-3.969667 0.590149 0.135608
-3.964807 0.604498 0.136000
-3.959868 0.618807 0.136384
-3.962436 0.635235 0.136773
-3.956155 0.649161 0.137140
-3.946434 0.662048 0.137493
-3.944618 0.677242 0.137854
-3.942716 0.692431 0.138209
-3.942082 0.708034 0.138560
-3.938507 0.722747 0.138899
-3.944486 0.756462 0.139592
-3.945118 0.772658 0.139926
-3.948872 0.789954 0.140263
-3.945331 0.804859 0.140576
-3.936628 0.817999 0.140867
-3.935084 0.833609 0.141175
-3.941767 0.852183 0.141505
-3.939109 0.867514 0.141801
-3.934444 0.882141 0.142086
-3.931640 0.897468 0.142373
-3.930614 0.913496 0.142661
-3.922079 0.926709 0.142919
-3.918719 0.941898 0.143191
-3.922024 0.959730 0.143485
-3.921692 0.976217 0.143762
-3.912110 0.989041 0.143999
-3.905159 1.002903 0.144242
-3.899547 1.017315 0.144487
-3.901409 1.034870 0.144760
-3.901178 1.051628 0.145022
-3.901793 1.068820 0.145286
-3.903167 1.086425 0.145551
-3.902967 1.103426 0.145807
-3.899407 1.119001 0.146044
-3.890881 1.132368 0.146256
-3.878532 1.143970 0.146445
-3.875501 1.159831 0.146678
-3.878409 1.178525 0.146938
-3.881471 1.197406 0.147197
-3.879219 1.213853 0.147429
-3.878949 1.231323 0.147668
-3.873961 1.246554 0.147882
-3.869858 1.262255 0.148098
-3.872304 1.281293 0.148348
-3.871298 1.298691 0.148578
-3.866744 1.314338 0.148788
-3.860095 1.328930 0.148983
-3.861218 1.347633 0.149222
-3.860953 1.365702 0.149451
-3.862957 1.385085 0.149694
-3.856315 1.399874 0.149883
-3.847916 1.413710 0.150061
-3.844378 1.430251 0.150266
-3.848403 1.451108 0.150517
-3.849650 1.470531 0.150751
-3.841134 1.484448 0.150921
-3.836771 1.500779 0.151117
-3.837884 1.520379 0.151347
-3.837044 1.538934 0.151564
-3.820496 1.567303 0.151894
-3.825657 1.648273 0.152802
-3.800554 1.651956 0.152838
-3.768829 1.651144 0.152822
-3.718131 1.637641 0.152663
-3.627490 1.597241 0.152201
-3.619097 1.610524 0.152337
-3.616961 1.628014 0.152517
-3.612897 1.644279 0.152682
-3.610774 1.661935 0.152860
-3.607157 1.678641 0.153025
-3.598288 1.691738 0.153147
-3.592692 1.707144 0.153292
-3.594246 1.727698 0.153492
-3.593431 1.746687 0.153671
-3.591652 1.765085 0.153840
-3.586091 1.780803 0.153977
-3.576770 1.793777 0.154081
-3.580429 1.816476 0.154288
-3.593437 1.866774 0.154746
-3.582194 1.878575 0.154822
-3.576385 1.894581 0.154941
-3.568574 1.909066 0.155040
-3.562578 1.925016 0.155150
-3.564907 1.947691 0.155329
-3.563662 1.967657 0.155474
-3.564153 1.989171 0.155631
-3.563064 2.009542 0.155770
-3.574547 2.040513 0.156017
-3.568290 2.056919 0.156104
-3.567298 2.077854 0.156232
-3.561773 2.095057 0.156316
-3.558726 2.114480 0.156417
-3.558504 2.136488 0.156540
-3.555453 2.156178 0.156631
-3.561087 2.183710 0.156798
-3.561069 2.206451 0.156907
-3.566195 2.234032 0.157059
-3.542092 2.235194 0.156933
-3.559593 2.274494 0.157189
-3.551015 2.290028 0.157195
-3.540875 2.304152 0.157179
-3.533412 2.320845 0.157182
-3.527677 2.339271 0.157193
-3.534020 2.369471 0.157313
-3.532772 2.392611 0.157352
-3.528389 2.412874 0.157355
-3.520249 2.429562 0.157314
-3.516888 2.451126 0.157310
-3.518976 2.478379 0.157349
-3.505009 2.489542 0.157227
-3.512350 2.522637 0.157299
-3.508691 2.544703 0.157257
-3.500950 2.562688 0.157167
-3.490237 2.577650 0.157039
-3.485004 2.598541 0.156953
-3.481200 2.621156 0.156870
-3.473389 2.639630 0.156739
-3.461653 2.653936 0.156561
-3.455035 2.673986 0.156420
-3.455776 2.702455 0.156338
-3.448360 2.722049 0.156168
-3.436357 2.736583 0.155943
-3.422303 2.748840 0.155689
-3.401430 2.753211 0.155361
-3.382923 2.760253 0.155044
-3.361387 2.763653 0.154690
-3.337984 2.764700 0.154309
-3.310447 2.760591 0.153881
-3.287179 2.761427 0.153483
-3.261340 2.758933 0.153054
-3.237236 2.758368 0.152632
-3.217387 2.762958 0.152238
-3.191618 2.759954 0.151785
-3.164676 2.755212 0.151315
-3.143266 2.757348 0.150886
-3.117679 2.753893 0.150415
-3.089326 2.746540 0.149917
-3.068593 2.749004 0.149477
-3.048101 2.751656 0.149033
-3.017707 2.740712 0.148509
-2.992296 2.736188 0.148023
-2.953256 2.712475 0.147434
-2.932449 2.713601 0.146984
-2.909364 2.711312 0.146518
-2.881516 2.701936 0.146021
-2.862425 2.704776 0.145590
-2.845869 2.711119 0.145180
-2.822762 2.707672 0.144733
-2.799423 2.703523 0.144294
-2.767815 2.686552 0.143813
-2.740390 2.675269 0.143374
-2.716945 2.669529 0.142974
-2.700994 2.674944 0.142636
-2.682154 2.675565 0.142298
-2.666521 2.680875 0.141998
-2.644121 2.675046 0.141682
-2.619370 2.664851 0.141377
-2.595396 2.655249 0.141104
-2.580004 2.659107 0.140904
-2.566943 2.666405 0.140745
-2.549833 2.666504 0.140595
-2.526563 2.655585 0.140444
-2.517566 2.668340 0.140401
-3.823069 -0.239673 0.094911
-3.850185 -0.227074 0.094774
-3.859856 -0.214308 0.094887
-3.856222 -0.201517 0.095196
-3.864527 -0.188271 0.095398
-3.881052 -0.174530 0.095541
-3.865283 -0.161525 0.096092
-3.837175 -0.148952 0.096811
-3.831915 -0.135521 0.097292
-4.021127 -0.112988 0.095630
-4.030740 -0.097728 0.096024
-4.025822 -0.083061 0.096602
-4.044577 -0.066898 0.096946
-4.064682 -0.050368 0.097300
-4.046245 -0.036241 0.098074
-4.027090 -0.022260 0.098863
-4.023852 -0.007131 0.099498
-4.027963 0.008646 0.100069
-4.023715 0.023772 0.100729
-4.018009 0.038765 0.101407
-4.014308 0.053938 0.102068
-4.017877 0.069857 0.102665
-4.024216 0.086135 0.103239
-4.022229 0.101552 0.103887
-4.020021 0.116940 0.104534
-4.018786 0.132437 0.105170
-4.017093 0.147872 0.105805
-4.013075 0.162988 0.106453
-4.018072 0.179307 0.107025
-4.013639 0.194335 0.107663
-4.010169 0.209461 0.108286
-4.002077 0.223850 0.108933
-4.002284 0.239462 0.109513
-3.995201 0.253895 0.110133
-3.992997 0.269072 0.110712
-4.002186 0.286180 0.111209
-3.998413 0.301090 0.111780
-3.991009 0.315306 0.112363
-3.983751 0.329477 0.112934
-3.998357 0.347758 0.113369
-4.000514 0.363745 0.113869
-4.000079 0.379237 0.114375
-3.996896 0.394165 0.114886
-3.995309 0.409406 0.115378
-3.992613 0.424401 0.115867
-3.986451 0.438616 0.116363
-3.979878 0.452690 0.116850
-3.977769 0.467741 0.117307
-3.981834 0.484237 0.117728
-3.984916 0.500555 0.118146
-3.981004 0.515208 0.118585
-3.970116 0.528101 0.119042
-3.965955 0.542623 0.119462
-3.967945 0.558724 0.119852
-3.974192 0.575997 0.120219
-3.975074 0.591913 0.120599
-3.965796 0.605078 0.121005
-3.958359 0.618695 0.121396
-3.958393 0.634396 0.121756
-3.957792 0.649948 0.122110
-3.948421 0.662948 0.122483
-3.940816 0.676419 0.122843
-3.941434 0.692357 0.123173
-3.956100 0.712691 0.123461
-3.949273 0.726453 0.123799
-3.949912 0.742577 0.124112
-3.959754 0.761743 0.124400
-3.948143 0.773978 0.124729
-3.935181 0.785692 0.125054
-3.940008 0.803373 0.125337
-3.936782 0.818375 0.125630
-3.934635 0.833775 0.125916
-3.941824 0.852527 0.126182
-3.936886 0.867035 0.126463
-3.934439 0.882461 0.126736
-3.930006 0.897183 0.127007
-3.930409 0.913739 0.127267
-3.925182 0.928213 0.127530
-3.925048 0.944665 0.127782
-3.918948 0.958840 0.128037
-3.920135 0.975913 0.128281
-3.914648 0.990376 0.128527
-3.909886 1.005144 0.128769
-3.903344 1.019195 0.129008
-3.900471 1.034783 0.129241
-3.902760 1.052603 0.129468
-3.903651 1.069921 0.129693
-3.903958 1.087069 0.129915
-3.905820 1.104982 0.130135
-3.900568 1.119813 0.130355
-3.893235 1.133723 0.130572
-3.883153 1.146372 0.130787
-3.880489 1.162425 0.130998
-3.881637 1.180319 0.131206
-3.883262 1.198534 0.131412
-3.881524 1.215234 0.131616
-3.879152 1.231691 0.131818
-3.877281 1.248453 0.132019
-3.874103 1.264629 0.132217
-3.873125 1.281964 0.132414
-3.868881 1.297712 0.132608
-3.862348 1.312320 0.132799
-3.858067 1.328117 0.132990
-3.858917 1.346659 0.133181
-3.861809 1.366393 0.133372
-3.860286 1.383875 0.133560
-3.856713 1.400316 0.133745
-3.847867 1.413903 0.133924
-3.844710 1.430651 0.134105
-3.845526 1.449697 0.134289
-3.850678 1.471322 0.134477
-3.848246 1.488743 0.134655
-3.846536 1.506657 0.134834
-3.837476 1.520327 0.135002
-3.834314 1.537495 0.135175
-3.839407 1.559688 0.135358
-3.839181 1.578822 0.135533
-3.837699 1.616765 0.135879
-3.795147 1.648643 0.136321
-3.761699 1.646674 0.136430
-3.719342 1.638562 0.136519
-3.645231 1.609061 0.136544
-3.620465 1.611551 0.136651
-3.620666 1.630618 0.136802
-3.617850 1.647751 0.136946
-3.618886 1.667604 0.137095
-3.612005 1.682098 0.137227
-3.602051 1.694463 0.137349
-3.592512 1.707103 0.137470
-3.594378 1.727873 0.137613
-3.594393 1.747457 0.137749
-3.588150 1.762607 0.137870
-3.584254 1.779519 0.137993
-3.581713 1.797509 0.138116
-3.572151 1.810328 0.138219
-3.588962 1.863403 0.138507
-3.581450 1.878046 0.138606
-3.575617 1.894024 0.138706
-3.568830 1.909304 0.138799
-3.562116 1.924682 0.138889
-3.559116 1.943080 0.138985
-3.560193 1.964877 0.139089
-3.559058 1.985033 0.139182
-3.566365 2.012283 0.139296
-3.565884 2.033320 0.139383
-3.566394 2.055340 0.139468
-3.562973 2.074197 0.139537
-3.555112 2.089364 0.139588
-3.556242 2.112339 0.139661
-3.555908 2.134228 0.139723
-3.565927 2.165397 0.139812
-3.553981 2.177397 0.139828
-3.568287 2.212919 0.139918
-3.548767 2.218257 0.139898
-3.561363 2.252789 0.139971
-3.547174 2.263040 0.139953
-3.540685 2.280411 0.139953
-3.536263 2.299814 0.139952
-3.534278 2.321658 0.139950
-3.527994 2.339566 0.139928
-3.526747 2.362443 0.139913
-3.525760 2.385774 0.139891
-3.536550 2.420891 0.139896
-3.526095 2.435358 0.139827
-3.519659 2.453897 0.139761
-3.520207 2.479620 0.139707
-3.506600 2.491165 0.139601
-3.502390 2.512384 0.139513
-3.505448 2.541338 0.139437
-3.495362 2.556834 0.139311
-3.487665 2.574937 0.139181
-3.482582 2.595966 0.139049
-3.480028 2.619909 0.138912
-3.472463 2.638642 0.138750
-3.467559 2.660450 0.138583
-3.462454 2.682244 0.138404
-3.454578 2.701148 0.138206
-3.448296 2.722014 0.138000
-3.439369 2.740063 0.137774
-3.425884 2.753012 0.137526
-3.409036 2.762106 0.137259
-3.384197 2.761806 0.136963
-3.362478 2.765007 0.136665
-3.335205 2.761443 0.136346
-3.311157 2.761520 0.136024
-3.281550 2.754638 0.135684
-3.257019 2.753692 0.135345
-3.234302 2.754804 0.135000
-3.205798 2.748496 0.134639
-3.184567 2.751104 0.134282
-3.164313 2.754838 0.133917
-3.146079 2.761078 0.133547
-3.127883 2.767311 0.133170
-3.097630 2.757586 0.132778
-3.069168 2.749864 0.132386
-3.031910 2.729964 0.131989
-3.017451 2.740449 0.131596
-2.998080 2.744208 0.131200
-2.968923 2.734268 0.130805
-2.929306 2.709262 0.130418
-2.907290 2.708426 0.130028
-2.881589 2.702078 0.129644
-2.864974 2.708477 0.129258
-2.846178 2.711570 0.128879
-2.822342 2.707030 0.128515
-2.799241 2.703205 0.128161
-2.774097 2.695925 0.127824
-2.744005 2.680654 0.127513
-2.715869 2.667731 0.127217
-2.694496 2.664675 0.126926
-2.680906 2.673375 0.126636
-2.666655 2.680804 0.126369
-2.650833 2.685446 0.126129
-2.625051 2.673639 0.125945
-2.595241 2.654546 0.125805
-2.582052 2.661965 0.125644
-2.568123 2.667783 0.125516
-2.549233 2.664837 0.125439
-2.527025 2.655640 0.125408
-2.527013 2.683717 0.125336
-3.841643 -0.238874 0.081297
-3.865540 -0.226267 0.081062
-3.873039 -0.213505 0.081137
-3.869183 -0.200697 0.081437
-3.859903 -0.187854 0.081861
-3.855337 -0.174765 0.082242
-3.831249 -0.162180 0.082968
-3.832498 -0.148693 0.083317
-3.836112 -0.134941 0.083658
-4.027697 -0.082601 0.082068
-4.063231 -0.065437 0.082053
-4.075177 -0.049368 0.082423
-4.036994 -0.036588 0.083557
-4.030621 -0.021716 0.084226
-4.034431 -0.006026 0.084758
-4.028257 0.008925 0.085444
-4.024126 0.024052 0.086106
-4.017787 0.038979 0.086804
-4.019068 0.054633 0.087399
-4.020926 0.070392 0.087990
-4.022148 0.086126 0.088590
-4.018990 0.101397 0.089248
-4.014961 0.116552 0.089915
-4.013747 0.132025 0.090542
-4.015789 0.147911 0.091123
-4.014970 0.163445 0.091736
-4.011778 0.178648 0.092373
-4.014903 0.194721 0.092926
-4.010922 0.209780 0.093557
-4.001256 0.223935 0.094246
-3.993859 0.238352 0.094897
-3.992726 0.253709 0.095467
-3.998223 0.270161 0.095955
-3.998936 0.285844 0.096488
-4.004153 0.302328 0.096964
-3.994891 0.316238 0.097586
-3.983025 0.329573 0.098223
-3.989927 0.346383 0.098653
-4.001234 0.364126 0.099032
-4.001440 0.379755 0.099516
-3.999753 0.395001 0.100009
-3.989264 0.408384 0.100578
-3.986400 0.423317 0.101062
-3.981880 0.437867 0.101550
-3.977767 0.452477 0.102025
-3.973956 0.467129 0.102487
-3.971415 0.482058 0.102928
-3.981436 0.499994 0.103248
-3.976429 0.514365 0.103693
-3.972005 0.528853 0.104123
-3.960265 0.541456 0.104606
-3.963700 0.557908 0.104951
-3.968253 0.574715 0.105279
-3.967255 0.590097 0.105646
-3.957187 0.603008 0.106078
-3.956266 0.618407 0.106427
-3.957683 0.634494 0.106751
-3.959445 0.650728 0.107065
-3.953333 0.664697 0.107432
-3.945647 0.678171 0.107803
-3.944008 0.693448 0.108121
-3.954819 0.712604 0.108341
-3.950223 0.727063 0.108668
-3.953310 0.743975 0.108933
-3.959101 0.761844 0.109173
-3.949315 0.774679 0.109518
-3.940226 0.787695 0.109850
-3.937315 0.802771 0.110133
-3.937573 0.818962 0.110388
-3.941543 0.836510 0.110615
-3.940992 0.852547 0.110866
-3.937784 0.867674 0.111129
-3.933040 0.882263 0.111398
-3.930003 0.897495 0.111650
-3.928369 0.913284 0.111888
-3.927166 0.929282 0.112120
-3.925937 0.945320 0.112347
-3.922596 0.960581 0.112582
-3.913871 0.973730 0.112846
-3.916321 0.991357 0.113039
-3.911068 1.005933 0.113273
-3.908193 1.021504 0.113490
-3.905898 1.037359 0.113700
-3.902433 1.052764 0.113912
-3.902537 1.069739 0.114102
-3.900727 1.085956 0.114298
-3.900220 1.102803 0.114485
-3.896035 1.118077 0.114689
-3.892099 1.133496 0.114889
-3.886029 1.147972 0.115096
-3.883544 1.164122 0.115282
-3.881803 1.180673 0.115462
-3.881868 1.198145 0.115629
-3.882420 1.215935 0.115792
-3.880302 1.232517 0.115967
-3.875292 1.247737 0.116153
-3.873618 1.264646 0.116321
-3.870385 1.280838 0.116494
-3.864532 1.295746 0.116678
-3.858548 1.310608 0.116860
-3.855213 1.326870 0.117028
-3.859314 1.347106 0.117158
-3.857979 1.364584 0.117313
-3.854483 1.380975 0.117475
-3.850117 1.396944 0.117640
-3.848099 1.414250 0.117793
-3.843678 1.430290 0.117954
-3.844749 1.449468 0.118089
-3.848591 1.470337 0.118211
-3.854068 1.492296 0.118325
-3.850728 1.509291 0.118476
-3.842508 1.523478 0.118645
-3.840761 1.541513 0.118785
-3.778725 1.580358 0.119550
-3.798877 1.651174 0.119835
-3.757323 1.643986 0.120113
-3.707187 1.630759 0.120418
-3.631141 1.599893 0.120816
-3.622674 1.613141 0.120954
-3.620313 1.630494 0.121067
-3.621196 1.650133 0.121166
-3.615598 1.665451 0.121287
-3.608410 1.679704 0.121411
-3.599827 1.693000 0.121537
-3.590915 1.706062 0.121661
-3.593952 1.727653 0.121740
-3.592947 1.746494 0.121832
-3.588088 1.762637 0.121933
-3.581613 1.777648 0.122037
-3.581324 1.797287 0.122117
-3.571421 1.809842 0.122226
-3.567557 1.826957 0.122312
-3.571247 1.849920 0.122369
-3.578946 1.876165 0.122409
-3.573846 1.892691 0.122488
-3.569088 1.909550 0.122562
-3.567180 1.928742 0.122622
-3.563984 1.947017 0.122682
-3.556606 1.962008 0.122751
-3.559268 1.985234 0.122783
-3.565684 2.011749 0.122799
-3.569430 2.036296 0.122819
-3.574005 2.061756 0.122830
-3.561980 2.073374 0.122889
-3.553645 2.088126 0.122929
-3.549744 2.106742 0.122950
-3.577710 2.153252 0.122867
-3.554321 2.155195 0.122936
-3.548998 2.172982 0.122942
-3.547828 2.194587 0.122929
-3.566369 2.234195 0.122848
-3.557518 2.249286 0.122844
-3.539093 2.255600 0.122863
-3.540677 2.280412 0.122811
-3.538997 2.302390 0.122762
-3.532474 2.319957 0.122719
-3.528855 2.340399 0.122659
-3.527592 2.363269 0.122582
-3.526483 2.386489 0.122495
-3.526764 2.411283 0.122394
-3.533591 2.442811 0.122261
-3.528800 2.463068 0.122156
-3.521039 2.480481 0.122052
-3.511528 2.496214 0.121943
-3.505494 2.515605 0.121811
-3.501698 2.537470 0.121660
-3.495657 2.557175 0.121506
-3.484822 2.571965 0.121359
-3.483790 2.597297 0.121163
-3.484070 2.624313 0.120948
-3.478381 2.645135 0.120744
-3.471763 2.665123 0.120531
-3.465847 2.686067 0.120302
-3.459569 2.706801 0.120062
-3.448769 2.722619 0.119828
-3.440698 2.741655 0.119569
-3.428452 2.756052 0.119315
-3.410434 2.763820 0.119077
-3.388669 2.767148 0.118845
-3.362508 2.765143 0.118626
-3.337279 2.764029 0.118393
-3.308791 2.758773 0.118169
-3.276935 2.749125 0.117955
-3.260984 2.758695 0.117647
-3.236792 2.758025 0.117375
-3.207412 2.750650 0.117127
-3.181404 2.747227 0.116853
-3.159300 2.748555 0.116549
-3.146934 2.762322 0.116174
-3.127552 2.767018 0.115837
-3.087481 2.744340 0.115637
-3.057779 2.734832 0.115366
-3.042057 2.743750 0.114992
-3.016435 2.739200 0.114689
-2.994923 2.740000 0.114353
-2.972618 2.739509 0.114024
-2.938962 2.722894 0.113791
-2.905997 2.706693 0.113560
-2.884698 2.706602 0.113237
-2.866869 2.711277 0.112889
-2.848539 2.715058 0.112552
-2.820020 2.703626 0.112320
-2.794145 2.695608 0.112078
-2.772618 2.693660 0.111809
-2.742150 2.677760 0.111648
-2.715104 2.666445 0.111475
-2.695645 2.666304 0.111244
-2.680995 2.673314 0.110984
-2.671447 2.688138 0.110690
-2.650716 2.684948 0.110546
-2.621285 2.667187 0.110532
-2.593205 2.650794 0.110539
-2.576027 2.651540 0.110453
-2.568831 2.668392 0.110283
-2.548489 2.662942 0.110306
-2.530323 2.660515 0.110343
-2.501422 2.639068 0.110551
-3.852727 -0.238124 0.067683
-3.864567 -0.225646 0.067562
-3.868305 -0.212984 0.067650
-3.869334 -0.200134 0.067835
-3.867175 -0.187153 0.068123
-3.842667 -0.174640 0.068908
-3.828233 -0.161827 0.069516
-3.819438 -0.148760 0.070039
-3.841681 -0.134311 0.069960
-4.086509 -0.078982 0.066388
-4.112606 -0.062133 0.066387
-4.101773 -0.047335 0.067135
-4.049981 -0.035402 0.068691
-4.030053 -0.021498 0.069633
-4.038588 -0.005450 0.070041
-4.037882 0.009968 0.070636
-4.028174 0.024634 0.071407
-4.023120 0.039690 0.072096
-4.024123 0.055335 0.072677
-4.023546 0.070860 0.073289
-4.022523 0.086359 0.073911
-4.014329 0.101058 0.074659
-4.012185 0.116408 0.075297
-4.011144 0.131888 0.075912
-4.014431 0.147920 0.076449
-4.013876 0.163481 0.077047
-4.013010 0.178999 0.077646
-4.012591 0.194576 0.078230
-4.011147 0.209998 0.078823
-4.004141 0.224561 0.079500
-3.999887 0.239488 0.080121
-4.002591 0.255499 0.080622
-3.986552 0.268409 0.081410
-4.002800 0.286706 0.081681
-3.997986 0.301443 0.082272
-3.989619 0.315488 0.082907
-3.991901 0.331438 0.083369
-3.981726 0.345030 0.084008
-3.985338 0.361230 0.084430
-3.999468 0.379583 0.084689
-3.986793 0.392562 0.085331
-3.990897 0.408961 0.085720
-3.979523 0.422072 0.086319
-3.976243 0.436866 0.086792
-3.974709 0.452033 0.087230
-3.969626 0.466381 0.087707
-3.967582 0.481409 0.088132
-3.967641 0.496939 0.088519
-3.975698 0.514448 0.088789
-3.974327 0.529698 0.089178
-3.970610 0.544360 0.089589
-3.966078 0.558797 0.090001
-3.967126 0.574692 0.090330
-3.958057 0.587895 0.090783
-3.954819 0.602638 0.091150
-3.956447 0.618741 0.091447
-3.960863 0.635685 0.091702
-3.958821 0.650837 0.092030
-3.957429 0.666196 0.092343
-3.953594 0.680845 0.092678
-3.953666 0.696685 0.092957
-3.952629 0.712223 0.093243
-3.946966 0.726337 0.093578
-3.949094 0.742928 0.093812
-3.952801 0.760100 0.094021
-3.952326 0.775976 0.094273
-3.941567 0.788449 0.094641
-3.935400 0.802424 0.094947
-3.941197 0.820520 0.095108
-3.944177 0.837741 0.095296
-3.943861 0.853874 0.095517
-3.938296 0.868166 0.095793
-3.937472 0.884193 0.096009
-3.929241 0.897519 0.096303
-3.927511 0.913267 0.096519
-3.924031 0.928391 0.096749
-3.923881 0.944829 0.096938
-3.918809 0.959398 0.097176
-3.925668 0.978726 0.097279
-3.914290 0.990840 0.097577
-3.916404 1.008412 0.097724
-3.912129 1.023432 0.097936
-3.908106 1.038581 0.098141
-3.903078 1.053332 0.098353
-3.901881 1.069749 0.098521
-3.898553 1.085298 0.098707
-3.896816 1.101588 0.098873
-3.892176 1.116638 0.099067
-3.891503 1.133508 0.099215
-3.887903 1.149109 0.099391
-3.886049 1.165559 0.099546
-3.883357 1.181676 0.099706
-3.884154 1.199501 0.099828
-3.885597 1.217729 0.099941
-3.881301 1.233267 0.100110
-3.875440 1.248069 0.100292
-3.868913 1.262559 0.100478
-3.867303 1.279538 0.100612
-3.864147 1.295798 0.100759
-3.859867 1.311531 0.100915
-3.859955 1.329583 0.101025
-3.863567 1.349584 0.101099
-3.859720 1.365744 0.101244
-3.854061 1.380974 0.101405
-3.850446 1.397345 0.101543
-3.848040 1.414435 0.101668
-3.845345 1.431432 0.101793
-3.846352 1.450580 0.101881
-3.846179 1.469167 0.101978
-3.842817 1.486016 0.102104
-3.842556 1.504729 0.102198
-3.837902 1.520957 0.102333
-3.847390 1.545639 0.102330
-3.859843 1.572329 0.102298
-3.839078 1.579108 0.102580
-3.817887 1.643812 0.103097
-3.800805 1.652555 0.103331
-3.772360 1.653844 0.103668
-3.706572 1.630491 0.104351
-3.637964 1.604519 0.105055
-3.620306 1.611683 0.105280
-3.620336 1.630625 0.105338
-3.616199 1.646848 0.105432
-3.612713 1.663576 0.105517
-3.602028 1.675381 0.105666
-3.594700 1.689506 0.105781
-3.595292 1.709249 0.105821
-3.597326 1.730150 0.105844
-3.596186 1.748913 0.105893
-3.590940 1.764794 0.105977
-3.586452 1.781282 0.106050
-3.581726 1.797657 0.106122
-3.577384 1.814380 0.106186
-3.571293 1.829848 0.106263
-3.570647 1.849521 0.106286
-3.570664 1.869831 0.106300
-3.564749 1.885657 0.106363
-3.562167 1.904157 0.106391
-3.573824 1.934064 0.106285
-3.570269 1.952099 0.106312
-3.563202 1.967386 0.106367
-3.563987 1.989127 0.106345
-3.579041 2.022797 0.106187
-3.573946 2.040087 0.106207
-3.574200 2.061951 0.106173
-3.568200 2.078678 0.106189
-3.549343 2.084471 0.106318
-3.556966 2.113008 0.106197
-3.555313 2.133749 0.106154
-3.544735 2.146783 0.106187
-3.548855 2.172878 0.106076
-3.554885 2.200937 0.105941
-3.553357 2.222442 0.105867
-3.548624 2.241187 0.105815
-3.546362 2.262322 0.105731
-3.550314 2.289400 0.105580
-3.540066 2.303418 0.105554
-3.538193 2.325401 0.105440
-3.533546 2.344913 0.105343
-3.533219 2.368728 0.105194
-3.527924 2.387922 0.105084
-3.528244 2.412771 0.104908
-3.525141 2.434461 0.104754
-3.526409 2.460712 0.104547
-3.523297 2.482804 0.104370
-3.514962 2.499762 0.104235
-3.500824 2.510846 0.104146
-3.506234 2.542237 0.103848
-3.500252 2.562053 0.103653
-3.490478 2.578014 0.103484
-3.487722 2.601565 0.103230
-3.486427 2.626928 0.102946
-3.474829 2.641346 0.102758
-3.470726 2.664068 0.102476
-3.469854 2.690602 0.102144
-3.464698 2.712640 0.101844
-3.453975 2.728608 0.101592
-3.442101 2.743366 0.101340
-3.429833 2.757760 0.101078
-3.409477 2.762832 0.100898
-3.385390 2.763431 0.100752
-3.361742 2.764373 0.100591
-3.338070 2.765120 0.100422
-3.309483 2.759758 0.100304
-3.285242 2.759412 0.100124
-3.264114 2.762711 0.099897
-3.243044 2.765966 0.099659
-3.212121 2.756733 0.099544
-3.191496 2.760198 0.099286
-3.167456 2.759176 0.099068
-3.135869 2.748195 0.098949
-3.113101 2.748331 0.098704
-3.079127 2.733505 0.098616
-3.065423 2.745195 0.098233
-3.052450 2.757913 0.097832
-3.017618 2.740985 0.097757
-2.988699 2.731627 0.097597
-2.965976 2.730462 0.097344
-2.945642 2.732404 0.097056
-2.910972 2.713871 0.097005
-2.883968 2.705683 0.096840
-2.863817 2.706975 0.096570
-2.845937 2.711347 0.096269
-2.820833 2.704885 0.096105
-2.794152 2.695650 0.095985
-2.760900 2.676032 0.096003
-2.736894 2.669735 0.095877
-2.716524 2.668548 0.095706
-2.695383 2.665777 0.095572
-2.681301 2.673623 0.095328
-2.665231 2.678071 0.095149
-2.648575 2.681241 0.095009
-2.622466 2.668750 0.095091
-2.596405 2.655605 0.095210
-2.581734 2.660462 0.095136
-2.569793 2.669434 0.095043
-2.550281 2.665317 0.095146
-2.524629 2.650140 0.095422
-2.530726 2.688460 0.095072
-3.886727 -0.237185 0.053400
-3.835332 -0.225367 0.054794
-3.812559 -0.213290 0.055502
-3.850035 -0.199970 0.054728
-3.855340 -0.186923 0.054806
-3.859199 -0.173681 0.054960
-3.824667 -0.161499 0.056108
-3.835265 -0.147751 0.056161
-3.859757 -0.133164 0.055904
-4.058199 -0.095226 0.051836
-4.064820 -0.079862 0.052137
-4.097897 -0.062714 0.051824
-4.096236 -0.047411 0.052377
-4.031933 -0.036403 0.054446
-4.039591 -0.020544 0.054803
-4.042074 -0.004946 0.055298
-4.039571 0.010323 0.055922
-4.033708 0.025327 0.056632
-4.025734 0.040126 0.057397
-4.023943 0.055499 0.058022
-4.023592 0.071040 0.058617
-4.018040 0.086042 0.059331
-4.016944 0.101518 0.059944
-4.015775 0.116994 0.060557
-4.014005 0.132399 0.061180
-4.015763 0.148248 0.061722
-4.017184 0.164079 0.062267
-4.015629 0.179519 0.062871
-4.015602 0.195165 0.063435
-4.016275 0.210916 0.063978
-4.009683 0.225569 0.064665
-4.008547 0.241015 0.065228
-4.009904 0.256854 0.065731
-4.005504 0.271745 0.066343
-3.990989 0.284856 0.067148
-3.994268 0.300968 0.067583
-3.991373 0.315992 0.068131
-3.985365 0.330410 0.068731
-3.989157 0.346646 0.069126
-3.980560 0.360492 0.069753
-3.972944 0.374456 0.070349
-3.989182 0.393264 0.070475
-3.988269 0.408621 0.070922
-3.982472 0.422926 0.071451
-3.978016 0.437479 0.071943
-3.974683 0.452254 0.072402
-3.968523 0.466358 0.072904
-3.966126 0.481302 0.073325
-3.965779 0.496732 0.073698
-3.971249 0.513602 0.073957
-3.975714 0.530295 0.074225
-3.974253 0.545543 0.074591
-3.971941 0.560578 0.074963
-3.969726 0.575641 0.075323
-3.963911 0.589738 0.075739
-3.958635 0.603954 0.076134
-3.962994 0.620843 0.076352
-3.961671 0.636190 0.076662
-3.960070 0.651476 0.076968
-3.959243 0.667010 0.077252
-3.960524 0.683204 0.077492
-3.958928 0.698574 0.077774
-3.951457 0.712147 0.078148
-3.940026 0.724440 0.078581
-3.939812 0.740249 0.078816
-3.951519 0.759976 0.078845
-3.950820 0.775773 0.079075
-3.945423 0.790036 0.079377
-3.940821 0.804564 0.079659
-3.942964 0.821427 0.079822
-3.947455 0.839189 0.079942
-3.946303 0.855042 0.080148
-3.943994 0.870522 0.080368
-3.937246 0.884409 0.080653
-3.933835 0.899524 0.080879
-3.928262 0.913849 0.081134
-3.921286 0.927640 0.081405
-3.918478 0.943034 0.081605
-3.917212 0.959067 0.081774
-3.916763 0.975478 0.081927
-3.921569 0.994071 0.081991
-3.915783 1.008453 0.082218
-3.911225 1.023350 0.082422
-3.907889 1.038781 0.082602
-3.904065 1.054040 0.082786
-3.900736 1.069543 0.082957
-3.898504 1.085562 0.083108
-3.896346 1.101663 0.083253
-3.890160 1.116017 0.083458
-3.889385 1.132828 0.083575
-3.884711 1.147922 0.083749
-3.883707 1.164746 0.083863
-3.884021 1.182257 0.083953
-3.884285 1.199830 0.084041
-3.882056 1.216291 0.084165
-3.877393 1.231626 0.084323
-3.870423 1.245857 0.084513
-3.865240 1.260983 0.084673
-3.866080 1.279171 0.084738
-3.862527 1.295218 0.084868
-3.860479 1.312089 0.084972
-3.860315 1.330008 0.085045
-3.871763 1.354141 0.084940
-3.864400 1.368471 0.085117
-3.859080 1.383906 0.085262
-3.855917 1.400550 0.085371
-3.853340 1.417575 0.085469
-3.853918 1.436424 0.085517
-3.846749 1.451011 0.085679
-3.842722 1.467401 0.085792
-3.837262 1.483015 0.085924
-3.833290 1.499528 0.086031
-3.831564 1.517416 0.086102
-3.835338 1.538657 0.086089
-3.839047 1.560011 0.086074
-3.805273 1.655563 0.086774
-3.788346 1.664319 0.087050
-3.688823 1.619039 0.088552
-3.638752 1.605166 0.089314
-3.620130 1.611689 0.089606
-3.616228 1.627979 0.089676
-3.613270 1.644971 0.089729
-3.605916 1.659019 0.089844
-3.593391 1.669496 0.090033
-3.588398 1.685193 0.090107
-3.589908 1.705538 0.090081
-3.600940 1.732823 0.089910
-3.596012 1.748875 0.089973
-3.589696 1.763972 0.090053
-3.586812 1.781626 0.090078
-3.585227 1.800332 0.090080
-3.578779 1.815499 0.090150
-3.574774 1.832552 0.090180
-3.575953 1.853642 0.090128
-3.569947 1.869340 0.090178
-3.565956 1.886657 0.090194
-3.563608 1.905347 0.090180
-3.577137 1.936747 0.089923
-3.576973 1.957523 0.089866
-3.574306 1.976418 0.089841
-3.580377 2.002560 0.089678
-3.580393 2.023956 0.089600
-3.576040 2.041874 0.089582
-3.560840 2.050769 0.089721
-3.539720 2.054568 0.089945
-3.564671 2.097629 0.089462
-3.552374 2.109077 0.089538
-3.541249 2.121521 0.089590
-3.546939 2.148758 0.089376
-3.557105 2.180243 0.089085
-3.554453 2.200586 0.088982
-3.551367 2.220678 0.088877
-3.548944 2.241516 0.088754
-3.550152 2.265853 0.088564
-3.530205 2.270732 0.088696
-3.547831 2.310748 0.088229
-3.534113 2.321577 0.088245
-3.528928 2.340539 0.088116
-3.530749 2.366390 0.087865
-3.528774 2.388799 0.087663
-3.521326 2.406021 0.087538
-3.517411 2.426846 0.087344
-3.516385 2.450732 0.087092
-3.526467 2.486073 0.086643
-3.510702 2.495484 0.086607
-3.505087 2.515306 0.086392
-3.506708 2.542807 0.086042
-3.503142 2.565167 0.085764
-3.497869 2.585927 0.085501
-3.492920 2.607215 0.085219
-3.483535 2.623909 0.084999
-3.473509 2.640017 0.084777
-3.468727 2.661986 0.084448
-3.472557 2.693722 0.083951
-3.462898 2.710755 0.083677
-3.453043 2.727692 0.083392
-3.441792 2.743161 0.083118
-3.429348 2.757355 0.082851
-3.405739 2.758646 0.082780
-3.377536 2.754380 0.082786
-3.356344 2.758151 0.082650
-3.337384 2.764481 0.082461
-3.311353 2.762206 0.082399
-3.286217 2.760797 0.082312
-3.262308 2.760688 0.082193
-3.236165 2.757621 0.082112
-3.219046 2.765643 0.081840
-3.193859 2.763412 0.081725
-3.173093 2.766616 0.081512
-3.132844 2.744509 0.081709
-3.106720 2.740225 0.081604
-3.088218 2.745723 0.081331
-3.072258 2.754529 0.080995
-3.049559 2.754249 0.080806
-3.013422 2.735503 0.080923
-2.985085 2.726882 0.080869
-2.963210 2.726833 0.080669
-2.939821 2.724446 0.080509
-2.916049 2.721240 0.080364
-2.887800 2.711327 0.080337
-2.861967 2.704451 0.080265
-2.837072 2.698538 0.080182
-2.818732 2.701888 0.079948
-2.794100 2.695642 0.079890
-2.760448 2.675387 0.080090
-2.736272 2.668788 0.080068
-2.721122 2.675563 0.079827
-2.699785 2.672512 0.079778
-2.678574 2.669205 0.079754
-2.660558 2.670475 0.079672
-2.647456 2.679192 0.079485
-2.625581 2.673456 0.079580
-2.601862 2.664113 0.079768
-2.585163 2.665642 0.079795
-2.569530 2.668448 0.079833
-2.545879 2.657294 0.080150
-2.527252 2.653879 0.080367
-2.499436 2.634079 0.080905
-3.820379 -0.237052 0.041811
-3.815578 -0.224982 0.042010
-3.821775 -0.212556 0.041924
-3.833912 -0.199748 0.041704
-3.835638 -0.186895 0.041833
-3.823432 -0.174240 0.042412
-3.852429 -0.160133 0.041813
-3.853544 -0.146653 0.042072
-3.869160 -0.132387 0.041941
-4.045843 -0.110291 0.037155
-4.053936 -0.095103 0.037330
-4.069586 -0.079281 0.037316
-4.076078 -0.063745 0.037596
-4.049536 -0.050191 0.038843
-4.070470 -0.033463 0.038753
-4.038855 -0.020374 0.040172
-4.040937 -0.004828 0.040649
-4.036536 0.010261 0.041320
-4.031090 0.025274 0.042028
-4.021912 0.039936 0.042845
-4.020222 0.055292 0.043460
-4.021223 0.070947 0.044005
-4.025243 0.086969 0.044470
-4.023164 0.102365 0.045101
-4.027255 0.118489 0.045566
-4.019187 0.133173 0.046353
-4.012941 0.148023 0.047085
-4.011335 0.163437 0.047688
-4.014000 0.179430 0.048175
-4.019834 0.195905 0.048575
-4.020854 0.211731 0.049092
-4.011006 0.225912 0.049879
-4.011654 0.241648 0.050389
-4.013675 0.257613 0.050855
-4.010952 0.272807 0.051431
-3.997338 0.286102 0.052267
-3.990083 0.300389 0.052933
-3.989732 0.315859 0.053416
-3.990984 0.331627 0.053850
-3.986168 0.346249 0.054421
-3.983367 0.361222 0.054932
-3.971858 0.374421 0.055640
-3.969898 0.389481 0.056107
-3.985575 0.408248 0.056144
-3.991052 0.424977 0.056416
-3.985311 0.439294 0.056942
-3.975600 0.452671 0.057548
-3.965591 0.465897 0.058148
-3.961010 0.480317 0.058611
-3.969580 0.497869 0.058761
-3.969952 0.513513 0.059089
-3.961104 0.526874 0.059618
-3.960086 0.542167 0.059958
-3.971726 0.560764 0.060003
-3.973167 0.576799 0.060269
-3.971329 0.591990 0.060600
-3.970867 0.607569 0.060891
-3.964824 0.621612 0.061297
-3.960825 0.636209 0.061648
-3.957661 0.651042 0.061971
-3.957747 0.666836 0.062214
-3.962470 0.684058 0.062348
-3.960717 0.699392 0.062615
-3.953496 0.713054 0.062993
-3.946211 0.726664 0.063364
-3.946410 0.758597 0.063763
-3.954053 0.777125 0.063789
-3.952494 0.792693 0.064006
-3.945310 0.806379 0.064337
-3.945398 0.822556 0.064506
-3.945936 0.838945 0.064658
-3.946859 0.855531 0.064796
-3.940545 0.869568 0.065081
-3.934619 0.883738 0.065351
-3.931837 0.899073 0.065549
-3.931378 0.915314 0.065692
-3.925158 0.929410 0.065951
-3.918864 0.943474 0.066205
-3.912271 0.957417 0.066460
-3.914858 0.975010 0.066518
-3.915669 0.991980 0.066608
-3.915675 1.008696 0.066710
-3.911472 1.023739 0.066895
-3.904825 1.037781 0.067126
-3.903622 1.054136 0.067240
-3.899436 1.069265 0.067411
-3.897771 1.085522 0.067526
-3.897960 1.102654 0.067598
-3.891709 1.116985 0.067800
-3.887055 1.132047 0.067964
-3.884240 1.147977 0.068087
-3.885882 1.166023 0.068114
-3.886185 1.183539 0.068166
-3.884268 1.200086 0.068260
-3.875298 1.213301 0.068495
-3.867202 1.226924 0.068709
-3.869201 1.245509 0.068712
-3.870194 1.263701 0.068734
-3.867200 1.279982 0.068834
-3.864359 1.296395 0.068928
-3.861066 1.312631 0.069028
-3.857574 1.328815 0.069129
-3.861966 1.349207 0.069067
-3.867750 1.370486 0.068974
-3.860683 1.384996 0.069140
-3.855891 1.400757 0.069257
-3.858433 1.420600 0.069222
-3.854642 1.437040 0.069314
-3.850688 1.453440 0.069406
-3.842632 1.467552 0.069579
-3.838178 1.483741 0.069676
-3.833930 1.500094 0.069766
-3.830973 1.517257 0.069828
-3.831375 1.536484 0.069818
-3.827301 1.572305 0.069890
-3.810148 1.658832 0.070164
-3.788467 1.664543 0.070583
-3.661524 1.601350 0.073149
-3.630346 1.599751 0.073757
-3.618482 1.610715 0.073969
-3.618589 1.629688 0.073932
-3.615123 1.646346 0.073965
-3.608113 1.660639 0.074068
-3.596713 1.671907 0.074257
-3.591131 1.687210 0.074323
-3.593255 1.708004 0.074228
-3.594268 1.728154 0.074152
-3.591400 1.745641 0.074151
-3.584905 1.760570 0.074221
-3.587087 1.781914 0.074108
-3.587829 1.802346 0.074021
-3.587973 1.822469 0.073941
-3.589072 1.843450 0.073836
-3.584296 1.860090 0.073848
-3.574757 1.873121 0.073954
-3.568157 1.888438 0.073994
-3.571097 1.911299 0.073830
-3.574572 1.934772 0.073649
-3.582885 1.962321 0.073360
-3.581949 1.982659 0.073258
-3.579807 2.002150 0.073175
-3.578477 2.022430 0.073068
-3.569850 2.036774 0.073108
-3.558718 2.049038 0.073195
-3.567975 2.078578 0.072843
-3.558242 2.092175 0.072886
-3.543730 2.101658 0.073024
-3.534585 2.115758 0.073040
-3.554932 2.155841 0.072416
-3.551530 2.175339 0.072291
-3.552218 2.198631 0.072069
-3.550192 2.219665 0.071896
-3.547076 2.239861 0.071737
-3.540830 2.257314 0.071637
-3.551391 2.290496 0.071157
-3.528550 2.292701 0.071402
-3.527856 2.315706 0.071149
-3.520802 2.332829 0.071025
-3.515432 2.351671 0.070853
-3.523326 2.383561 0.070372
-3.517081 2.401919 0.070195
-3.515180 2.424708 0.069907
-3.519110 2.453542 0.069473
-3.523203 2.482859 0.069020
-3.510060 2.494920 0.068949
-3.500459 2.510639 0.068785
-3.502937 2.538990 0.068325
-3.498630 2.560543 0.068008
-3.494091 2.582044 0.067681
-3.487583 2.601634 0.067386
-3.477354 2.617373 0.067166
-3.468076 2.634240 0.066908
-3.470449 2.664024 0.066351
-3.471483 2.692686 0.065807
-3.465413 2.713735 0.065420
-3.451942 2.726619 0.065202
-3.441940 2.743508 0.064881
-3.427895 2.755870 0.064648
-3.404308 2.757180 0.064647
-3.373262 2.749567 0.064829
-3.349161 2.749852 0.064824
-3.332668 2.759059 0.064609
-3.311846 2.763031 0.064496
-3.284719 2.759205 0.064545
-3.256824 2.754178 0.064608
-3.235226 2.756703 0.064492
-3.206141 2.749692 0.064578
-3.199551 2.770891 0.064026
-3.165740 2.757467 0.064234
-3.135794 2.748592 0.064332
-3.111866 2.747216 0.064255
-3.091353 2.750130 0.064075
-3.069371 2.750955 0.063935
-3.047578 2.751854 0.063787
-3.020525 2.745423 0.063800
-2.988577 2.731934 0.063969
-2.964406 2.728743 0.063905
-2.939606 2.724384 0.063867
-2.918787 2.725340 0.063711
-2.897366 2.725214 0.063581
-2.859932 2.701701 0.063989
-2.836092 2.697274 0.063969
-2.815481 2.697235 0.063858
-2.793328 2.694601 0.063817
-2.763403 2.679904 0.064065
-2.747428 2.685775 0.063856
-2.732695 2.693320 0.063626
-2.709088 2.686881 0.063736
-2.680583 2.672239 0.064056
-2.660998 2.670997 0.064092
-2.645970 2.676577 0.063997
-2.625672 2.673296 0.064134
-2.608227 2.674114 0.064206
-2.584775 2.664547 0.064548
-2.566286 2.662515 0.064751
-2.545894 2.656699 0.065074
-2.536059 2.668102 0.065042
-2.567424 2.749659 0.063466
-3.863492 -0.236020 0.027077
-3.828784 -0.224192 0.028283
-3.831230 -0.211813 0.028264
-3.829403 -0.199293 0.028433
-3.830813 -0.186506 0.028533
-3.846291 -0.173103 0.028195
-3.851790 -0.159717 0.028236
-3.856787 -0.146126 0.028331
-3.859196 -0.132438 0.028549
-4.034390 -0.080952 0.023785
-4.092060 -0.062499 0.022307
-4.081771 -0.047835 0.023116
-4.029399 -0.036113 0.025330
-4.030204 -0.020815 0.025803
-4.033747 -0.005211 0.026203
-4.032740 0.010114 0.026764
-4.028312 0.025186 0.027447
-4.020465 0.039948 0.028246
-4.019398 0.055348 0.028833
-4.021899 0.071147 0.029310
-4.026517 0.087232 0.029724
-4.029659 0.103220 0.030186
-4.028727 0.118778 0.030776
-4.017308 0.133055 0.031690
-4.006672 0.147333 0.032572
-4.004365 0.162623 0.033190
-4.014128 0.179560 0.033433
-4.017108 0.195630 0.033878
-4.002514 0.209143 0.034849
-4.006604 0.225360 0.035245
-4.004634 0.240667 0.035815
-4.015039 0.257960 0.036008
-4.007382 0.272341 0.036728
-3.992891 0.285472 0.037638
-3.991143 0.300715 0.038160
-3.997734 0.317456 0.038427
-3.995133 0.332550 0.038953
-3.995185 0.348128 0.039390
-3.980224 0.360764 0.040248
-3.977179 0.375656 0.040751
-3.976528 0.391017 0.041173
-3.993802 0.410159 0.041076
-3.996678 0.426373 0.041378
-3.989250 0.440350 0.041961
-3.978838 0.453593 0.042614
-3.963411 0.465590 0.043394
-3.962265 0.480814 0.043763
-3.967246 0.497515 0.043951
-3.974116 0.514747 0.044078
-3.967144 0.528602 0.044577
-3.961304 0.542699 0.045033
-3.962577 0.558612 0.045284
-3.970909 0.576432 0.045334
-3.974633 0.593118 0.045500
-3.968485 0.607154 0.045924
-3.969352 0.623123 0.046148
-3.965432 0.637769 0.046492
-3.955526 0.650673 0.046988
-3.956272 0.666655 0.047188
-3.961239 0.683947 0.047267
-3.957549 0.698687 0.047568
-3.956016 0.714099 0.047804
-3.965097 0.732880 0.047750
-3.949288 0.743829 0.048347
-3.914223 0.748400 0.049443
-3.944596 0.774274 0.048804
-3.948798 0.791729 0.048849
-3.947774 0.807496 0.049024
-3.940317 0.821079 0.049361
-3.942337 0.837963 0.049442
-3.938621 0.852879 0.049667
-3.935060 0.867868 0.049881
-3.932304 0.883172 0.050067
-3.932339 0.899543 0.050174
-3.933369 0.916349 0.050250
-3.926349 0.930149 0.050528
-3.918164 0.943486 0.050831
-3.914324 0.958506 0.051015
-3.914103 0.974992 0.051100
-3.912650 0.991043 0.051211
-3.911789 1.007390 0.051302
-3.909408 1.023165 0.051427
-3.904794 1.038047 0.051605
-3.901251 1.053406 0.051751
-3.900631 1.070057 0.051816
-3.899153 1.086401 0.051899
-3.896357 1.102220 0.052012
-3.891550 1.117186 0.052172
-3.888307 1.132883 0.052287
-3.884654 1.148434 0.052409
-3.885295 1.166016 0.052417
-3.887048 1.184208 0.052393
-3.883738 1.200094 0.052494
-3.874960 1.213396 0.052733
-3.866601 1.226884 0.052957
-3.867991 1.245163 0.052927
-3.870579 1.264141 0.052864
-3.872550 1.282924 0.052813
-3.864997 1.296962 0.053003
-3.862425 1.313570 0.053061
-3.858890 1.329735 0.053142
-3.855703 1.346133 0.053211
-3.858753 1.365914 0.053116
-3.858617 1.384104 0.053100
-3.853931 1.399906 0.053198
-3.851366 1.416917 0.053238
-3.853395 1.436556 0.053158
-3.850000 1.453258 0.053214
-3.847694 1.470640 0.053239
-3.841903 1.486084 0.053351
-3.837600 1.502425 0.053421
-3.835295 1.519990 0.053438
-3.833306 1.537817 0.053443
-3.812322 1.660377 0.053576
-3.787384 1.663990 0.054151
-3.647310 1.592205 0.057713
-3.629548 1.599356 0.058100
-3.620153 1.611955 0.058267
-3.620626 1.631182 0.058174
-3.615887 1.646985 0.058213
-3.607379 1.660250 0.058347
-3.600175 1.674418 0.058443
-3.600145 1.693630 0.058348
-3.598291 1.711669 0.058296
-3.590689 1.725698 0.058391
-3.585512 1.741490 0.058419
-3.585122 1.760821 0.058316
-3.587309 1.782166 0.058140
-3.587855 1.802452 0.058003
-3.588793 1.823168 0.057849
-3.587924 1.842662 0.057739
-3.590005 1.864531 0.057544
-3.574752 1.873192 0.057804
-3.570210 1.890110 0.057775
-3.566431 1.907700 0.057719
-3.579106 1.938441 0.057217
-3.586198 1.965044 0.056856
-3.581411 1.982290 0.056807
-3.576586 1.999583 0.056752
-3.570550 2.015958 0.056723
-3.566471 2.034023 0.056634
-3.563316 2.052962 0.056513
-3.563248 2.074630 0.056300
-3.566500 2.099304 0.055987
-3.560128 2.115885 0.055928
-3.555196 2.133792 0.055822
-3.548518 2.150257 0.055755
-3.544309 2.168986 0.055611
