ply
format ascii 1.0
comment ---
element vertex 1649
property float x
property float y
property float z
element face 0
property list uchar uint vertex_indices
end_header
-2.510000 -2.714870 0.956670
-2.505123 -2.704951 0.960012
-2.500334 -2.699267 0.960785
-2.495686 -2.698139 0.958825
-3.581205 -3.500010 0.958666
-3.578714 -3.496242 0.960304
-3.575129 -3.492898 0.961155
-3.569954 -3.490230 0.960844
-3.564525 -3.487615 0.960340
-3.560501 -3.484248 0.960870
-3.558858 -3.479623 0.963174
-3.554289 -3.476352 0.963307
-3.542385 -3.476707 0.957924
-3.536815 -3.473839 0.957268
-3.530834 -3.471121 0.956288
-3.527976 -3.466721 0.957672
-3.526163 -3.461679 0.959863
-3.516739 -3.460598 0.956213
-3.516982 -3.454294 0.959990
-3.507386 -3.453238 0.956159
-3.504712 -3.448363 0.957680
-3.500896 -3.444043 0.958314
-3.493433 -3.441722 0.956073
-3.489395 -3.437428 0.956513
-3.485279 -3.433123 0.956885
-3.479528 -3.429727 0.955948
-3.466980 -3.430342 0.949538
-3.470220 -3.421548 0.955788
-3.472303 -3.413310 0.961153
-3.466152 -3.410012 0.959859
-3.456069 -3.409161 0.955328
-3.456519 -3.401726 0.959404
-3.451451 -3.397718 0.958955
-3.443646 -3.395470 0.956223
-3.441963 -3.389253 0.958565
-3.429025 -3.390434 0.951491
-3.426250 -3.384929 0.952901
-3.422888 -3.379790 0.953823
-3.424066 -3.371509 0.958611
-3.420186 -3.366649 0.959120
-3.414423 -3.363104 0.958013
-3.407038 -3.360739 0.955492
-3.403724 -3.355492 0.956475
-3.399798 -3.350678 0.956932
-3.390977 -3.349476 0.953101
-3.391321 -3.341510 0.957305
-3.386427 -3.337430 0.956912
-3.384013 -3.331469 0.958722
-3.380507 -3.326327 0.959574
-3.374419 -3.323202 0.958114
-3.369724 -3.319015 0.957897
-3.364187 -3.315520 0.956914
-3.359004 -3.311770 0.956246
-3.358954 -3.303834 0.960287
-3.353972 -3.299923 0.959819
-3.346431 -3.298184 0.956973
-3.341184 -3.294569 0.956240
-3.338403 -3.288863 0.957815
-3.331982 -3.286302 0.955976
-3.326419 -3.283038 0.954934
-3.322581 -3.278275 0.955530
-3.321400 -3.271119 0.958687
-3.317735 -3.266170 0.959486
-3.311041 -3.264005 0.957359
-3.304174 -3.262060 0.955043
-3.301367 -3.256351 0.956690
-3.299628 -3.249600 0.959416
-3.292712 -3.247788 0.957038
-3.286593 -3.245263 0.955433
-3.285465 -3.237863 0.958830
-3.281027 -3.233697 0.958926
-3.275762 -3.230372 0.958189
-3.273277 -3.224238 0.960292
-3.267265 -3.221701 0.958797
-3.260172 -3.220336 0.956170
-3.255927 -3.216032 0.956484
-3.254356 -3.208875 0.959613
-3.247152 -3.207730 0.956844
-3.242966 -3.203362 0.957251
-3.238720 -3.199058 0.957606
-3.234506 -3.194714 0.958006
-3.227748 -3.193238 0.955667
-3.221540 -3.191194 0.953901
-3.217400 -3.186807 0.954389
-3.213698 -3.181900 0.955373
-3.207885 -3.179467 0.954032
-3.207343 -3.170768 0.958577
-3.201958 -3.167816 0.957737
-3.195140 -3.166638 0.955269
-3.189612 -3.163928 0.954248
-3.183419 -3.162076 0.952456
-3.179739 -3.157088 0.953557
-3.174652 -3.153875 0.953041
-3.172032 -3.147477 0.955423
-3.166382 -3.144990 0.954263
-3.161536 -3.141465 0.954055
-3.156152 -3.138665 0.953206
-3.148822 -3.138530 0.950001
-3.144957 -3.133715 0.950978
-3.141694 -3.128034 0.952719
-3.136069 -3.125626 0.951574
-3.133254 -3.119245 0.953923
-3.129417 -3.114268 0.955035
-3.124519 -3.110803 0.954831
-3.117951 -3.109803 0.952505
-3.114368 -3.104405 0.953989
-3.106712 -3.105117 0.950229
-3.096806 -3.109378 0.943478
-3.097364 -3.097607 0.950415
-3.095244 -3.089831 0.953919
-3.091368 -3.084733 0.955141
-3.086608 -3.081011 0.955204
-3.079669 -3.080830 0.952308
-3.073389 -3.079640 0.950282
-3.070525 -3.072796 0.952968
-3.065339 -3.069788 0.952468
-3.060602 -3.066018 0.952603
-3.054736 -3.064190 0.951149
-3.050521 -3.059494 0.952054
-3.045320 -3.056514 0.951561
-3.041895 -3.050332 0.953671
-3.035940 -3.048695 0.952099
-3.029675 -3.047671 0.950049
-3.024878 -3.043944 0.950187
-3.024105 -3.032534 0.956464
-3.017389 -3.032366 0.953753
-3.016378 -3.021113 0.959855
-3.012676 -3.014966 0.961883
-3.002806 -3.021138 0.954205
-2.997341 -3.018582 0.953431
-2.992593 -3.014551 0.953820
-2.987576 -3.011050 0.953798
-2.982495 -3.007663 0.953691
-2.977600 -3.003860 0.953911
-2.969551 -3.006938 0.948833
-2.965062 -3.002267 0.949743
-2.962690 -2.992757 0.954353
-2.960073 -2.983600 0.958664
-2.953978 -2.982340 0.956953
-2.944844 -2.988303 0.949789
-2.939053 -2.986507 0.948533
-2.933234 -2.984802 0.947220
-2.932810 -2.969759 0.955914
-2.925850 -2.970759 0.952574
-2.919765 -2.969633 0.950844
-2.911993 -2.972937 0.945843
-2.911138 -2.958137 0.954262
-2.906053 -2.954290 0.954560
-2.900115 -2.952719 0.953189
-2.894428 -2.950477 0.952323
-2.888723 -2.948281 0.951434
-2.883247 -2.945421 0.951036
-2.876304 -2.946844 0.947542
-2.871566 -2.941800 0.948746
-2.867327 -2.935128 0.951119
-2.860636 -2.935880 0.948152
-2.855955 -2.930383 0.949679
-2.852926 -2.919423 0.955098
-2.847221 -2.916895 0.954490
-2.839459 -2.921235 0.949024
-2.834404 -2.916568 0.949959
-2.828759 -2.913834 0.949530
-2.822766 -2.912302 0.948264
-2.818038 -2.906166 0.950232
-2.812468 -2.902966 0.950142
-2.807135 -2.898791 0.950735
-2.801429 -2.895949 0.950403
-2.795720 -2.893063 0.950106
-2.790460 -2.888276 0.951125
-2.785094 -2.883772 0.951945
-2.779432 -2.880389 0.951995
-2.773861 -2.876507 0.952388
-2.767776 -2.874817 0.951286
-2.761820 -2.872521 0.950604
-2.756385 -2.867703 0.951636
-2.749756 -2.868537 0.948844
-2.743662 -2.866812 0.947793
-2.738068 -2.862491 0.948491
-2.731735 -2.861945 0.946656
-2.725552 -2.860641 0.945337
-2.720819 -2.851126 0.949490
-2.715317 -2.845615 0.950959
-2.709245 -2.843309 0.950295
-2.702666 -2.844166 0.947543
-2.696438 -2.842948 0.946168
-2.690612 -2.839092 0.946527
-2.683807 -2.841991 0.942458
-2.678212 -2.836485 0.943889
-2.673916 -2.820858 0.951888
-2.667717 -2.819239 0.950745
-2.661634 -2.816783 0.950140
-2.655358 -2.816097 0.948386
-2.649760 -2.809521 0.950419
-2.643816 -2.805983 0.950478
-2.638223 -2.798972 0.952743
-2.632019 -2.798195 0.951006
-2.625876 -2.797211 0.949395
-2.619911 -2.794623 0.948792
-2.614251 -2.788525 0.950393
-2.608492 -2.783754 0.951129
-2.602744 -2.779064 0.951790
-2.596909 -2.776065 0.951367
-2.591236 -2.770991 0.952221
-2.585691 -2.763960 0.954264
-2.580070 -2.758719 0.955162
-2.574445 -2.754239 0.955561
-2.568778 -2.751855 0.954640
-2.563312 -2.745553 0.956110
-2.557699 -2.745082 0.953973
-2.552189 -2.743993 0.952202
-2.546736 -2.744040 0.949728
-2.541498 -2.737007 0.951541
-2.536313 -2.728617 0.954139
-2.531127 -2.723242 0.954879
-2.525974 -2.722169 0.953006
-2.520913 -2.716864 0.953656
-2.515917 -2.714497 0.952527
-2.510973 -2.708142 0.953755
-2.506053 -2.699313 0.956421
-2.501138 -2.688588 0.960169
-2.496387 -2.685794 0.959201
-2.491788 -2.686519 0.956156
-3.593888 -3.498631 0.957804
-3.591854 -3.494666 0.959762
-3.593207 -3.489012 0.964182
-3.584511 -3.487988 0.961355
-3.574917 -3.487357 0.957848
-3.570258 -3.484311 0.957915
-3.566031 -3.480978 0.958298
-3.564754 -3.476106 0.960859
-3.560799 -3.472461 0.961452
-3.555948 -3.469185 0.961380
-3.545767 -3.468561 0.957312
-3.540321 -3.465481 0.956761
-3.533586 -3.463013 0.955224
-3.530539 -3.458552 0.956466
-3.538594 -3.448071 0.966175
-3.545490 -3.437993 0.975080
-3.511633 -3.443584 0.956281
-3.508507 -3.438800 0.957457
-3.499292 -3.437396 0.953884
-3.494764 -3.433314 0.953944
-3.490658 -3.428940 0.954328
-3.485963 -3.424862 0.954242
-3.481456 -3.420635 0.954297
-3.485043 -3.411497 0.960811
-3.481715 -3.406422 0.961828
-3.477443 -3.401880 0.962086
-3.469683 -3.399486 0.959511
-3.464178 -3.395694 0.958741
-3.459381 -3.391443 0.958537
-3.455036 -3.386888 0.958696
-3.453072 -3.380756 0.960819
-3.443184 -3.379832 0.956375
-3.444079 -3.371743 0.960884
-3.441527 -3.365906 0.962539
-3.431222 -3.365368 0.957674
-3.425594 -3.361669 0.956718
-3.423745 -3.355326 0.958966
-3.423324 -3.347923 0.962456
-3.409588 -3.350071 0.954529
-3.404064 -3.346384 0.953618
-3.403393 -3.339133 0.956911
-3.395247 -3.337419 0.953711
-3.391329 -3.332578 0.954186
-3.388590 -3.326835 0.955707
-3.386934 -3.320232 0.958204
-3.385099 -3.313730 0.960567
-3.378655 -3.310850 0.958828
-3.373870 -3.306687 0.958565
-3.368715 -3.302845 0.957965
-3.367880 -3.295476 0.961294
-3.363989 -3.290592 0.961863
-3.353852 -3.290967 0.956695
-3.347007 -3.288661 0.954520
-3.340654 -3.285992 0.952781
-3.338528 -3.279693 0.954977
-3.330839 -3.278260 0.951972
-3.334145 -3.267110 0.959331
-3.328689 -3.263708 0.958447
-3.322730 -3.260798 0.957075
-3.319861 -3.255081 0.958663
-3.312515 -3.253516 0.955945
-3.308646 -3.248742 0.956582
-3.305050 -3.243706 0.957498
-3.298875 -3.241148 0.955892
-3.293285 -3.238065 0.954852
-3.288888 -3.233840 0.954991
-3.285330 -3.228782 0.955979
-3.281411 -3.224076 0.956620
-3.276472 -3.220406 0.956241
-3.270802 -3.217506 0.955118
-3.263488 -3.216357 0.952301
-3.264924 -3.206043 0.958485
-3.257700 -3.204837 0.955761
-3.254064 -3.199828 0.956758
-3.246809 -3.198754 0.953967
-3.244374 -3.192428 0.956249
-3.238922 -3.189422 0.955354
-3.235035 -3.184675 0.956132
-3.228922 -3.182455 0.954525
-3.222600 -3.180522 0.952677
-3.217341 -3.177392 0.951975
-3.217536 -3.167835 0.957272
-3.213036 -3.163766 0.957446
-3.207622 -3.160799 0.956611
-3.203145 -3.156708 0.956825
-3.200337 -3.150546 0.958937
-3.193481 -3.149399 0.956478
-3.185330 -3.149957 0.952506
-3.184404 -3.141361 0.956829
-3.177812 -3.139993 0.954635
-3.172226 -3.137365 0.953595
-3.166345 -3.135152 0.952201
-3.166167 -3.125322 0.957572
-3.157771 -3.126506 0.953193
-3.153435 -3.122225 0.953656
-3.150767 -3.115611 0.956160
-3.139336 -3.121253 0.947983
-3.135067 -3.116918 0.948528
-3.134811 -3.106785 0.954078
-3.130288 -3.102713 0.954379
-3.124324 -3.100753 0.952877
-3.121215 -3.094567 0.954993
-3.118865 -3.087167 0.958129
-3.099994 -3.104952 0.939954
-3.104050 -3.087742 0.951395
-3.099068 -3.084363 0.951150
-3.097169 -3.076090 0.955000
-3.090502 -3.075358 0.952552
-3.083806 -3.074739 0.950035
-3.080997 -3.067781 0.952773
-3.077721 -3.061507 0.954932
-3.072697 -3.058112 0.954721
-3.066268 -3.057120 0.952557
-3.061767 -3.052840 0.953085
-3.059671 -3.044308 0.957055
-3.052952 -3.043862 0.954480
-3.046211 -3.043530 0.951837
-3.041059 -3.040366 0.951484
-3.035966 -3.037092 0.951226
-3.030907 -3.033748 0.951029
-3.027639 -3.026991 0.953539
-3.024740 -3.019418 0.956676
-3.020460 -3.014420 0.957773
-3.013989 -3.013707 0.955513
-3.008207 -3.011675 0.954302
-3.002271 -3.009978 0.952843
-2.996739 -3.007483 0.952017
-2.992115 -3.003094 0.952662
-2.988912 -2.995641 0.955660
-2.981700 -2.996698 0.952125
-2.976469 -2.993534 0.951839
-2.972263 -2.988078 0.953302
-2.968386 -2.981802 0.955380
-2.963053 -2.978747 0.955016
-2.956865 -2.977666 0.953173
-2.951504 -2.974683 0.952774
-2.945924 -2.972211 0.951999
-2.940422 -2.969550 0.951374
-2.932913 -2.971846 0.947079
-2.931796 -2.958244 0.954575
-2.925649 -2.957114 0.952831
-2.919242 -2.956704 0.950575
-2.914281 -2.952543 0.951084
-2.909805 -2.947019 0.952589
-2.904055 -2.944861 0.951640
-2.897921 -2.943769 0.949928
-2.892434 -2.940891 0.949522
-2.889287 -2.931262 0.953984
-2.884736 -2.925473 0.955665
-2.875706 -2.932889 0.947892
-2.869394 -2.932409 0.945803
-2.864381 -2.927972 0.946546
-2.860490 -2.919904 0.949861
-2.856343 -2.912421 0.952746
-2.851842 -2.905872 0.954959
-2.845217 -2.906233 0.952311
-2.838354 -2.907490 0.949056
-2.832103 -2.906744 0.947222
-2.827713 -2.899430 0.949972
-2.820747 -2.901218 0.946397
-2.816256 -2.893981 0.949087
-2.811089 -2.889055 0.950170
-2.805180 -2.886853 0.949379
-2.799434 -2.883976 0.949058
-2.793889 -2.880214 0.949346
-2.788242 -2.876770 0.949419
-2.783116 -2.871005 0.951068
-2.777554 -2.866931 0.951567
-2.771616 -2.864408 0.951017
-2.765578 -2.862287 0.950201
-2.759928 -2.858295 0.950647
-2.755528 -2.848090 0.955248
-2.747901 -2.853514 0.949397
-2.740627 -2.857528 0.944519
-2.735685 -2.849517 0.947643
-2.730740 -2.841128 0.950997
-2.724619 -2.838937 0.950244
-2.718050 -2.839320 0.947802
-2.712576 -2.833261 0.949594
-2.706594 -2.830075 0.949494
-2.699968 -2.830953 0.946742
-2.693426 -2.831491 0.944222
-2.687538 -2.827705 0.944513
-2.683247 -2.812258 0.952331
-2.677082 -2.809855 0.951692
-2.670802 -2.808382 0.950450
-2.665198 -2.801507 0.952668
-2.658945 -2.799853 0.951528
-2.652657 -2.798700 0.950063
-2.646671 -2.794955 0.950241
-2.640699 -2.791095 0.950477
-2.634403 -2.790706 0.948506
-2.628960 -2.781319 0.952197
-2.622790 -2.779988 0.950791
-2.616682 -2.778411 0.949531
-2.611124 -2.770021 0.952511
-2.604945 -2.770242 0.950097
-2.598976 -2.768266 0.949040
-2.593341 -2.761529 0.950912
-2.587686 -2.755290 0.952445
-2.581885 -2.752269 0.951967
-2.576265 -2.746377 0.953230
-2.570814 -2.736962 0.956613
-2.565120 -2.734258 0.955863
-2.559454 -2.732702 0.954398
-2.553828 -2.732479 0.952112
-2.548349 -2.729716 0.951348
-2.542980 -2.724770 0.951877
-2.537638 -2.721659 0.951279
-2.532369 -2.718274 0.950825
-2.527194 -2.710763 0.952807
-2.522052 -2.706374 0.952901
-2.516977 -2.703616 0.952007
-2.511982 -2.701059 0.950978
-2.507007 -2.692429 0.953503
-2.502061 -2.683424 0.956210
-2.497121 -2.672784 0.959833
-2.492356 -2.669462 0.959157
-3.605042 -3.493100 0.959129
-3.601490 -3.489758 0.960013
-3.598054 -3.486272 0.960987
-3.593246 -3.483349 0.960982
-3.581708 -3.483575 0.956117
-3.572075 -3.482870 0.952588
-3.575690 -3.475653 0.958673
-3.571393 -3.472187 0.959021
-3.567163 -3.468607 0.959417
-3.563078 -3.464872 0.959919
-3.557566 -3.461787 0.959362
-3.549789 -3.459809 0.957107
-3.539425 -3.459150 0.952887
-3.546744 -3.449131 0.961922
-3.563715 -3.433732 0.978326
-3.550582 -3.434301 0.972024
-3.549892 -3.428094 0.975145
-3.518539 -3.432163 0.958376
-3.515782 -3.426999 0.959853
-3.509424 -3.423830 0.958539
-3.496664 -3.424363 0.952204
-3.496061 -3.417810 0.955339
-3.497607 -3.409882 0.960189
-3.495884 -3.403801 0.962489
-3.490382 -3.399955 0.961797
-3.482666 -3.397461 0.959321
-3.481666 -3.390790 0.962208
-3.480281 -3.384286 0.964806
-3.474068 -3.380810 0.963508
-3.464196 -3.379721 0.959208
-3.461012 -3.374311 0.960338
-3.457311 -3.369213 0.961049
-3.452387 -3.364920 0.960750
-3.446984 -3.360955 0.960046
-3.437047 -3.360131 0.955545
-3.434135 -3.354494 0.956892
-3.429142 -3.350303 0.956495
-3.425236 -3.345349 0.957012
-3.421171 -3.340505 0.957397
-3.423102 -3.331271 0.962917
-3.415235 -3.329193 0.960062
-3.406333 -3.327960 0.956280
-3.400555 -3.324445 0.955176
-3.399447 -3.317380 0.958141
-3.397755 -3.310720 0.960624
-3.393773 -3.305820 0.961111
-3.385468 -3.304361 0.957768
-3.380889 -3.299989 0.957715
-3.380114 -3.292536 0.961074
-3.374842 -3.288729 0.960417
-3.369073 -3.285363 0.959304
-3.363839 -3.281585 0.958670
-3.361970 -3.274966 0.961114
-3.355489 -3.272285 0.959340
-3.350878 -3.268025 0.959282
-3.344682 -3.265179 0.957749
-3.339243 -3.261704 0.956913
-3.334563 -3.257575 0.956786
-3.331410 -3.252068 0.958107
-3.326479 -3.248187 0.957754
-3.319672 -3.246075 0.955605
-3.314696 -3.242295 0.955200
-3.311729 -3.236617 0.956741
-3.304404 -3.235124 0.954058
-3.299022 -3.231804 0.953254
-3.296258 -3.225926 0.955027
-3.295339 -3.218176 0.958655
-3.294464 -3.210308 0.962376
-3.280213 -3.216025 0.952723
-3.280948 -3.206493 0.958091
-3.271693 -3.207280 0.953381
-3.273315 -3.196695 0.959737
-3.266144 -3.195360 0.957136
-3.262786 -3.189974 0.958453
-3.259244 -3.184764 0.959603
-3.252971 -3.182550 0.957911
-3.245536 -3.181680 0.954979
-3.244767 -3.173351 0.959092
-3.240272 -3.169186 0.959285
-3.236176 -3.164558 0.959916
-3.224465 -3.168822 0.952319
-3.225342 -3.158389 0.958347
-3.219265 -3.156128 0.956833
-3.214626 -3.152165 0.956896
-3.210520 -3.147551 0.957559
-3.202920 -3.147246 0.954326
-3.203007 -3.137400 0.959723
-3.194736 -3.138000 0.955716
-3.188418 -3.136200 0.953893
-3.184684 -3.131101 0.955027
-3.176906 -3.131271 0.951497
-3.176606 -3.121616 0.956658
-3.170851 -3.119140 0.955486
-3.167644 -3.113234 0.957325
-3.163143 -3.109054 0.957655
-3.156229 -3.108215 0.955096
-3.151011 -3.105058 0.954563
-3.146119 -3.101448 0.954431
-3.140243 -3.099254 0.953094
-3.136264 -3.094327 0.954101
-3.131194 -3.090977 0.953768
-3.124892 -3.089470 0.951889
-3.120594 -3.084983 0.952534
-3.119236 -3.075974 0.956965
-3.114107 -3.072667 0.956612
-3.106683 -3.072959 0.953277
-3.101543 -3.069721 0.952894
-3.093780 -3.070698 0.949046
-3.092883 -3.060616 0.954307
-3.087216 -3.058220 0.953249
-3.081528 -3.055883 0.952157
-3.077242 -3.051199 0.952980
-3.072525 -3.047219 0.953234
-3.069475 -3.040330 0.955829
-3.063912 -3.037758 0.954949
-3.057500 -3.036710 0.952863
-3.051883 -3.034288 0.951890
-3.045859 -3.032628 0.950325
-3.040247 -3.030242 0.949348
-3.036885 -3.023660 0.951683
-3.031326 -3.021156 0.950808
-3.029272 -3.011919 0.955201
-3.023139 -3.010472 0.953506
-3.017253 -3.008577 0.952174
-3.012930 -3.003579 0.953253
-3.008203 -2.999346 0.953738
-3.002064 -2.997986 0.952022
-2.996111 -2.996283 0.950583
-2.991308 -2.992171 0.950993
-2.986356 -2.988343 0.951188
-2.980854 -2.985687 0.950500
-2.976243 -2.981058 0.951305
-2.971997 -2.975552 0.952767
-2.965922 -2.974140 0.951163
-2.960542 -2.971152 0.950747
-2.955383 -2.967636 0.950730
-2.950801 -2.962710 0.951760
-2.946101 -2.957999 0.952629
-2.942291 -2.951022 0.955161
-2.936594 -2.948634 0.954319
-2.929794 -2.949052 0.951437
-2.924718 -2.945105 0.951755
-2.920360 -2.939218 0.953482
-2.913756 -2.939219 0.950945
-2.907393 -2.938643 0.948846
-2.901190 -2.937681 0.947041
-2.896150 -2.933491 0.947561
-2.891381 -2.928455 0.948687
-2.886848 -2.922625 0.950373
-2.881174 -2.920048 0.949747
-2.872754 -2.925754 0.943277
-2.871957 -2.908269 0.953184
-2.866392 -2.905158 0.952942
-2.861081 -2.901193 0.953303
-2.855790 -2.897078 0.953769
-2.849117 -2.897474 0.951101
-2.842468 -2.897877 0.948447
-2.838979 -2.887425 0.953315
-2.833420 -2.883924 0.953368
-2.826042 -2.886917 0.948965
-2.820661 -2.882743 0.949499
-2.814252 -2.882335 0.947462
-2.808513 -2.879396 0.947164
-2.802966 -2.875633 0.947429
-2.799074 -2.865077 0.952290
-2.793292 -2.861907 0.952145
-2.786831 -2.861531 0.950123
-2.782146 -2.853492 0.953254
-2.775487 -2.853911 0.950714
-2.769110 -2.853136 0.948987
-2.764217 -2.845433 0.951875
-2.758449 -2.841601 0.952182
-2.752619 -2.837942 0.952374
-2.746076 -2.837801 0.950248
-2.740184 -2.834314 0.950332
-2.733752 -2.833634 0.948576
-2.728300 -2.827533 0.950369
-2.722354 -2.823989 0.950486
-2.717067 -2.816394 0.953229
-2.709802 -2.820614 0.948306
-2.703037 -2.822067 0.945193
-2.696855 -2.819909 0.944418
-2.691488 -2.812147 0.947239
-2.685821 -2.806091 0.948946
-2.679985 -2.801008 0.950016
-2.674045 -2.796520 0.950693
-2.667738 -2.794859 0.949564
-2.661888 -2.789459 0.950797
-2.655313 -2.790303 0.948074
-2.649181 -2.787450 0.947680
-2.643066 -2.784543 0.947311
-2.637969 -2.771242 0.953429
-2.631800 -2.768660 0.952814
-2.625632 -2.766347 0.952019
-2.619718 -2.761286 0.952916
-2.613826 -2.755999 0.953929
-2.607757 -2.753320 0.953309
-2.601388 -2.755780 0.949518
-2.595762 -2.747555 0.952273
-2.589754 -2.746003 0.950915
-2.583815 -2.744270 0.949654
-2.578265 -2.735470 0.952668
-2.572634 -2.728572 0.954490
-2.566975 -2.722994 0.955480
-2.561267 -2.720065 0.954847
-2.555554 -2.719564 0.952739
-2.550076 -2.712830 0.954345
-2.544506 -2.712791 0.951929
-2.539007 -2.714387 0.948534
-2.533673 -2.710928 0.948128
-2.528490 -2.695031 0.955039
-2.523251 -2.689975 0.955509
-2.518079 -2.690136 0.952894
-2.512982 -2.685111 0.953305
-2.507951 -2.680384 0.953518
-2.502951 -2.672951 0.955279
-2.497991 -2.665154 0.957218
-2.493119 -2.659546 0.957863
-2.488383 -2.657119 0.956659
-3.622402 -3.489662 0.961294
-3.615239 -3.487975 0.959654
-3.608783 -3.485904 0.958499
-3.605492 -3.482283 0.959578
-3.603323 -3.478037 0.961465
-3.598369 -3.475023 0.961374
-3.589270 -3.473942 0.958301
-3.585396 -3.470266 0.958969
-3.589334 -3.462632 0.965307
-3.573302 -3.464830 0.957147
-3.575758 -3.457711 0.962441
-3.578521 -3.450279 0.968004
-3.568193 -3.449467 0.963942
-3.566172 -3.444296 0.966001
-3.578462 -3.431435 0.978740
-3.554916 -3.437514 0.964753
-3.536628 -3.440909 0.954585
-3.530714 -3.437624 0.953668
-3.535183 -3.428528 0.960620
-3.521551 -3.429432 0.953818
-3.528315 -3.418801 0.962580
-3.525368 -3.406526 0.967579
-3.506406 -3.410575 0.956507
-3.503527 -3.405188 0.957884
-3.501909 -3.398979 0.960256
-3.498066 -3.394058 0.960890
-3.493509 -3.389542 0.960956
-3.487114 -3.386154 0.959554
-3.483598 -3.380949 0.960434
-3.479468 -3.376103 0.960825
-3.473583 -3.372381 0.959794
-3.468196 -3.368342 0.959154
-3.463877 -3.363597 0.959373
-3.458817 -3.359343 0.958983
-3.452383 -3.356034 0.957453
-3.446586 -3.352316 0.956432
-3.443669 -3.346608 0.957793
-3.437835 -3.342941 0.956726
-3.442371 -3.331875 0.964357
-3.434939 -3.329334 0.961960
-3.430269 -3.324827 0.961880
-3.421423 -3.323431 0.958238
-3.414688 -3.320535 0.956368
-3.409781 -3.316301 0.956053
-3.407947 -3.309725 0.958394
-3.404474 -3.304386 0.959334
-3.398052 -3.301363 0.957705
-3.392363 -3.297805 0.956705
-3.388302 -3.292971 0.957135
-3.386290 -3.286472 0.959391
-3.382742 -3.281206 0.960301
-3.376886 -3.277861 0.959150
-3.370836 -3.274718 0.957815
-3.366535 -3.270126 0.958055
-3.363138 -3.264763 0.959127
-3.357513 -3.261336 0.958168
-3.351845 -3.257982 0.957163
-3.346842 -3.254070 0.956767
-3.343756 -3.248448 0.958159
-3.335680 -3.247366 0.954890
-3.333758 -3.240684 0.957393
-3.329958 -3.235714 0.958147
-3.326217 -3.230683 0.958971
-3.322311 -3.225802 0.959652
-3.314653 -3.224543 0.956723
-3.306581 -3.223765 0.953363
-3.302435 -3.219195 0.953803
-3.302002 -3.210912 0.957900
-3.293789 -3.210408 0.954364
-3.289546 -3.205936 0.954738
-3.284147 -3.202659 0.953966
-3.287740 -3.190009 0.962239
-3.276073 -3.193302 0.955170
-3.272491 -3.188127 0.956255
-3.268241 -3.183654 0.956675
-3.265343 -3.177699 0.958502
-3.261537 -3.172710 0.959416
-3.257107 -3.168400 0.959697
-3.249059 -3.168180 0.956184
-3.245384 -3.163050 0.957259
-3.241536 -3.158095 0.958171
-3.236809 -3.154150 0.958161
-3.230771 -3.151759 0.956742
-3.225653 -3.148304 0.956312
-3.220950 -3.144361 0.956336
-3.215269 -3.141613 0.955292
-3.211739 -3.136233 0.956626
-3.206836 -3.132537 0.956452
-3.200350 -3.130850 0.954506
-3.196550 -3.125772 0.955581
-3.191875 -3.121799 0.955682
-3.186330 -3.118964 0.954793
-3.180515 -3.116509 0.953588
-3.178346 -3.109191 0.956621
-3.173305 -3.105688 0.956337
-3.167354 -3.103441 0.954981
-3.160720 -3.102175 0.952802
-3.157275 -3.096481 0.954426
-3.153504 -3.091204 0.955688
-3.147346 -3.089323 0.954072
-3.141490 -3.087041 0.952812
-3.136243 -3.083894 0.952294
-3.129120 -3.083555 0.949439
-3.123258 -3.081388 0.948133
-3.120591 -3.074368 0.950866
-3.117677 -3.067643 0.953339
-3.112586 -3.064247 0.953059
-3.108197 -3.059739 0.953696
-3.102871 -3.056707 0.953130
-3.098211 -3.052603 0.953443
-3.092469 -3.050259 0.952332
-3.086404 -3.048478 0.950782
-3.084088 -3.040409 0.954297
-3.079371 -3.036323 0.954604
-3.073936 -3.033457 0.953939
-3.067841 -3.031759 0.952356
-3.062613 -3.028560 0.951977
-3.057112 -3.025853 0.951216
-3.050726 -3.024771 0.949190
-3.046355 -3.020022 0.950050
-3.040066 -3.018819 0.948145
-3.039037 -3.007689 0.953963
-3.034041 -3.003967 0.954013
-3.029359 -2.999614 0.954552
-3.021135 -3.002225 0.949746
-3.017186 -2.996426 0.951411
-3.012956 -2.991121 0.952690
-3.007040 -2.989221 0.951379
-2.999511 -2.990720 0.947510
-2.993879 -2.988323 0.946608
-2.990122 -2.981910 0.948734
-2.984607 -2.979225 0.948057
-2.981070 -2.972167 0.950651
-2.976545 -2.967200 0.951675
-2.972008 -2.962193 0.952726
-2.968047 -2.955783 0.954810
-2.959584 -2.959835 0.949188
-2.955083 -2.954643 0.950383
-2.951369 -2.947466 0.953024
-2.946535 -2.942894 0.953754
-2.940190 -2.942039 0.951787
-2.934488 -2.939602 0.950981
-2.928954 -2.936733 0.950495
-2.924379 -2.931331 0.951836
-2.918095 -2.930388 0.949979
-2.911695 -2.929807 0.947881
-2.907544 -2.923078 0.950172
-2.902449 -2.918844 0.950683
-2.896209 -2.917812 0.948933
-2.890356 -2.915694 0.947964
-2.885400 -2.910918 0.948869
-2.881438 -2.903050 0.951936
-2.875327 -2.901563 0.950537
-2.870154 -2.897161 0.951177
-2.865295 -2.891665 0.952576
-2.860014 -2.887399 0.953119
-2.852973 -2.888872 0.949711
-2.847785 -2.884218 0.950534
-2.842323 -2.880386 0.950793
-2.836397 -2.878103 0.949997
-2.831101 -2.873528 0.950768
-2.824425 -2.873902 0.948183
-2.820790 -2.862942 0.953278
-2.811209 -2.874385 0.943246
-2.807760 -2.862348 0.949056
-2.802387 -2.857552 0.949982
-2.796388 -2.855173 0.949291
-2.791270 -2.849035 0.951110
-2.784819 -2.848421 0.949254
-2.781060 -2.835927 0.955274
-2.773070 -2.842080 0.948953
-2.768030 -2.834876 0.951462
-2.761342 -2.835254 0.948981
-2.755153 -2.833273 0.948059
-2.750429 -2.823834 0.952009
-2.744617 -2.819598 0.952551
-2.738336 -2.817720 0.951561
-2.731981 -2.816235 0.950321
-2.726350 -2.810605 0.951760
-2.720162 -2.808007 0.951239
-2.713583 -2.807743 0.949223
-2.707675 -2.803336 0.949862
-2.701460 -2.800763 0.949326
-2.696063 -2.792578 0.952355
-2.690188 -2.787307 0.953515
-2.683367 -2.788777 0.950401
-2.676816 -2.788501 0.948399
-2.671254 -2.780518 0.951243
-2.664290 -2.783821 0.946990
-2.658536 -2.777129 0.948996
-2.651568 -2.781279 0.944225
-2.646806 -2.764906 0.952219
-2.640687 -2.761029 0.952413
-2.634374 -2.759307 0.951262
-2.628580 -2.752010 0.953535
-2.622400 -2.749125 0.953070
-2.616256 -2.746108 0.952671
-2.610055 -2.744300 0.951519
-2.604008 -2.740871 0.951342
-2.597920 -2.738615 0.950433
-2.592034 -2.733695 0.951122
-2.586123 -2.729741 0.951201
-2.580387 -2.722946 0.952967
-2.574475 -2.720623 0.952019
-2.568739 -2.715348 0.952817
-2.563014 -2.710911 0.953089
-2.557454 -2.702461 0.955717
-2.551837 -2.697031 0.956519
-2.546138 -2.697986 0.953523
-2.540476 -2.703259 0.947983
-2.535095 -2.696702 0.949390
-2.529823 -2.681691 0.955707
-2.524489 -2.678149 0.955278
-2.519232 -2.679360 0.952070
-2.514061 -2.674973 0.952101
-2.508919 -2.665643 0.954961
-2.503881 -2.662385 0.954290
-2.498942 -2.660341 0.952909
-2.494048 -2.656113 0.952764
-2.489132 -2.647799 0.954928
-3.631838 -3.484926 0.961140
-3.624370 -3.483307 0.959319
-3.619576 -3.480388 0.959354
-3.616232 -3.476707 0.960408
-3.613537 -3.472623 0.961929
-3.608194 -3.469710 0.961583
-3.603971 -3.466178 0.962030
-3.603919 -3.460513 0.965464
-3.592824 -3.460197 0.960985
-3.602723 -3.449338 0.971625
-3.607880 -3.440643 0.978916
-3.596933 -3.440018 0.974532
-3.584773 -3.440018 0.969214
-3.575331 -3.438604 0.965841
-3.573834 -3.432958 0.968300
-3.566384 -3.430402 0.966357
-3.555251 -3.429816 0.961641
-3.553319 -3.424190 0.963768
-3.548742 -3.419941 0.963917
-3.554568 -3.409776 0.971925
-3.566753 -3.395790 0.984831
-3.562329 -3.391107 0.985174
-3.542950 -3.395106 0.974045
-3.525356 -3.398216 0.964180
-3.524064 -3.391721 0.966831
-3.508067 -3.394053 0.958064
-3.504738 -3.388755 0.959106
-3.499902 -3.384350 0.958967
-3.492254 -3.381694 0.956603
-3.486314 -3.377981 0.955564
-3.482933 -3.372627 0.956548
-3.479206 -3.367470 0.957258
-3.475049 -3.362574 0.957625
-3.471639 -3.357167 0.958594
-3.466491 -3.352913 0.958158
-3.462113 -3.348142 0.958342
-3.457789 -3.343332 0.958568
-3.454463 -3.337822 0.959616
-3.451298 -3.332183 0.960805
-3.446590 -3.327633 0.960721
-3.442674 -3.322519 0.961296
-3.437007 -3.318691 0.960404
-3.430341 -3.315634 0.958658
-3.420193 -3.315246 0.953938
-3.418392 -3.308615 0.956293
-3.414434 -3.303611 0.956821
-3.413641 -3.296142 0.960084
-3.405313 -3.294559 0.956852
-3.396433 -3.293500 0.953106
-3.393807 -3.287490 0.954799
-3.392757 -3.280171 0.957900
-3.390075 -3.274150 0.959590
-3.383302 -3.271523 0.957662
-3.381659 -3.264620 0.960303
-3.374433 -3.262444 0.957956
-3.369499 -3.258353 0.957658
-3.367630 -3.251605 0.960146
-3.359953 -3.249951 0.957356
-3.354033 -3.246800 0.956155
-3.349358 -3.242564 0.956094
-3.345505 -3.237591 0.956800
-3.342522 -3.231811 0.958332
-3.340670 -3.224951 0.960948
-3.333843 -3.222749 0.958896
-3.328778 -3.218920 0.958500
-3.323180 -3.215626 0.957596
-3.320195 -3.209809 0.959198
-3.320551 -3.200659 0.964057
-3.309227 -3.203091 0.957612
-3.310112 -3.193330 0.963048
-3.297150 -3.197617 0.954919
-3.297140 -3.188704 0.959528
-3.289673 -3.187491 0.956767
-3.289220 -3.178932 0.961011
-3.279461 -3.180233 0.955925
-3.277486 -3.173241 0.958684
-3.272120 -3.169898 0.958020
-3.266806 -3.166519 0.957408
-3.261400 -3.163262 0.956699
-3.257052 -3.158831 0.957088
-3.250407 -3.157021 0.955084
-3.245987 -3.152691 0.955406
-3.240830 -3.149218 0.954957
-3.236095 -3.145259 0.954960
-3.233470 -3.138777 0.957241
-3.230375 -3.132808 0.959051
-3.225700 -3.128729 0.959169
-3.216289 -3.130509 0.954098
-3.211459 -3.126686 0.954028
-3.206972 -3.122430 0.954347
-3.204504 -3.115579 0.956940
-3.199284 -3.112223 0.956473
-3.191493 -3.112250 0.953084
-3.185585 -3.109868 0.951812
-3.184500 -3.101048 0.956091
-3.179743 -3.097095 0.956175
-3.170421 -3.099403 0.950926
-3.166263 -3.094678 0.951698
-3.165757 -3.084795 0.956828
-3.158632 -3.084179 0.954122
-3.152912 -3.081612 0.953079
-3.147340 -3.078853 0.952210
-3.140406 -3.078122 0.949667
-3.140691 -3.066692 0.956007
-3.135378 -3.063520 0.955493
-3.125399 -3.067487 0.949125
-3.122432 -3.060790 0.951535
-3.116837 -3.058130 0.950641
-3.114563 -3.050224 0.954014
-3.110825 -3.044557 0.955557
-3.104022 -3.043811 0.953130
-3.099160 -3.039939 0.953233
-3.095163 -3.034615 0.954499
-3.091141 -3.029281 0.955766
-3.085871 -3.026027 0.955379
-3.083710 -3.017397 0.959243
-3.075666 -3.018937 0.955085
-3.067083 -3.021559 0.950116
-3.060929 -3.019965 0.948477
-3.058099 -3.012359 0.951526
-3.054202 -3.006604 0.953124
-3.047973 -3.005141 0.951402
-3.045882 -2.995881 0.955689
-3.039516 -2.994666 0.953788
-3.029899 -2.999830 0.947037
-3.031366 -2.983346 0.956795
-3.020043 -2.992077 0.947388
-3.018284 -2.981736 0.952445
-3.015111 -2.974098 0.955437
-3.007857 -2.974837 0.952135
-3.001910 -2.972918 0.950844
-2.995019 -2.973050 0.948039
-2.992969 -2.962731 0.953005
-2.990575 -2.952952 0.957541
-2.982713 -2.955223 0.953179
-2.975966 -2.955109 0.950601
-2.971058 -2.950827 0.951091
-2.967358 -2.943664 0.953678
-2.960718 -2.943363 0.951271
-2.955744 -2.939107 0.951745
-2.950694 -2.934985 0.952123
-2.945403 -2.931413 0.952107
-2.940989 -2.925585 0.953710
-2.936126 -2.920808 0.954556
-2.930483 -2.917992 0.954005
-2.923637 -2.918367 0.951199
-2.918593 -2.913957 0.951797
-2.912096 -2.913475 0.949628
-2.907255 -2.908419 0.950687
-2.902165 -2.903975 0.951315
-2.896467 -2.901213 0.950771
-2.890183 -2.900160 0.949045
-2.884218 -2.898186 0.947972
-2.880700 -2.888727 0.952080
-2.876101 -2.882359 0.954037
-2.870260 -2.879770 0.953392
-2.864054 -2.878335 0.951964
-2.857844 -2.876934 0.950527
-2.852077 -2.874058 0.950105
-2.844849 -2.876158 0.946316
-2.842559 -2.861102 0.954147
-2.834415 -2.866445 0.948192
-2.830356 -2.857148 0.952108
-2.824531 -2.854114 0.951811
-2.820161 -2.845460 0.955269
-2.815570 -2.837345 0.958351
-2.806114 -2.848378 0.948714
-2.800498 -2.844289 0.949140
-2.796054 -2.835159 0.952890
-2.790516 -2.830343 0.953783
-2.783530 -2.831741 0.950601
-2.778441 -2.824705 0.952951
-2.773347 -2.817400 0.955464
-2.767449 -2.813602 0.955686
-2.760598 -2.814336 0.952971
-2.754214 -2.812840 0.951713
-2.748257 -2.809127 0.951891
-2.742298 -2.805290 0.952147
-2.735984 -2.803253 0.951248
-2.730189 -2.798241 0.952253
-2.723675 -2.797225 0.950707
-2.717302 -2.795392 0.949686
-2.711227 -2.791683 0.949855
-2.705649 -2.784610 0.952144
-2.699436 -2.781433 0.951963
-2.693099 -2.779049 0.951280
-2.686603 -2.777807 0.949882
-2.680699 -2.772169 0.951227
-2.674292 -2.770253 0.950241
-2.668113 -2.766528 0.950376
-2.662223 -2.760243 0.952084
-2.655827 -2.758257 0.951120
-2.649291 -2.757786 0.949218
-2.643015 -2.755048 0.948705
-2.637240 -2.747161 0.951332
-2.630987 -2.744256 0.950890
-2.624731 -2.741636 0.950262
-2.618515 -2.738856 0.949719
-2.612561 -2.732908 0.951077
-2.606369 -2.730470 0.950293
-2.600519 -2.723305 0.952335
-2.594325 -2.721991 0.950840
-2.588418 -2.716425 0.951872
-2.582395 -2.713742 0.951160
-2.576463 -2.710199 0.950940
-2.570458 -2.709788 0.948847
-2.564912 -2.698561 0.953124
-2.559211 -2.692048 0.954580
-2.553493 -2.687476 0.954864
-2.547761 -2.686213 0.953189
-2.542070 -2.687535 0.949994
-2.536594 -2.680678 0.951548
-2.531189 -2.670480 0.955002
-2.525759 -2.670142 0.952721
-2.520428 -2.672932 0.948634
-2.515192 -2.667120 0.949482
-2.509959 -2.653898 0.954538
-2.504845 -2.650899 0.953717
-2.499871 -2.651783 0.950679
-2.494935 -2.648738 0.949862
-2.489872 -2.636334 0.954310
-2.484601 -2.615210 0.963611
-3.647449 -3.482379 0.961769
-3.639997 -3.480741 0.960002
-3.636808 -3.477079 0.961166
-3.632409 -3.473885 0.961501
-3.626812 -3.471169 0.961003
-3.622757 -3.467645 0.961580
-3.619247 -3.463769 0.962543
-3.616770 -3.459296 0.964243
-3.608222 -3.457699 0.961648
-3.613110 -3.449387 0.968600
-3.614963 -3.442411 0.973440
-3.615779 -3.435808 0.977572
-3.610626 -3.432128 0.977426
-3.581264 -3.440957 0.959708
-3.582261 -3.434045 0.963951
-3.573198 -3.432344 0.960859
-3.569272 -3.427865 0.961512
-3.564419 -3.423814 0.961479
-3.561823 -3.418461 0.963114
-3.560287 -3.412431 0.965547
-3.561312 -3.404860 0.969915
-3.578012 -3.388205 0.986114
-3.572265 -3.384183 0.985483
-3.546204 -3.392016 0.969402
-3.534216 -3.391779 0.963906
-3.533221 -3.385020 0.966783
-3.536599 -3.375523 0.973050
-3.513673 -3.382040 0.959004
-3.506605 -3.378945 0.957153
-3.498514 -3.376513 0.954480
-3.489382 -3.374781 0.950958
-3.487581 -3.368379 0.953182
-3.488247 -3.360313 0.957378
-3.483054 -3.356030 0.956941
-3.477733 -3.351837 0.956394
-3.475785 -3.345372 0.958552
-3.473151 -3.339335 0.960172
-3.464984 -3.337105 0.957310
-3.463541 -3.330221 0.959907
-3.460586 -3.324364 0.961286
-3.453915 -3.321158 0.959614
-3.447935 -3.317495 0.958497
-3.442646 -3.313357 0.957942
-3.437898 -3.308841 0.957834
-3.433605 -3.303998 0.958107
-3.432277 -3.296901 0.960889
-3.427173 -3.292672 0.960492
-3.417154 -3.292303 0.955894
-3.417580 -3.283800 0.960215
-3.414226 -3.278239 0.961321
-3.402477 -3.279454 0.955158
-3.403525 -3.270357 0.960090
-3.396924 -3.267492 0.958372
-3.395301 -3.260519 0.961024
-3.384119 -3.261588 0.955239
-3.387696 -3.250172 0.962540
-3.382954 -3.245808 0.962474
-3.373020 -3.246006 0.957734
-3.366656 -3.243162 0.956179
-3.360992 -3.239741 0.955247
-3.357999 -3.233935 0.956755
-3.356186 -3.227030 0.959368
-3.349290 -3.224784 0.957310
-3.346412 -3.218836 0.958973
-3.345246 -3.211241 0.962263
-3.337208 -3.210162 0.959124
-3.332772 -3.205679 0.959366
-3.329672 -3.199893 0.960887
-3.322910 -3.197707 0.958923
-3.316607 -3.195116 0.957384
-3.309767 -3.193115 0.955311
-3.307352 -3.186641 0.957534
-3.301002 -3.184196 0.955929
-3.297309 -3.179016 0.956932
-3.294499 -3.172884 0.958832
-3.291243 -3.167192 0.960314
-3.285422 -3.164245 0.959243
-3.278984 -3.162006 0.957540
-3.272050 -3.160361 0.955317
-3.265517 -3.158327 0.953482
-3.260859 -3.154222 0.953564
-3.256497 -3.149779 0.953961
-3.250570 -3.147140 0.952736
-3.248038 -3.140561 0.955071
-3.243744 -3.136013 0.955578
-3.240216 -3.130536 0.956915
-3.235532 -3.126426 0.957038
-3.231686 -3.121289 0.958075
-3.226335 -3.117988 0.957497
-3.220377 -3.115463 0.956254
-3.215896 -3.111099 0.956630
-3.209048 -3.109758 0.954392
-3.204918 -3.104953 0.955168
-3.200729 -3.100202 0.955897
-3.195150 -3.097273 0.955069
-3.188898 -3.095268 0.953468
-3.186304 -3.088339 0.956060
-3.180798 -3.085334 0.955324
-3.176541 -3.080611 0.956045
-3.169586 -3.079655 0.953612
-3.163487 -3.077546 0.952166
-3.157771 -3.074924 0.951164
-3.153658 -3.069989 0.952085
-3.151237 -3.062531 0.955081
-3.145835 -3.059424 0.954491
-3.141825 -3.054228 0.955616
-3.137814 -3.048993 0.956767
-3.132596 -3.045583 0.956437
-3.123346 -3.048483 0.951024
-3.122911 -3.037578 0.956748
-3.117362 -3.034689 0.956017
-3.112088 -3.031367 0.955641
-3.106099 -3.029222 0.954337
-3.099925 -3.027417 0.952780
-3.094566 -3.024278 0.952288
-3.091560 -3.017128 0.954952
-3.085162 -3.015742 0.953093
-3.080342 -3.011643 0.953364
-3.073952 -3.010307 0.951494
-3.069499 -3.005541 0.952292
-3.068291 -2.994831 0.957663
-3.059094 -2.998651 0.951854
-3.055855 -2.991529 0.954452
-3.050562 -2.988187 0.954157
-3.046084 -2.983278 0.955056
-3.041788 -2.977965 0.956257
-3.035814 -2.975899 0.955008
-3.027480 -2.978576 0.950214
-3.026373 -2.966772 0.956280
-3.017947 -2.969752 0.951297
-3.012382 -2.966945 0.950647
-3.005559 -2.966797 0.948039
-3.001115 -2.961631 0.949149
-2.999404 -2.950459 0.954665
-2.993270 -2.948799 0.953187
-2.987320 -2.946760 0.951998
-2.981639 -2.944134 0.951248
-2.974638 -2.944554 0.948301
-2.971506 -2.936016 0.951840
-2.967733 -2.928822 0.954392
-2.962429 -2.925183 0.954384
-2.955856 -2.924620 0.952181
-2.949102 -2.924572 0.949632
-2.944454 -2.919279 0.950823
-2.940296 -2.912635 0.952963
-2.934224 -2.910857 0.951666
-2.928149 -2.909105 0.950362
-2.921892 -2.907867 0.948711
-2.917578 -2.901335 0.950767
-2.911684 -2.899068 0.949848
-2.907301 -2.892510 0.951912
-2.901380 -2.890243 0.951003
-2.896384 -2.885253 0.951977
-2.889172 -2.886794 0.948467
-2.885348 -2.878137 0.951959
-2.879852 -2.874430 0.952057
-2.874049 -2.871629 0.951543
-2.868036 -2.869472 0.950599
-2.863430 -2.862679 0.952795
-2.857073 -2.861563 0.951159
-2.850315 -2.861847 0.948597
-2.846262 -2.852772 0.952317
-2.841359 -2.846416 0.954203
-2.834265 -2.847840 0.950907
-2.828640 -2.843937 0.951167
-2.823288 -2.838887 0.952186
-2.817863 -2.833969 0.953114
-2.812885 -2.827116 0.955312
-2.803698 -2.837149 0.946438
-2.798326 -2.831828 0.947648
-2.794553 -2.819485 0.953424
-2.789130 -2.813817 0.954834
-2.782713 -2.812397 0.953490
-2.776814 -2.808590 0.953695
-2.770842 -2.804992 0.953766
-2.765002 -2.800628 0.954329
-2.758651 -2.798654 0.953361
-2.752019 -2.798091 0.951499
-2.745826 -2.795255 0.951093
-2.739807 -2.791377 0.951351
-2.733629 -2.788247 0.951133
-2.727283 -2.785988 0.950365
-2.720837 -2.784282 0.949253
-2.715244 -2.777269 0.951471
-2.709042 -2.773810 0.951453
-2.702367 -2.773386 0.949538
-2.696768 -2.765622 0.952192
-2.690080 -2.765260 0.950238
-2.683408 -2.764943 0.948262
-2.677191 -2.761247 0.948372
-2.671093 -2.756497 0.949122
-2.665028 -2.751284 0.950142
-2.658566 -2.749439 0.949090
-2.652095 -2.747829 0.947888
-2.646023 -2.742494 0.948946
-2.639882 -2.737737 0.949635
-2.633489 -2.735719 0.948651
-2.627058 -2.734493 0.947183
-2.621124 -2.727539 0.949146
-2.615435 -2.717131 0.953148
-2.609123 -2.714994 0.952173
-2.603000 -2.710612 0.952521
-2.597007 -2.704463 0.953896
-2.590564 -2.706713 0.950274
-2.584524 -2.702867 0.950248
-2.578484 -2.699978 0.949639
-2.572690 -2.692358 0.951784
-2.566784 -2.688304 0.951809
-2.560988 -2.682406 0.952886
-2.555165 -2.678956 0.952512
-2.549408 -2.675416 0.952168
-2.543712 -2.672250 0.951588
-2.538113 -2.667228 0.952055
-2.532568 -2.662673 0.952229
-2.527068 -2.661999 0.950161
-2.521663 -2.664067 0.946522
-2.516355 -2.656915 0.948120
-2.511049 -2.642812 0.953621
-2.505868 -2.640936 0.952167
-2.500771 -2.638422 0.951061
-2.495736 -2.634566 0.950695
-2.490772 -2.630371 0.950502
-2.485323 -2.603733 0.962786
-3.660100 -3.476194 0.963562
-3.652918 -3.474346 0.962021
-3.646075 -3.472279 0.960700
-3.642108 -3.468807 0.961345
-3.638932 -3.464869 0.962543
-3.632841 -3.462220 0.961727
-3.631370 -3.457274 0.964123
-3.628377 -3.452952 0.965472
-3.627630 -3.447421 0.968409
-3.619071 -3.445650 0.965854
-3.617030 -3.440559 0.967895
-3.609551 -3.438124 0.966075
-3.602178 -3.435586 0.964310
-3.612983 -3.423540 0.975595
-3.598703 -3.424443 0.968856
-3.586246 -3.424418 0.963374
-3.583072 -3.419418 0.964601
-3.579878 -3.414344 0.965818
-3.593400 -3.399960 0.979337
-3.564946 -3.408728 0.961951
-3.560909 -3.403954 0.962525
-3.555412 -3.399957 0.962010
-3.552921 -3.394184 0.963734
-3.559371 -3.383097 0.972199
-3.544718 -3.384337 0.964774
-3.535751 -3.382272 0.961594
-3.552160 -3.364807 0.977752
-3.547089 -3.360227 0.977578
-3.523686 -3.367053 0.963268
-3.517675 -3.363176 0.962283
-3.506036 -3.362898 0.956905
-3.503107 -3.357089 0.958279
-3.499623 -3.351608 0.959227
-3.494603 -3.347122 0.958966
-3.486849 -3.344472 0.956530
-3.486124 -3.337105 0.959670
-3.481269 -3.332511 0.959529
-3.477616 -3.327091 0.960351
-3.470186 -3.324317 0.958124
-3.465239 -3.319830 0.957892
-3.461547 -3.314454 0.958680
-3.454476 -3.311537 0.956701
-3.450354 -3.306498 0.957134
-3.446010 -3.301629 0.957387
-3.444024 -3.294989 0.959606
-3.437406 -3.291853 0.957970
-3.431786 -3.287997 0.957156
-3.432234 -3.279430 0.961469
-3.429231 -3.273514 0.962894
-3.420621 -3.272070 0.959540
-3.414786 -3.268469 0.958538
-3.412267 -3.262192 0.960392
-3.409047 -3.256470 0.961659
-3.404560 -3.251798 0.961835
-3.400328 -3.246922 0.962239
-3.394437 -3.243474 0.961187
-3.389388 -3.239335 0.960873
-3.379012 -3.239885 0.955808
-3.371958 -3.237618 0.953670
-3.368417 -3.232266 0.954681
-3.367078 -3.224909 0.957702
-3.359349 -3.223354 0.954935
-3.355922 -3.217887 0.956085
-3.353987 -3.211010 0.958628
-3.350270 -3.205773 0.959553
-3.345029 -3.201989 0.959071
-3.338578 -3.199399 0.957454
-3.333910 -3.195109 0.957504
-3.328561 -3.191504 0.956914
-3.324276 -3.186857 0.957338
-3.316561 -3.185682 0.954479
-3.312955 -3.180374 0.955561
-3.306826 -3.177664 0.954208
-3.301602 -3.174044 0.953731
-3.300197 -3.166400 0.957008
-3.296574 -3.161057 0.958137
-3.290252 -3.158616 0.956599
-3.284632 -3.155449 0.955752
-3.280314 -3.150868 0.956212
-3.271754 -3.151027 0.952381
-3.268937 -3.144784 0.954372
-3.262860 -3.142229 0.953044
-3.258644 -3.137555 0.953630
-3.257121 -3.129717 0.957034
-3.253771 -3.123957 0.958577
-3.250566 -3.117987 0.960298
-3.242836 -3.117452 0.957246
-3.235977 -3.115930 0.955091
-3.231558 -3.111443 0.955540
-3.226671 -3.107532 0.955494
-3.220888 -3.104755 0.954479
-3.215432 -3.101586 0.953817
-3.210173 -3.098178 0.953371
-3.208607 -3.089940 0.957042
-3.203835 -3.085852 0.957175
-3.194950 -3.087274 0.952668
-3.193920 -3.078159 0.957049
-3.186454 -3.077754 0.954120
-3.180515 -3.075306 0.952921
-3.174456 -3.073057 0.951573
-3.172292 -3.065305 0.954782
-3.164732 -3.065218 0.951671
-3.161126 -3.059461 0.953231
-3.157488 -3.053698 0.954787
-3.151471 -3.051430 0.953499
-3.146475 -3.047655 0.953444
-3.143039 -3.041492 0.955316
-3.138400 -3.037125 0.955737
-3.132325 -3.034983 0.954382
-3.129589 -3.027588 0.957221
-3.123264 -3.025848 0.955560
-3.116940 -3.024150 0.953884
-3.111673 -3.020757 0.953556
-3.105576 -3.018747 0.952152
-3.101438 -3.013471 0.953310
-3.092401 -3.016502 0.948008
-3.088449 -3.010912 0.949423
-3.083515 -3.006983 0.949550
-3.081141 -2.998502 0.953176
-3.076761 -2.993486 0.954126
-3.071353 -2.990292 0.953684
-3.067897 -2.983504 0.955978
-3.061812 -2.981528 0.954616
-3.056199 -2.978690 0.953918
-3.052046 -2.973066 0.955321
-3.046109 -2.970837 0.954176
-3.040021 -2.968930 0.952803
-3.037199 -2.960541 0.956257
-3.030993 -2.958848 0.954735
-3.023292 -2.960259 0.950937
-3.014585 -2.963887 0.945540
-3.013843 -2.950903 0.952349
-3.006449 -2.951860 0.948941
-3.004246 -2.941666 0.953667
-2.997472 -2.941320 0.951228
-2.991644 -2.938938 0.950280
-2.987566 -2.932601 0.952187
-2.983542 -2.926032 0.954250
-2.979394 -2.919639 0.956176
-2.973501 -2.917271 0.955227
-2.967990 -2.913995 0.954932
-2.961640 -2.912751 0.953205
-2.955712 -2.910503 0.952201
-2.949824 -2.908163 0.951272
-2.943923 -2.905866 0.950322
-2.938497 -2.902335 0.950243
-2.932082 -2.901389 0.948369
-2.930261 -2.888126 0.955048
-2.924219 -2.886049 0.953961
-2.918017 -2.884428 0.952569
-2.910963 -2.885241 0.949519
-2.906777 -2.877900 0.952071
-2.899890 -2.878296 0.949334
-2.894505 -2.874301 0.949603
-2.888802 -2.871202 0.949267
-2.883707 -2.866185 0.950231
-2.877209 -2.865479 0.948290
-2.873213 -2.856781 0.951729
-2.869001 -2.848523 0.954854
-2.863197 -2.845338 0.954581
-2.856839 -2.843984 0.953096
-2.849126 -2.847366 0.948484
-2.844073 -2.841515 0.950004
-2.839422 -2.834031 0.952594
-2.833770 -2.829999 0.952904
-2.827531 -2.828088 0.951827
-2.821972 -2.823530 0.952487
-2.815802 -2.821253 0.951662
-2.809626 -2.818960 0.950855
-2.805980 -2.806140 0.956862
-2.798337 -2.809742 0.952249
-2.792637 -2.805139 0.952940
-2.786636 -2.801711 0.952875
-2.780536 -2.798633 0.952589
-2.774638 -2.794510 0.952972
-2.768456 -2.791609 0.952577
-2.762391 -2.788039 0.952610
-2.756309 -2.784431 0.952667
-2.749666 -2.783639 0.950951
-2.743352 -2.781098 0.950342
-2.737185 -2.777667 0.950294
-2.730782 -2.775475 0.949471
-2.725097 -2.768950 0.951350
-2.718669 -2.766672 0.950578
-2.711843 -2.766902 0.948256
-2.706507 -2.757405 0.951948
-2.699891 -2.756128 0.950555
-2.692719 -2.758888 0.946688
-2.686448 -2.755349 0.946692
-2.680492 -2.749275 0.948237
-2.674310 -2.744720 0.948841
-2.667921 -2.741750 0.948473
-2.661910 -2.735435 0.950120
-2.655507 -2.732465 0.949731
-2.648963 -2.730941 0.948463
-2.642667 -2.727112 0.948573
-2.636325 -2.723831 0.948342
-2.630037 -2.720077 0.948380
-2.624069 -2.712540 0.950652
-2.617910 -2.707222 0.951579
-2.611526 -2.705132 0.950576
-2.605318 -2.701025 0.950750
-2.599401 -2.692558 0.953466
-2.593167 -2.689518 0.952967
-2.586801 -2.689934 0.950432
-2.580700 -2.686419 0.950181
-2.574674 -2.682287 0.950267
-2.568752 -2.676579 0.951243
-2.562778 -2.673633 0.950597
-2.556867 -2.670742 0.949901
-2.551113 -2.664069 0.951354
-2.545372 -2.658798 0.951974
-2.539637 -2.656831 0.950686
-2.533995 -2.654031 0.949855
-2.528426 -2.652408 0.948340
-2.522950 -2.650205 0.947141
-2.517551 -2.641474 0.949599
-2.512186 -2.632181 0.952335
-2.506914 -2.628871 0.951689
-2.501703 -2.624006 0.951894
-2.496635 -2.623307 0.949764
-2.491610 -2.619725 0.949225
-2.486942 -2.627581 0.942365
-3.675351 -3.473903 0.963634
-3.670038 -3.471204 0.963387
-3.663400 -3.469030 0.962246
-3.656409 -3.466952 0.960855
-3.652551 -3.463345 0.961588
-3.647917 -3.460010 0.961797
-3.647075 -3.454777 0.964614
-3.641801 -3.451555 0.964394
-3.639928 -3.446595 0.966529
-3.632367 -3.444321 0.964718
-3.625690 -3.441553 0.963506
-3.620946 -3.437748 0.963638
-3.616278 -3.433824 0.963821
-3.605994 -3.432714 0.960018
-3.607343 -3.425528 0.964463
-3.602625 -3.421394 0.964602
-3.603321 -3.414299 0.968628
-3.593937 -3.412511 0.965405
-3.589898 -3.407797 0.966023
-3.577508 -3.407631 0.960553
-3.576241 -3.401285 0.963171
-3.579884 -3.392058 0.969419
-3.567688 -3.391749 0.964011
-3.559240 -3.389324 0.961330
-3.579857 -3.362210 0.983984
-3.567828 -3.361723 0.978641
-3.561684 -3.357727 0.977694
-3.546108 -3.359546 0.969563
-3.536610 -3.357713 0.965990
-3.525447 -3.356990 0.961101
-3.519598 -3.352952 0.960256
-3.512638 -3.349645 0.958538
-3.507814 -3.344967 0.958460
-3.502700 -3.340481 0.958152
-3.499460 -3.334742 0.959309
-3.496695 -3.328660 0.960849
-3.490797 -3.324706 0.959915
-3.487638 -3.318871 0.961153
-3.485383 -3.312382 0.963125
-3.471817 -3.313924 0.956009
-3.465904 -3.310108 0.955011
-3.467010 -3.301201 0.959710
-3.459668 -3.298446 0.957553
-3.457075 -3.292204 0.959273
-3.449064 -3.290035 0.956538
-3.447989 -3.282636 0.959529
-3.441811 -3.279137 0.958296
-3.439686 -3.272507 0.960449
-3.435349 -3.267600 0.960761
-3.432744 -3.261314 0.962544
-3.424371 -3.259679 0.959439
-3.419292 -3.255430 0.959120
-3.415226 -3.250365 0.959671
-3.412095 -3.244520 0.961039
-3.406390 -3.240843 0.960188
-3.402068 -3.236015 0.960538
-3.396950 -3.231885 0.960196
-3.394868 -3.225115 0.962534
-3.389377 -3.221331 0.961874
-3.378259 -3.222624 0.956185
-3.375648 -3.216344 0.958076
-3.372477 -3.210547 0.959486
-3.366282 -3.207536 0.958171
-3.362114 -3.202667 0.958696
-3.356365 -3.199296 0.957780
-3.349227 -3.197292 0.955574
-3.345311 -3.192225 0.956341
-3.340528 -3.188000 0.956311
-3.337161 -3.182383 0.957617
-3.332323 -3.178221 0.957552
-3.328140 -3.173403 0.958115
-3.326782 -3.165686 0.961392
-3.320918 -3.162569 0.960378
-3.309485 -3.165318 0.953966
-3.307541 -3.158176 0.956724
-3.302286 -3.154521 0.956276
-3.295379 -3.152672 0.954201
-3.292003 -3.147012 0.955609
-3.288597 -3.141356 0.957011
-3.284188 -3.136793 0.957428
-3.278848 -3.133277 0.956917
-3.272079 -3.131414 0.954951
-3.270408 -3.123702 0.958187
-3.263062 -3.122554 0.955622
-3.260966 -3.115258 0.958478
-3.254589 -3.113016 0.956908
-3.247519 -3.111655 0.954595
-3.241325 -3.109282 0.953185
-3.238281 -3.103047 0.955119
-3.232678 -3.099965 0.954342
-3.225270 -3.099189 0.951612
-3.221167 -3.094252 0.952446
-3.220273 -3.085133 0.956815
-3.214094 -3.082819 0.955424
-3.211110 -3.076306 0.957571
-3.203324 -3.076172 0.954382
-3.195432 -3.076266 0.951037
-3.193192 -3.068695 0.954067
-3.184425 -3.070096 0.949685
-3.183787 -3.060200 0.954614
-3.175795 -3.060607 0.951088
-3.177219 -3.047575 0.958532
