ply
format ascii 1.0
comment ---
element vertex 1649
property float x
property float y
property float z
element face 0
property list uchar uint vertex_indices
end_header
-2.149535 -2.543057 0.952802
-2.153982 -2.529928 0.948767
-2.159834 -2.518602 0.946606
-2.169009 -2.511269 0.948708
-2.178943 -2.504808 0.951779
-2.188323 -2.497679 0.954164
-2.191035 -2.482966 0.948292
-2.193260 -2.467867 0.941924
-2.200335 -2.458311 0.941615
-2.212697 -2.454581 0.947798
-2.222202 -2.447659 0.950484
-2.231829 -2.440839 0.953325
-2.235848 -2.428061 0.949441
-2.241054 -2.416630 0.947049
-2.249244 -2.408354 0.948262
-2.251388 -2.393908 0.942350
-2.259595 -2.385720 0.943661
-2.269351 -2.379071 0.946802
-2.278913 -2.372188 0.949716
-2.288312 -2.365110 0.952444
-2.295343 -2.355721 0.952448
-2.300682 -2.344742 0.950540
-2.305981 -2.333782 0.948635
-2.306032 -2.318005 0.940817
-2.315103 -2.310667 0.943295
-2.326099 -2.305043 0.947942
-2.331864 -2.294660 0.946716
-2.336813 -2.283592 0.944620
-2.344882 -2.275304 0.946026
-2.357434 -2.270877 0.952395
-2.360324 -2.258095 0.948114
-2.365303 -2.247164 0.946180
-2.374109 -2.239470 0.948456
-2.378144 -2.227815 0.945561
-2.374873 -2.210280 0.934831
-2.376762 -2.197095 0.929761
-2.390496 -2.193414 0.937431
-2.403905 -2.189347 0.944709
-2.412849 -2.181697 0.947212
-2.420401 -2.172943 0.948243
-2.429676 -2.165480 0.951099
-2.431756 -2.152598 0.946416
-2.433608 -2.139636 0.941555
-2.439763 -2.129896 0.941223
-2.449896 -2.123027 0.945028
-2.463928 -2.118864 0.952839
-2.471288 -2.109888 0.953760
-2.474614 -2.098104 0.950571
-2.471918 -2.082259 0.941298
-2.480543 -2.074215 0.943593
-2.493123 -2.068768 0.949881
-2.501701 -2.060581 0.952115
-2.505937 -2.049536 0.949999
-2.509228 -2.037918 0.946974
-2.508466 -2.023785 0.939962
-2.516253 -2.015104 0.941486
-2.518444 -2.002946 0.937496
-2.535635 -1.999969 0.948297
-2.547310 -1.993501 0.953633
-2.557464 -1.986041 0.957464
-2.564564 -1.976728 0.958314
-2.560986 -1.961248 0.948836
-2.556757 -1.945545 0.938815
-2.565479 -1.937251 0.941335
-2.577020 -1.930466 0.946553
-2.587031 -1.922754 0.950291
-2.596770 -1.914827 0.953760
-2.600381 -1.903591 0.951413
-2.601616 -1.891144 0.946856
-2.608312 -1.881565 0.947487
-2.616685 -1.872815 0.949702
-2.622021 -1.862501 0.949080
-2.629677 -1.853325 0.950639
-2.634235 -1.842610 0.949328
-2.630178 -1.827792 0.940072
-2.640419 -1.819822 0.944077
-2.651244 -1.812042 0.948607
-2.666637 -1.806256 0.957308
-2.672755 -1.796161 0.957499
-2.663069 -1.779077 0.943323
-2.665148 -1.767301 0.939925
-2.672654 -1.757875 0.941471
-2.688399 -1.751865 0.950446
-2.698519 -1.743374 0.954324
-2.696442 -1.729854 0.947271
-2.701477 -1.719259 0.946624
-2.708546 -1.709451 0.947806
-2.717178 -1.700205 0.950380
-2.718512 -1.688137 0.946495
-2.722835 -1.677217 0.945284
-2.735573 -1.669362 0.951486
-2.734906 -1.656592 0.945918
-2.735034 -1.644163 0.941088
-2.738420 -1.632908 0.939135
-2.742270 -1.621818 0.937606
-2.755235 -1.613747 0.943986
-2.769642 -1.606026 0.951580
-2.758692 -1.590101 0.937316
-2.791415 -1.587979 0.960614
-2.774969 -1.570482 0.941718
-2.790087 -1.562675 0.949859
-2.791100 -1.550606 0.945961
-2.795485 -1.539541 0.944947
-2.809936 -1.531285 0.952450
-2.813502 -1.519931 0.950733
-2.809288 -1.506514 0.942483
-2.816945 -1.496298 0.944228
-2.828621 -1.487068 0.949318
-2.839780 -1.477625 0.953940
-2.849955 -1.467871 0.957710
-2.829899 -1.450945 0.936395
-2.839014 -1.441020 0.939295
-2.855119 -1.432616 0.947924
-2.870637 -1.423965 0.956006
-2.871368 -1.412088 0.951908
-2.872122 -1.400291 0.947831
-2.877910 -1.389575 0.947857
-2.894217 -1.380914 0.956402
-2.897413 -1.369705 0.954253
-2.900820 -1.358598 0.952256
-2.910553 -1.348670 0.955336
-2.923269 -1.339249 0.960758
-2.930979 -1.328979 0.962108
-2.936845 -1.318452 0.961941
-2.916236 -1.303929 0.940670
-2.918617 -1.293161 0.937724
-2.936507 -1.284711 0.947024
-2.937039 -1.273831 0.942537
-2.938983 -1.263275 0.939144
-2.947691 -1.253705 0.941029
-2.964667 -1.245202 0.949319
-2.973381 -1.235723 0.951077
-2.955776 -1.223378 0.932340
-2.998466 -1.217805 0.960351
-3.015422 -1.209363 0.968282
-3.005702 -1.198337 0.955596
-3.001089 -1.188045 0.946861
-3.021062 -1.180132 0.956932
-3.031165 -1.171389 0.959373
-3.058809 -1.154717 0.969713
-3.086429 -1.138279 0.979739
-3.018417 -1.116504 0.918026
-1.664437 -3.177097 0.949304
-1.667165 -3.132970 0.931743
-1.675196 -3.128659 0.936266
-1.687187 -3.134341 0.948428
-1.690917 -3.117739 0.943653
-1.704532 -3.126454 0.958274
-1.709875 -3.113321 0.956151
-1.716098 -3.102157 0.955520
-1.716969 -3.077435 0.944291
-1.730713 -3.084329 0.957709
-1.731378 -3.058875 0.945766
-1.738775 -3.049614 0.946499
-1.751052 -3.051570 0.956138
-1.761089 -3.047758 0.961240
-1.766122 -3.032069 0.956830
-1.772416 -3.019160 0.954596
-1.773377 -2.994217 0.942551
-1.778479 -2.978607 0.937970
-1.784508 -2.964990 0.934951
-1.797426 -2.966086 0.943995
-1.806477 -2.958564 0.945970
-1.813120 -2.945827 0.943602
-1.827310 -2.948586 0.954142
-1.835872 -2.939478 0.954790
-1.843819 -2.929031 0.954288
-1.845183 -2.905518 0.942665
-1.853240 -2.895360 0.942294
-1.866695 -2.895546 0.950769
-1.875928 -2.887420 0.952142
-1.882604 -2.874438 0.949301
-1.886899 -2.857132 0.942641
-1.892478 -2.842361 0.938113
-1.902990 -2.836595 0.941443
-1.917342 -2.837549 0.950733
-1.926986 -2.830001 0.952543
-1.933977 -2.817838 0.950229
-1.938873 -2.802201 0.944753
-1.951853 -2.800351 0.951659
-1.962553 -2.794555 0.955040
-1.965861 -2.776591 0.947335
-1.969691 -2.759731 0.940549
-1.978433 -2.750952 0.941134
-1.986002 -2.740355 0.940028
-1.993147 -2.729179 0.938362
-2.003383 -2.722849 0.941211
-2.011211 -2.712842 0.940617
-2.019375 -2.703407 0.940550
-2.033058 -2.702190 0.948309
-2.045013 -2.698301 0.953586
-2.050518 -2.685026 0.949870
-2.058320 -2.675172 0.949423
-2.069164 -2.669664 0.953201
-2.074871 -2.656974 0.949980
-2.078578 -2.641673 0.944146
-2.087454 -2.633576 0.945381
-2.100290 -2.630805 0.951940
-2.111168 -2.625333 0.955862
-2.117662 -2.614084 0.954004
-2.127932 -2.607805 0.957164
-2.142542 -2.607037 0.965982
-2.138019 -2.581982 0.949980
-2.148880 -2.576512 0.954007
-2.157554 -2.568298 0.955232
-2.161476 -2.554319 0.950450
-2.165644 -2.540785 0.946080
-2.171103 -2.528921 0.943424
-2.180954 -2.522310 0.946326
-2.188580 -2.513090 0.946473
-2.200045 -2.508303 0.951399
-2.203798 -2.494708 0.946842
-2.204893 -2.478271 0.939133
-2.217697 -2.474982 0.945759
-2.231948 -2.473166 0.954099
-2.234808 -2.458894 0.948707
-2.253897 -2.462094 0.962792
-2.250286 -2.441073 0.949795
-2.260196 -2.434449 0.952948
-2.269548 -2.427211 0.955447
-2.265491 -2.406287 0.942270
-2.275365 -2.399680 0.945470
-2.283312 -2.391113 0.946440
-2.293020 -2.384280 0.949458
-2.299933 -2.374691 0.949274
-2.306332 -2.364631 0.948533
-2.317432 -2.359068 0.953168
-2.326211 -2.351254 0.955163
-2.323477 -2.332745 0.944224
-2.323873 -2.317333 0.936919
-2.334453 -2.311297 0.941050
-2.346303 -2.306333 0.946575
-2.348583 -2.292817 0.941519
-2.356107 -2.283991 0.942292
-2.365121 -2.276449 0.944710
-2.371812 -2.266892 0.944603
-2.380753 -2.259245 0.946958
-2.385265 -2.247877 0.944541
-2.392290 -2.238630 0.944864
-2.401062 -2.230807 0.947074
-2.396482 -2.212229 0.935079
-2.407193 -2.206010 0.939412
-2.423933 -2.204446 0.950087
-2.430364 -2.194714 0.949865
-2.437403 -2.185457 0.950301
-2.443756 -2.175678 0.950038
-2.453734 -2.168617 0.953559
-2.471917 -2.167545 0.965545
-2.477598 -2.157164 0.964591
-2.466647 -2.134843 0.946627
-2.467918 -2.121517 0.941298
-2.480405 -2.116152 0.947427
-2.492020 -2.110080 0.952644
-2.494443 -2.097633 0.948573
-2.491013 -2.081305 0.938674
-2.505061 -2.076796 0.946351
-2.514104 -2.068863 0.949001
-2.522907 -2.060727 0.951409
-2.528760 -2.050658 0.950901
-2.535190 -2.040961 0.950982
-2.532670 -2.025671 0.942302
-2.543265 -2.018604 0.946520
-2.544093 -2.005524 0.941214
-2.554911 -1.998523 0.945656
-2.566699 -1.992016 0.951018
-2.577957 -1.985107 0.955849
-2.578413 -1.971889 0.950297
-2.583096 -1.961157 0.948844
-2.582098 -1.947257 0.942007
-2.586925 -1.936681 0.940763
-2.599911 -1.930562 0.947260
-2.613541 -1.924676 0.954333
-2.623951 -1.916960 0.958351
-2.620140 -1.901742 0.949050
-2.628589 -1.892974 0.951263
-2.635087 -1.883168 0.951662
-2.633943 -1.869525 0.944999
-2.640962 -1.859994 0.945930
-2.647418 -1.850162 0.946353
-2.649723 -1.838327 0.942984
-2.649607 -1.825391 0.937442
-2.663305 -1.818925 0.944529
-2.677246 -1.812443 0.951805
-2.685605 -1.803324 0.954001
-2.697133 -1.795553 0.959053
-2.696583 -1.782435 0.953235
-2.686310 -1.765232 0.938760
-2.694779 -1.756119 0.941126
-2.706648 -1.748356 0.946517
-2.713550 -1.738469 0.947482
-2.714040 -1.725983 0.942784
-2.724883 -1.717617 0.947257
-2.742709 -1.711855 0.957852
-2.745836 -1.700332 0.955515
-2.740206 -1.685561 0.945557
-2.743755 -1.674278 0.943665
-2.754515 -1.665590 0.948056
-2.759484 -1.654771 0.947419
-2.754987 -1.640666 0.938629
-2.757054 -1.628898 0.935549
-2.770069 -1.620794 0.941887
-2.786943 -1.613827 0.951497
-2.793430 -1.603373 0.952200
-2.801364 -1.593338 0.954137
-2.814546 -1.584858 0.960517
-2.820427 -1.574071 0.960694
-2.807770 -1.557822 0.945251
-2.812851 -1.546878 0.944806
-2.823810 -1.537571 0.949291
-2.834083 -1.527990 0.953177
-2.831272 -1.514830 0.946140
-2.835654 -1.503644 0.945117
-2.839692 -1.492373 0.943810
-2.847710 -1.482103 0.945792
-2.853318 -1.471211 0.945772
-2.857745 -1.460034 0.944773
-2.852722 -1.446693 0.936030
-2.876721 -1.439995 0.951023
-2.882624 -1.429129 0.951182
-2.880513 -1.416568 0.944816
-2.883835 -1.405234 0.942866
-2.896560 -1.395829 0.948498
-2.904526 -1.385438 0.950245
-2.901552 -1.372985 0.943174
-2.909592 -1.362677 0.944933
-2.932221 -1.354961 0.958296
-2.932355 -1.343243 0.953649
-2.936111 -1.332238 0.951870
-2.941499 -1.321570 0.951357
-2.943217 -1.310401 0.947915
-2.950290 -1.300138 0.948668
-2.962687 -1.290698 0.953550
-2.962743 -1.279558 0.948714
-2.955300 -1.267565 0.938019
-2.957426 -1.257019 0.934782
-2.973200 -1.248275 0.942095
-2.985616 -1.239133 0.946725
-2.994469 -1.229625 0.948538
-3.015315 -1.221484 0.959500
-3.006765 -1.210286 0.947853
-3.012064 -1.200698 0.946799
-3.009498 -1.190496 0.939724
-3.020088 -1.181660 0.942625
-3.042428 -1.173892 0.954341
-3.045328 -1.164549 0.951297
-3.050766 -1.155549 0.950136
-3.065425 -1.147336 0.955843
-3.067272 -1.138319 0.951915
-3.065995 -1.129266 0.945652
-3.053456 -1.119735 0.931046
-3.039854 -1.110418 0.915715
-1.673063 -3.222003 0.961709
-1.674080 -3.198658 0.952246
-1.671498 -3.165422 0.935327
-1.673290 -3.144201 0.927220
-1.684083 -3.146921 0.937011
-1.699346 -3.160771 0.955289
-1.709457 -3.160282 0.962854
-1.710450 -3.135768 0.952165
-1.717145 -3.125766 0.952472
-1.726124 -3.121163 0.956923
-1.730628 -3.105041 0.952489
-1.731330 -3.079490 0.940663
-1.744215 -3.083422 0.951732
-1.749014 -3.067480 0.947288
-1.756471 -3.057672 0.947617
-1.769129 -3.059664 0.957282
-1.776395 -3.048778 0.956759
-1.781813 -3.033528 0.952714
-1.789595 -3.023474 0.952784
-1.794977 -3.007969 0.948422
-1.795617 -2.982171 0.935625
-1.807633 -2.980952 0.942752
-1.821516 -2.983294 0.952849
-1.830912 -2.975854 0.954952
-1.838120 -2.963753 0.953185
-1.846958 -2.954910 0.954092
-1.849840 -2.934076 0.944939
-1.856268 -2.920449 0.941737
-1.864059 -2.909521 0.940762
-1.876216 -2.906949 0.946862
-1.886057 -2.899775 0.949069
-1.893744 -2.888496 0.947750
-1.898933 -2.872653 0.942454
-1.905363 -2.859224 0.939180
-1.921272 -2.862883 0.950765
-1.928367 -2.850625 0.948490
-1.935333 -2.838233 0.946056
-1.942522 -2.826323 0.944008
-1.954851 -2.823237 0.949785
-1.961768 -2.810946 0.947364
-1.973573 -2.806856 0.952287
-1.975944 -2.787259 0.943213
-1.983136 -2.775741 0.941383
-1.987013 -2.759047 0.934786
-1.995228 -2.749406 0.934595
-2.004714 -2.741794 0.936269
-2.021313 -2.745086 0.948091
-2.032879 -2.740502 0.952669
-2.039192 -2.728004 0.949852
-2.048907 -2.720655 0.951864
-2.056988 -2.710930 0.951633
-2.064712 -2.700753 0.950963
-2.074152 -2.693088 0.952694
-2.086506 -2.689523 0.958401
-2.091522 -2.675697 0.954199
-2.093733 -2.658190 0.946348
-2.101193 -2.648030 0.945625
-2.114158 -2.645296 0.952231
-2.119667 -2.632607 0.949017
-2.126870 -2.622257 0.948100
-2.140937 -2.620822 0.956139
-2.150006 -2.612879 0.957687
-2.157540 -2.603016 0.957300
-2.163843 -2.591676 0.955397
-2.168698 -2.578645 0.951730
-2.173961 -2.566236 0.948665
-2.179604 -2.554393 0.946154
-2.185426 -2.542860 0.943939
-2.194267 -2.534950 0.945519
-2.204768 -2.528965 0.949163
-2.211565 -2.518697 0.948282
-2.223582 -2.514384 0.953790
-2.227811 -2.501283 0.949871
-2.231380 -2.487569 0.945238
-2.237613 -2.476895 0.943877
-2.254110 -2.477350 0.954763
-2.258509 -2.464705 0.951270
-2.264969 -2.454334 0.950272
-2.271710 -2.444302 0.949646
-2.279448 -2.435336 0.950221
-2.286924 -2.426116 0.950520
-2.293808 -2.416316 0.950165
-2.305036 -2.410864 0.954824
-2.304415 -2.393703 0.945956
-2.307362 -2.380204 0.941254
-2.317584 -2.373796 0.944841
-2.331863 -2.371184 0.952981
-2.340565 -2.363202 0.954833
-2.343050 -2.349445 0.949778
-2.342551 -2.333071 0.941491
-2.360287 -2.333366 0.953411
-2.362756 -2.319801 0.948494
-2.363423 -2.304752 0.941678
-2.368389 -2.293599 0.939625
-2.375815 -2.284619 0.940276
-2.387359 -2.279149 0.945382
-2.398611 -2.273349 0.950152
-2.400817 -2.259941 0.945243
-2.405175 -2.248405 0.942688
-2.416358 -2.242470 0.947401
-2.423451 -2.233173 0.947783
-2.428664 -2.222387 0.946213
-2.438628 -2.215360 0.949639
-2.449772 -2.209190 0.954285
-2.451874 -2.196029 0.949545
-2.459202 -2.186906 0.950256
-2.470051 -2.180403 0.954597
-2.481410 -2.174203 0.959444
-2.486030 -2.163016 0.957405
-2.477224 -2.142215 0.941779
-2.480885 -2.130543 0.938896
-2.491338 -2.123688 0.942891
-2.501301 -2.116425 0.946382
-2.510953 -2.108890 0.949552
-2.513264 -2.096345 0.945414
-2.512340 -2.081715 0.938121
-2.523086 -2.074889 0.942418
-2.536753 -2.069887 0.949572
-2.549607 -2.064240 0.955891
-2.553123 -2.052573 0.953070
-2.558341 -2.042014 0.951942
-2.554886 -2.026124 0.942443
-2.552801 -2.011224 0.934354
-2.562353 -2.003440 0.937522
-2.576115 -1.998093 0.944714
-2.578303 -1.985858 0.940832
-2.597511 -1.983491 0.953167
-2.595702 -1.968964 0.945530
-2.598839 -1.957329 0.942630
-2.600769 -1.945067 0.938632
-2.613106 -1.938537 0.944427
-2.625246 -1.931799 0.950015
-2.636358 -1.924414 0.954623
-2.637676 -1.911826 0.950135
-2.638177 -1.898878 0.944941
-2.652166 -1.892851 0.952214
-2.665830 -1.886532 0.959156
-2.658122 -1.869553 0.946526
-2.659540 -1.857195 0.942312
-2.661241 -1.845026 0.938400
-2.668197 -1.835379 0.939285
-2.679033 -1.827504 0.943680
-2.697678 -1.823109 0.955082
-2.702306 -1.812214 0.953863
-2.699633 -1.798091 0.946145
-2.719254 -1.793779 0.958342
-2.720441 -1.781359 0.954114
-2.712750 -1.765244 0.942076
-2.714835 -1.753351 0.938749
-2.722562 -1.743789 0.940416
-2.731282 -1.734578 0.942957
-2.747790 -1.728374 0.952299
-2.755289 -1.718514 0.953750
-2.758683 -1.707049 0.951643
-2.751264 -1.691554 0.940201
-2.762837 -1.683181 0.945231
-2.773709 -1.674453 0.949638
-2.783240 -1.665159 0.952879
-2.795485 -1.656731 0.958432
-2.793256 -1.643270 0.951625
-2.798014 -1.632221 0.950806
-2.806230 -1.622290 0.952931
-2.809621 -1.610757 0.950975
-2.811111 -1.598634 0.947438
-2.826657 -1.590862 0.955734
-2.831080 -1.579592 0.954672
-2.827595 -1.565987 0.947017
-2.827001 -1.553312 0.941817
-2.837876 -1.543927 0.946173
-2.845432 -1.533542 0.947758
-2.851918 -1.522827 0.948450
-2.854277 -1.511001 0.945740
-2.855132 -1.498817 0.941808
-2.858447 -1.487296 0.939908
-2.869547 -1.477693 0.944366
-2.878525 -1.467511 0.947066
-2.886000 -1.456936 0.948521
-2.892915 -1.446210 0.949502
-2.892173 -1.433792 0.944287
-2.894126 -1.422032 0.941254
-2.897835 -1.410691 0.939631
-2.910053 -1.401103 0.944807
-2.912780 -1.389600 0.942359
-2.925248 -1.380004 0.947652
-2.940668 -1.370902 0.955232
-2.938995 -1.358677 0.949219
-2.935696 -1.346297 0.941927
-2.943046 -1.335840 0.943022
-2.954992 -1.326157 0.947682
-2.963142 -1.315872 0.949311
-2.958599 -1.303719 0.940997
-2.980502 -1.295572 0.953251
-2.983767 -1.284732 0.950949
-2.986825 -1.273971 0.948457
-3.021386 -1.267380 0.970210
-3.017976 -1.255893 0.962621
-3.013108 -1.244425 0.953918
-3.024667 -1.235031 0.957763
-3.021931 -1.224136 0.950659
-3.020610 -1.213582 0.944627
-3.020516 -1.203331 0.939515
-3.010915 -1.192358 0.927221
-3.029114 -1.184137 0.935858
-3.068260 -1.177708 0.960096
-3.080531 -1.168939 0.964061
-3.073106 -1.158742 0.953292
-3.062173 -1.148537 0.939946
-3.079580 -1.140523 0.947613
-3.096800 -1.132531 0.955055
-3.041066 -1.120233 0.908783
-3.138152 -1.108269 0.969346
-1.691752 -3.268974 0.982850
-1.687872 -3.231403 0.963158
-1.684536 -3.195587 0.944567
-1.683438 -3.166050 0.930447
-1.694032 -3.167752 0.939461
-1.709947 -3.182803 0.958547
-1.714178 -3.166547 0.954248
-1.718039 -3.149154 0.949034
-1.723976 -3.136869 0.947635
-1.735548 -3.138398 0.956753
-1.741885 -3.126404 0.955566
-1.743989 -3.103851 0.946210
-1.751009 -3.093147 0.945921
-1.758870 -3.084181 0.946961
-1.760503 -3.060352 0.936362
-1.776254 -3.069246 0.951365
-1.784460 -3.060221 0.952333
-1.790596 -3.046299 0.949400
-1.798637 -3.036508 0.949710
-1.806001 -3.025048 0.948659
-1.818499 -3.024544 0.956404
-1.824950 -3.010758 0.953443
-1.830242 -2.994509 0.948422
-1.837875 -2.983161 0.947335
-1.843985 -2.968638 0.943602
-1.851104 -2.956184 0.941518
-1.863126 -2.953480 0.947488
-1.867265 -2.935059 0.940372
-1.877918 -2.929429 0.943896
-1.886885 -2.920433 0.944594
-1.896085 -2.911831 0.945612
-1.908030 -2.908286 0.950928
-1.910451 -2.887109 0.941179
-1.920170 -2.879444 0.942942
-1.929094 -2.870318 0.943440
-1.938256 -2.861618 0.944298
-1.944837 -2.848432 0.941224
-1.954886 -2.841318 0.943441
-1.968177 -2.839666 0.950490
-1.978230 -2.832436 0.952646
-1.983896 -2.817954 0.948337
-1.994171 -2.811148 0.950859
-1.994704 -2.788665 0.939251
-2.002920 -2.778753 0.938911
-2.006868 -2.762220 0.932520
-2.020780 -2.761332 0.940395
-2.035820 -2.762006 0.949787
-2.047026 -2.756701 0.953731
-2.052519 -2.742839 0.949736
-2.061328 -2.734020 0.950417
-2.069727 -2.724645 0.950575
-2.080276 -2.718409 0.953703
-2.090290 -2.711390 0.956116
-2.099757 -2.703600 0.957812
-2.107324 -2.693197 0.957006
-2.105793 -2.670442 0.944222
-2.114415 -2.661761 0.945002
-2.122931 -2.652971 0.945681
-2.129019 -2.641019 0.943250
-2.137691 -2.632538 0.944231
-2.147424 -2.625445 0.946605
-2.155345 -2.616044 0.946691
-2.161750 -2.604782 0.944902
-2.172519 -2.599021 0.948673
-2.179967 -2.589145 0.948289
-2.185426 -2.576912 0.945481
-2.197281 -2.572440 0.950657
-2.203464 -2.561180 0.948842
-2.219778 -2.561844 0.959474
-2.223084 -2.547277 0.954217
-2.233149 -2.540582 0.957229
-2.240881 -2.531222 0.957442
-2.245063 -2.517931 0.953448
-2.242402 -2.497216 0.941402
-2.249954 -2.487920 0.941597
-2.263100 -2.484674 0.948406
-2.269753 -2.474400 0.947581
-2.281370 -2.469393 0.952576
-2.285467 -2.456490 0.948849
-2.290329 -2.444474 0.946072
-2.297035 -2.434416 0.945470
-2.308255 -2.428925 0.950052
-2.317724 -2.421623 0.952631
-2.326799 -2.413906 0.954771
-2.321723 -2.392447 0.941024
-2.335522 -2.389370 0.948538
-2.348499 -2.385382 0.955093
-2.354552 -2.374803 0.953948
-2.355621 -2.359652 0.947349
-2.363485 -2.350859 0.948290
-2.371896 -2.342558 0.949845
-2.384706 -2.338169 0.956189
-2.382951 -2.320820 0.946750
-2.380445 -2.303010 0.936614
-2.394647 -2.299805 0.944495
-2.406143 -2.294158 0.949443
-2.413527 -2.284968 0.950003
-2.415314 -2.271123 0.944662
-2.418425 -2.258476 0.940783
-2.426027 -2.249557 0.941667
-2.439005 -2.244945 0.948176
-2.445638 -2.235189 0.948054
-2.455202 -2.227740 0.950988
-2.460779 -2.217159 0.949809
-2.470074 -2.209448 0.952475
-2.472044 -2.196162 0.947653
-2.481931 -2.188875 0.950946
-2.487700 -2.178500 0.950060
-2.492127 -2.167166 0.947845
-2.504258 -2.161414 0.953408
-2.506158 -2.148303 0.948704
-2.504390 -2.132706 0.940400
-2.513391 -2.124712 0.942873
-2.524092 -2.117838 0.947024
-2.530252 -2.107828 0.946688
-2.529289 -2.093076 0.939381
-2.536654 -2.083930 0.940289
-2.551264 -2.079475 0.948262
-2.560183 -2.071232 0.950669
-2.571529 -2.064482 0.955421
-2.566014 -2.047112 0.943922
-2.570228 -2.035935 0.941858
-2.576100 -2.025798 0.941408
-2.586051 -2.018115 0.944861
-2.590367 -2.007029 0.942961
-2.601836 -2.000152 0.947850
-2.598978 -1.984923 0.939231
-2.617710 -1.982116 0.950943
-2.621359 -1.970643 0.948489
-2.622513 -1.957821 0.943745
-2.630627 -1.948869 0.945509
-2.634568 -1.937632 0.943418
-2.641755 -1.928142 0.944348
-2.649023 -1.918670 0.945362
-2.645517 -1.903614 0.936525
-2.667443 -1.901617 0.950958
-2.680769 -1.895066 0.957492
-2.685554 -1.884181 0.956260
-2.679214 -1.867894 0.945009
-2.692025 -1.860945 0.951079
-2.699373 -1.851308 0.952225
-2.704122 -1.840429 0.951056
-2.715234 -1.832464 0.955579
-2.713900 -1.818804 0.949036
-2.725253 -1.810855 0.953778
-2.728189 -1.799141 0.951079
-2.735180 -1.789191 0.951979
-2.736437 -1.776787 0.947861
-2.739490 -1.765173 0.945353
-2.728176 -1.747710 0.930361
-2.753966 -1.745363 0.947693
-2.763670 -1.736372 0.951006
-2.765353 -1.724194 0.947393
-2.764085 -1.710925 0.941275
-2.773839 -1.701855 0.944660
-2.776664 -1.690161 0.942113
-2.788250 -1.681647 0.947062
-2.804165 -1.674565 0.955669
-2.809835 -1.663761 0.955558
-2.816390 -1.653235 0.956204
-2.821829 -1.642301 0.955918
-2.828983 -1.631909 0.957083
-2.832101 -1.620175 0.954871
-2.836398 -1.608823 0.953664
-2.836577 -1.596194 0.949044
-2.846949 -1.586692 0.952917
-2.849098 -1.574675 0.949968
-2.844471 -1.560720 0.941450
-2.860235 -1.552644 0.949761
-2.866502 -1.541792 0.950235
-2.869207 -1.529951 0.947794
-2.871202 -1.517942 0.944788
-2.866199 -1.504159 0.936105
-2.874512 -1.493844 0.938269
-2.890255 -1.485306 0.946426
-2.902388 -1.475771 0.951619
-2.907311 -1.464469 0.950976
-2.903007 -1.451080 0.942926
-2.917255 -1.441909 0.949748
-2.917459 -1.429621 0.945318
-2.928852 -1.419742 0.949794
-2.922794 -1.406268 0.940389
-2.926264 -1.394825 0.938553
-2.954573 -1.388174 0.956291
-2.952926 -1.375737 0.950351
-2.944584 -1.362218 0.939170
-2.945262 -1.350463 0.935076
-2.958871 -1.340979 0.941056
-2.985195 -1.333518 0.956855
-2.982259 -1.321296 0.949848
-2.986109 -1.310258 0.948091
-2.993510 -1.299825 0.949043
-3.004803 -1.289993 0.952942
-3.018353 -1.280487 0.958507
-3.035840 -1.271495 0.967002
-3.039320 -1.260728 0.964738
-3.032318 -1.248830 0.954485
-3.021772 -1.236758 0.941566
-3.031980 -1.227227 0.944343
-3.035322 -1.217044 0.941893
-3.044981 -1.207630 0.944151
-3.037008 -1.196620 0.933167
-3.051813 -1.187920 0.939185
-3.100765 -1.182191 0.970498
-3.116829 -1.173527 0.977209
-3.112874 -1.163363 0.969050
-3.118950 -1.154147 0.968285
-3.130029 -1.136045 0.965864
-3.130960 -1.126924 0.961247
-3.113971 -1.116971 0.943600
-3.153397 -1.110281 0.966897
-1.697302 -3.306084 0.988407
-1.696543 -3.276828 0.975077
-1.697161 -3.251421 0.964418
-1.695345 -3.219371 0.948787
-1.696777 -3.196202 0.939532
-1.707079 -3.196530 0.947546
-1.720235 -3.203727 0.960728
-1.725575 -3.189903 0.958337
-1.727042 -3.165921 0.948290
-1.734513 -3.157105 0.949559
-1.745919 -3.157735 0.957977
-1.751786 -3.144150 0.955643
-1.756897 -3.128519 0.951702
-1.762932 -3.114954 0.949291
-1.765558 -3.093150 0.940474
-1.779621 -3.098073 0.952286
-1.784148 -3.080411 0.946583
-1.793388 -3.073427 0.949166
-1.803977 -3.069171 0.953901
-1.804525 -3.042377 0.940821
-1.820082 -3.048577 0.953830
-1.829831 -3.041690 0.956483
-1.834294 -3.023360 0.949945
-1.839352 -3.006372 0.944402
-1.844087 -2.988799 0.938302
-1.847842 -2.969341 0.930581
-1.865097 -2.977179 0.945129
-1.875556 -2.971007 0.948261
-1.885605 -2.963882 0.950614
-1.895077 -2.955529 0.951946
-1.897030 -2.932804 0.941251
-1.910501 -2.932022 0.948870
-1.915548 -2.915395 0.943160
-1.922147 -2.901788 0.939937
-1.930134 -2.890796 0.938894
-1.940574 -2.884219 0.941611
-1.946304 -2.869316 0.937159
-1.953729 -2.857519 0.935336
-1.967655 -2.856927 0.943244
-1.979279 -2.852257 0.947648
-1.987268 -2.841450 0.946681
-1.997953 -2.835152 0.949682
-2.004867 -2.822699 0.947225
-2.013965 -2.813871 0.947974
-2.015666 -2.793378 0.938229
-2.022362 -2.781018 0.935724
-2.034852 -2.777720 0.941421
-2.047256 -2.774195 0.946964
-2.055799 -2.764772 0.947139
-2.064115 -2.755066 0.947048
-2.072500 -2.745525 0.947102
-2.080531 -2.735530 0.946728
-2.094097 -2.733523 0.953845
-2.105776 -2.728721 0.958398
-2.111336 -2.715319 0.954831
-2.114616 -2.698920 0.948357
-2.128687 -2.697443 0.956138
-2.133317 -2.683118 0.951594
-2.132751 -2.662050 0.940448
-2.144073 -2.656929 0.944751
-2.151418 -2.646589 0.943973
-2.158134 -2.635512 0.942456
-2.164354 -2.623890 0.940381
-2.169528 -2.611055 0.937068
-2.183540 -2.609282 0.944840
-2.199176 -2.609358 0.954577
-2.203993 -2.596172 0.950932
-2.217411 -2.593386 0.957893
-2.226747 -2.585663 0.959853
-2.235362 -2.577092 0.960961
-2.243494 -2.567976 0.961516
-2.244090 -2.550295 0.953093
-2.252441 -2.541573 0.954025
-2.258390 -2.530189 0.952145
-2.256936 -2.510731 0.941613
-2.263587 -2.500349 0.940713
-2.276192 -2.496418 0.946789
-2.289454 -2.493084 0.953597
-2.298554 -2.485262 0.955574
-2.301203 -2.470726 0.950172
-2.304374 -2.456864 0.945453
-2.311464 -2.447102 0.945259
-2.318163 -2.436974 0.944655
-2.333981 -2.435919 0.954329
-2.345793 -2.430763 0.959459
-2.345943 -2.414232 0.951602
-2.352541 -2.404050 0.950985
-2.362365 -2.396952 0.953953
-2.363705 -2.381879 0.947621
-2.366768 -2.368541 0.943256
-2.374389 -2.359469 0.943905
-2.387245 -2.355126 0.950232
-2.395491 -2.346562 0.951566
-2.397594 -2.332568 0.946333
-2.399832 -2.318807 0.941316
-2.404234 -2.307018 0.938664
-2.423400 -2.307856 0.951654
-2.424631 -2.293377 0.945690
-2.426804 -2.279802 0.940786
-2.435091 -2.271351 0.942320
-2.446394 -2.265328 0.946992
-2.451564 -2.254309 0.945306
-2.462071 -2.247558 0.949147
-2.467985 -2.237147 0.948269
-2.474509 -2.227233 0.948041
-2.477731 -2.214805 0.944479
-2.486527 -2.206655 0.946605
-2.484681 -2.190537 0.938010
-2.494974 -2.183520 0.941685
-2.504431 -2.175833 0.944513
-2.512022 -2.166757 0.945478
-2.520391 -2.158220 0.947225
-2.528096 -2.149189 0.948319
-2.531298 -2.137023 0.944995
-2.535858 -2.125845 0.943044
-2.541190 -2.115223 0.941878
-2.551068 -2.107652 0.945157
-2.558006 -2.098090 0.945581
-2.565909 -2.089146 0.946949
-2.571632 -2.078778 0.946228
-2.565327 -2.060805 0.934018
-2.591373 -2.063259 0.952762
-2.585438 -2.045661 0.941002
-2.591515 -2.035572 0.940714
-2.597330 -2.025327 0.940197
-2.613012 -2.020937 0.948970
-2.609613 -2.005231 0.939834
-2.622959 -1.999337 0.946397
-2.627222 -1.988155 0.944487
-2.635906 -1.979481 0.946700
-2.639416 -1.967896 0.944140
-2.645681 -1.957851 0.944146
-2.649225 -1.946331 0.941674
-2.652782 -1.934849 0.939249
-2.657153 -1.923823 0.937594
-2.655515 -1.909711 0.930519
-2.686050 -1.912074 0.952577
-2.697655 -1.904573 0.957453
-2.692220 -1.888560 0.947021
-2.696913 -1.877633 0.945732
-2.701876 -1.866843 0.944708
-2.712240 -1.858606 0.948504
-2.719602 -1.848896 0.949632
-2.717214 -1.834684 0.942161
-2.739833 -1.831855 0.956753
-2.740807 -1.819164 0.952285
-2.746431 -1.808559 0.951926
-2.752935 -1.798319 0.952350
-2.759108 -1.787912 0.952498
-2.730608 -1.763052 0.922644
-2.772484 -1.767452 0.953722
-2.782729 -1.758608 0.957410
-2.783600 -1.745973 0.953049
-2.777488 -1.730669 0.942760
-2.789441 -1.722408 0.947942
-2.794330 -1.711390 0.947104
-2.790437 -1.697122 0.938845
-2.804574 -1.689488 0.945874
-2.815883 -1.680714 0.950492
-2.822649 -1.670257 0.951280
-2.833044 -1.661004 0.955110
-2.841345 -1.650962 0.957182
-2.850408 -1.641113 0.959886
-2.852295 -1.628880 0.956630
-2.849968 -1.615339 0.949916
-2.862722 -1.606549 0.955687
-2.865439 -1.594599 0.953177
-2.874541 -1.584559 0.955924
-2.881961 -1.573963 0.957284
-2.885669 -1.562268 0.955615
-2.891925 -1.551284 0.956031
-2.892339 -1.538686 0.951710
-2.883786 -1.523756 0.940167
-2.880363 -1.510316 0.932823
-2.901070 -1.503072 0.944914
-2.910633 -1.492879 0.948001
-2.919685 -1.482503 0.950657
-2.931423 -1.472707 0.955433
-2.947735 -1.463874 0.963809
-2.953696 -1.452611 0.963924
-2.941237 -1.437366 0.949469
-2.941400 -1.424996 0.945027
-2.946444 -1.413697 0.944431
-2.945065 -1.401147 0.938786
-2.953306 -1.390547 0.940671
-2.984185 -1.384160 0.960166
-2.974956 -1.370265 0.948357
-2.980497 -1.359160 0.948034
-2.985744 -1.348048 0.947457
-2.995343 -1.337698 0.950207
-3.007553 -1.327770 0.954915
-3.012879 -1.316779 0.954287
-3.020387 -1.306179 0.955293
-3.028987 -1.295785 0.957088
-3.037459 -1.285421 0.958735
-3.037709 -1.274037 0.954106
-3.040036 -1.263061 0.951029
-3.040881 -1.252037 0.946814
-3.042005 -1.241197 0.942789
-3.044522 -1.230661 0.939786
-3.072508 -1.222955 0.955757
-3.080740 -1.213159 0.956895
-3.077903 -1.202399 0.949773
-3.087980 -1.193021 0.952197
-3.124702 -1.186037 0.974195
-3.120345 -1.175532 0.965838
-3.137187 -1.166896 0.973013
-3.145537 -1.157677 0.973900
-3.144033 -1.147893 0.967572
-3.139440 -1.138109 0.959002
-3.179625 -1.112943 0.972164
-1.682395 -3.285301 0.952264
-1.693427 -3.289598 0.963009
-1.697966 -3.275113 0.960339
-1.699717 -3.252681 0.951896
-1.702592 -3.233202 0.945508
-1.719621 -3.223659 0.954089
-1.731536 -3.227028 0.964421
-1.733202 -3.203234 0.954735
-1.736389 -3.183312 0.947821
-1.744125 -3.174742 0.949309
-1.752243 -3.166752 0.951229
-1.759968 -3.157429 0.952146
-1.771527 -3.157058 0.959840
-1.774451 -3.135523 0.951464
-1.780759 -3.121990 0.949111
-1.790158 -3.115473 0.952113
-1.800539 -3.110872 0.956604
-1.804520 -3.091420 0.949576
-1.813832 -3.083910 0.951780
-1.822632 -3.075015 0.952897
-1.831785 -3.066684 0.954445
-1.838416 -3.052745 0.951539
-1.846786 -3.042452 0.951483
-1.851034 -3.023449 0.944431
-1.854393 -3.002758 0.935926
-1.868953 -3.004996 0.945853
-1.878469 -2.996735 0.947325
-1.884975 -2.982429 0.943850
-1.892953 -2.971061 0.942732
-1.900171 -2.958239 0.940379
-1.912813 -2.955758 0.946557
-1.924281 -2.950873 0.950774
-1.927957 -2.931478 0.942859
-1.933625 -2.915971 0.938119
-1.946039 -2.912750 0.943709
-1.951111 -2.896366 0.938143
-1.957989 -2.883345 0.935378
-1.974379 -2.886868 0.946788
-1.983939 -2.878449 0.947986
-1.990610 -2.865184 0.944972
-2.000955 -2.858156 0.947359
-2.007250 -2.844476 0.943921
-2.018025 -2.838199 0.946966
-2.023150 -2.822868 0.942003
-2.028730 -2.808456 0.937795
-2.037779 -2.799627 0.938538
-2.050344 -2.796242 0.944186
-2.055144 -2.780973 0.939119
-2.065309 -2.773949 0.941501
-2.078499 -2.771403 0.948003
-2.083583 -2.756887 0.943547
-2.091048 -2.745991 0.942389
-2.106961 -2.747241 0.952521
-2.111701 -2.732537 0.947823
-2.114439 -2.715226 0.940615
-2.125641 -2.709800 0.944575
-2.137725 -2.705529 0.949675
-2.145237 -2.695047 0.948884
-2.151680 -2.683220 0.946786
-2.156619 -2.669526 0.942854
-2.165677 -2.661314 0.944215
-2.177654 -2.656856 0.949269
-2.187183 -2.649230 0.951259
-2.191983 -2.635692 0.947411
-2.197226 -2.622837 0.944199
-2.208282 -2.617199 0.948188
-2.221252 -2.613820 0.954503
-2.227377 -2.602175 0.952505
-2.236164 -2.593753 0.953775
-2.245583 -2.586076 0.955828
-2.253474 -2.576633 0.956081
-2.257844 -2.563214 0.952205
-2.267574 -2.555944 0.954717
-2.270317 -2.540886 0.949063
-2.275334 -2.528482 0.946152
-2.289645 -2.526268 0.954071
-2.287171 -2.505891 0.942608
-2.297780 -2.499675 0.946290
-2.308676 -2.493707 0.950294
-2.312842 -2.480704 0.946658
-2.319833 -2.470697 0.946278
-2.330791 -2.464743 0.950387
-2.340116 -2.457091 0.952661
-2.351102 -2.451059 0.956789
-2.357101 -2.440084 0.955389
-2.360803 -2.426936 0.951503
-2.366254 -2.415559 0.949598
-2.376510 -2.408780 0.952977
-2.379106 -2.394796 0.948039
-2.374525 -2.374303 0.935422
-2.387782 -2.370353 0.942122
-2.401898 -2.367061 0.949705
-2.409223 -2.357581 0.950009
-2.411977 -2.344083 0.945488
-2.406514 -2.323531 0.932360
-2.431602 -2.329535 0.951469
-2.430295 -2.312736 0.942823
-2.439583 -2.305018 0.945307
-2.441668 -2.291282 0.940324
-2.449455 -2.282330 0.941291
-2.462895 -2.277953 0.948080
-2.471911 -2.269913 0.950303
-2.481334 -2.262161 0.952943
-2.487810 -2.252063 0.952588
-2.489704 -2.238436 0.947627
-2.495022 -2.227521 0.946171
-2.495659 -2.213107 0.940056
-2.499215 -2.200986 0.936922
-2.497762 -2.185237 0.928853
-2.523852 -2.189673 0.948130
-2.524452 -2.175452 0.942141
-2.530532 -2.165230 0.941598
-2.541943 -2.158756 0.946288
-2.553738 -2.152468 0.951334
-2.550540 -2.135841 0.941810
-2.552371 -2.122778 0.937237
-2.575067 -2.123706 0.952803
-2.585266 -2.116135 0.956280
-2.582526 -2.100095 0.947387
-2.595296 -2.094158 0.953338
-2.598541 -2.082084 0.950229
-2.597819 -2.067581 0.943413
-2.602080 -2.056267 0.941353
-2.603433 -2.043213 0.936597
-2.614793 -2.036252 0.941239
-2.616726 -2.023616 0.937090
-2.626605 -2.015695 0.940353
-2.625370 -2.001296 0.933342
-2.630979 -1.990907 0.932695
-2.647389 -1.986593 0.941976
-2.651423 -1.975255 0.939894
-2.657977 -1.965322 0.940138
-2.671990 -1.959397 0.947164
-2.701092 -1.961369 0.967804
-2.654916 -1.923531 0.920468
-2.672230 -1.919271 0.930500
-2.706422 -1.923431 0.955585
-2.707977 -1.910783 0.951400
-2.708445 -1.897654 0.946292
-2.705395 -1.882879 0.938116
-2.709281 -1.871555 0.936135
-2.720311 -1.863628 0.940469
-2.725283 -1.852793 0.939475
-2.741214 -1.846986 0.948085
-2.754953 -1.840033 0.954742
-2.759145 -1.828710 0.953078
-2.762873 -1.817191 0.951037
-2.767997 -1.806288 0.950228
-2.775566 -1.796414 0.951542
-2.782089 -1.786063 0.951965
-2.793211 -1.777571 0.956332
-2.796826 -1.765959 0.954286
-2.801865 -1.754922 0.953476
-2.810740 -1.745372 0.955936
-2.817357 -1.734892 0.956485
-2.806714 -1.717883 0.942515
-2.808384 -1.705624 0.938976
-2.815025 -1.695201 0.939630
-2.827018 -1.686649 0.944757
-2.840866 -1.678641 0.951407
-2.852292 -1.669669 0.956021
-2.862919 -1.660330 0.959957
-2.865258 -1.648164 0.957048
-2.863984 -1.634847 0.951197
-2.866491 -1.622795 0.948486
-2.870452 -1.611212 0.946988
-2.885905 -1.603124 0.954871
-2.890248 -1.591575 0.953687
-2.898692 -1.581216 0.955840
-2.902573 -1.569495 0.954297
-2.909664 -1.558671 0.955355
-2.912613 -1.546677 0.953082
-2.896739 -1.529680 0.935747
-2.907241 -1.519799 0.939577
-2.924525 -1.511561 0.948786
-2.938437 -1.502329 0.955263
-2.937173 -1.489313 0.949680
-2.944131 -1.478309 0.950617
-2.961745 -1.469726 0.959934
-2.961396 -1.456980 0.955082
-2.955522 -1.443106 0.945919
-2.952671 -1.430012 0.939156
-2.962536 -1.419637 0.942320
-2.971616 -1.409066 0.944840
-2.989985 -1.400268 0.954522
-3.001282 -1.390014 0.958667
-3.007539 -1.378805 0.958885
-3.000398 -1.365262 0.948786
-3.006701 -1.354194 0.949014
-3.015574 -1.343587 0.951173
-3.019971 -1.332281 0.949880
-3.036537 -1.322914 0.957803
-3.043539 -1.312074 0.958403
-3.051868 -1.301479 0.959966
-3.051583 -1.289751 0.954996
-3.049612 -1.277946 0.948750
-3.045056 -1.265982 0.940565
-3.071712 -1.258012 0.955678
-3.080465 -1.247842 0.957338
-3.095441 -1.238442 0.963561
-3.095513 -1.227475 0.958680
-3.111271 -1.218273 0.965349
-3.123065 -1.208713 0.969019
-3.116795 -1.197558 0.959384
-3.109678 -1.186569 0.949146
-3.120719 -1.177335 0.952151
-3.157364 -1.170195 0.973685
-3.144229 -1.159233 0.959012
-3.149632 -1.140290 0.952600
-3.163640 -1.131762 0.957472
-3.203110 -1.115541 0.975173
-1.685064 -3.287346 0.940328
-1.694646 -3.287322 0.947907
-1.702926 -3.283051 0.952523
-1.706574 -3.265554 0.947696
-1.711152 -3.250353 0.944471
-1.722765 -3.253697 0.954626
-1.731023 -3.247468 0.957906
-1.738678 -3.239191 0.959712
-1.739319 -3.212448 0.947967
-1.746792 -3.203131 0.948948
-1.756321 -3.198606 0.953474
-1.762862 -3.186205 0.952163
-1.768637 -3.171673 0.949227
-1.777471 -3.164331 0.951651
-1.783443 -3.149815 0.948657
-1.790720 -3.138209 0.947823
-1.801732 -3.135040 0.953398
-1.811711 -3.129088 0.956871
-1.817205 -3.112688 0.952305
-1.826068 -3.103749 0.953448
-1.833336 -3.091091 0.951686
-1.840750 -3.078656 0.950056
-1.848781 -3.067451 0.949353
-1.856641 -3.055787 0.948257
-1.863381 -3.041727 0.945224
-1.872782 -3.033132 0.946497
-1.880780 -3.021581 0.945391
-1.888639 -3.009732 0.944009
-1.897094 -2.999051 0.943538
-1.900256 -2.978082 0.934667
-1.907711 -2.965602 0.932630
-1.920147 -2.962584 0.938330
-1.936687 -2.967029 0.950237
-1.945513 -2.956916 0.950153
-1.952136 -2.942825 0.946730
-1.966426 -2.942592 0.954883
-1.965982 -2.916108 0.940962
-1.973234 -2.903511 0.938654
-1.986109 -2.900701 0.944648
-1.998777 -2.897405 0.950273
-2.008667 -2.889336 0.951832
-2.016725 -2.878241 0.950776
-2.024365 -2.866552 0.949181
-2.027054 -2.846986 0.940667
-2.036716 -2.838830 0.942086
-2.043113 -2.825565 0.938992
-2.053345 -2.818403 0.941281
-2.059432 -2.804885 0.937908
-2.063329 -2.788211 0.931654
-2.076929 -2.786280 0.938641
-2.093779 -2.789021 0.949939
-2.101262 -2.777858 0.948659
-2.106504 -2.763563 0.944486
-2.115495 -2.754776 0.945345
-2.121624 -2.742003 0.942509
-2.120700 -2.719569 0.930620
-2.143058 -2.729448 0.948923
-2.149937 -2.717929 0.947233
-2.157522 -2.707457 0.946513
-2.165004 -2.696920 0.945721
-2.170981 -2.684488 0.943099
-2.184725 -2.682211 0.950251
-2.193271 -2.673169 0.950915
-2.205160 -2.668382 0.955741
-2.211452 -2.656545 0.953696
-2.210667 -2.636079 0.943098
-2.215397 -2.622626 0.939348
-2.231179 -2.622613 0.948994
-2.237304 -2.610925 0.947010
-2.242011 -2.597655 0.943403
-2.250430 -2.588821 0.944269
-2.260032 -2.581366 0.946561
-2.274654 -2.579597 0.954743
-2.284060 -2.571823 0.956800
-2.285527 -2.555226 0.949677
-2.296731 -2.549500 0.953884
-2.299200 -2.534242 0.948072
-2.304342 -2.522005 0.945403
-2.310677 -2.511119 0.944149
-2.321388 -2.504871 0.947877
-2.327518 -2.493827 0.946457
-2.335485 -2.484719 0.947135
-2.348943 -2.481176 0.953939
-2.356815 -2.471928 0.954528
-2.363110 -2.461131 0.953407
-2.369590 -2.450559 0.952526
-2.373849 -2.437881 0.949262
-2.381526 -2.428553 0.949764
-2.389814 -2.419810 0.950947
-2.399275 -2.412156 0.953404
-2.392170 -2.389192 0.938152
-2.403992 -2.383801 0.943209
-2.413450 -2.376196 0.945740
-2.422578 -2.368262 0.947922
-2.425706 -2.355017 0.943810
-2.438887 -2.350613 0.950263
-2.445756 -2.340668 0.950114
-2.454572 -2.332392 0.952004
-2.455212 -2.317225 0.945468
-2.456403 -2.302652 0.939577
-2.463030 -2.292658 0.939314
-2.474000 -2.286199 0.943492
-2.489127 -2.283000 0.951868
-2.494488 -2.271922 0.950336
-2.499964 -2.260971 0.948954
-2.514897 -2.257360 0.957063
-2.517368 -2.244091 0.952706
-2.511712 -2.224778 0.940339
-2.520163 -2.216209 0.942032
-2.532008 -2.210113 0.947070
-2.540016 -2.201139 0.948323
-2.549616 -2.193290 0.951138
-2.542147 -2.173282 0.937349
-2.556605 -2.168891 0.944924
-2.573971 -2.166380 0.955260
-2.573530 -2.151513 0.948421
-2.575324 -2.138277 0.943791
-2.587766 -2.132222 0.949366
-2.598122 -2.124697 0.952933
-2.616704 -2.122454 0.964272
-2.618503 -2.109243 0.959720
-2.615168 -2.092856 0.950397
-2.613421 -2.077622 0.942645
-2.618107 -2.066490 0.940963
-2.626062 -2.057375 0.942344
-2.630826 -2.046314 0.940777
-2.633486 -2.034027 0.937298
-2.633447 -2.020214 0.931381
-2.648175 -2.015028 0.939036
-2.652524 -2.003788 0.937185
-2.659760 -1.994198 0.937986
-2.669110 -1.985759 0.940711
-2.675934 -1.975884 0.941152
-2.689766 -1.969775 0.947906
-2.702879 -1.963161 0.953983
-2.705928 -1.951156 0.951047
-2.706780 -1.938053 0.946191
-2.711246 -1.926862 0.944588
-2.715883 -1.915771 0.943162
-2.713949 -1.901436 0.935972
-2.732536 -1.897222 0.946860
-2.739351 -1.887154 0.947389
-2.733526 -1.871075 0.936908
-2.738774 -1.860319 0.936134
-2.750816 -1.852682 0.941265
-2.766477 -1.846582 0.949502
-2.776050 -1.837618 0.952459
-2.773870 -1.823434 0.945330
-2.785926 -1.815491 0.950434
-2.791234 -1.804580 0.949767
-2.796678 -1.793716 0.949234
-2.804830 -1.783953 0.951013
-2.806550 -1.771539 0.947362
-2.812819 -1.760970 0.947578
-2.825455 -1.752862 0.953148
-2.834415 -1.743229 0.955621
-2.835357 -1.730507 0.951406
-2.844587 -1.720899 0.954120
-2.830201 -1.702625 0.937252
-2.843950 -1.694651 0.943751
-2.858220 -1.686730 0.950653
-2.870967 -1.678148 0.956273
-2.876126 -1.666887 0.955657
-2.881230 -1.655590 0.955008
-2.867475 -1.638148 0.939015
-2.873055 -1.627089 0.938824
-2.883919 -1.617654 0.942922
-2.900007 -1.609724 0.951221
-2.907886 -1.599179 0.952872
-2.908663 -1.586502 0.948819
-2.923922 -1.578012 0.956385
-2.938445 -1.569171 0.963326
-2.923436 -1.552105 0.946728
-2.937291 -1.543004 0.953133
-2.927323 -1.527551 0.940650
-2.938098 -1.517569 0.944607
-2.952512 -1.508412 0.951405
-2.958459 -1.497075 0.951516
-2.961867 -1.485121 0.949636
-2.967605 -1.473722 0.949579
-2.972638 -1.462157 0.948966
-2.971750 -1.449301 0.943752
-2.972958 -1.436970 0.940178
-2.986036 -1.427147 0.945772
-2.990658 -1.415548 0.944811
-3.000403 -1.404971 0.947771
-3.015154 -1.395310 0.954527
-3.009705 -1.381867 0.945806
-3.016007 -1.370666 0.946055
-3.027628 -1.360404 0.950314
-3.037008 -1.349744 0.952825
-3.043547 -1.338633 0.953149
-3.052709 -1.327973 0.955413
-3.063024 -1.317506 0.958496
-3.073007 -1.307008 0.961278
-3.075523 -1.295504 0.958436
-3.076707 -1.283938 0.954579
-3.075310 -1.272177 0.948791
-3.085861 -1.262047 0.951833
-3.104401 -1.252904 0.960707
-3.113114 -1.242632 0.962260
-3.118835 -1.232119 0.961567
-3.133315 -1.222622 0.967235
-3.138229 -1.212227 0.965855
-3.131870 -1.200917 0.956247
-3.132863 -1.190500 0.951980
-3.154795 -1.182012 0.962815
-3.161534 -1.172309 0.962603
-3.168466 -1.162751 0.962489
-3.159021 -1.152170 0.950617
-3.159351 -1.142507 0.945750
-3.162047 -1.133179 0.942557
-3.182997 -1.125077 0.952283
-3.209837 -1.117314 0.966074
-1.689264 -3.320674 0.942749
-1.694753 -3.309100 0.942196
-1.710750 -3.326556 0.962078
-1.710924 -3.299190 0.950429
-1.714190 -3.280275 0.944673
-1.719718 -3.267272 0.943078
-1.732994 -3.274600 0.956049
-1.739595 -3.263537 0.955874
-1.742981 -3.243757 0.949369
-1.747486 -3.226721 0.944788
-1.757446 -3.223321 0.950123
-1.767129 -3.218709 0.954604
-1.778730 -3.218352 0.962253
-1.779219 -3.190355 0.949448
-1.784299 -3.173556 0.944850
-1.792494 -3.164032 0.945639
-1.802438 -3.158315 0.949283
-1.814326 -3.156718 0.956058
-1.822320 -3.145790 0.955783
-1.832268 -3.139052 0.958685
-1.839012 -3.124924 0.955917
-1.844347 -3.107645 0.950667
-1.849686 -3.090406 0.945373
-1.857480 -3.078442 0.944114
-1.868785 -3.073774 0.948534
-1.876392 -3.061198 0.946750
-1.882530 -3.045602 0.942537
-1.891706 -3.036201 0.943183
-1.901698 -3.028347 0.945051
-1.911206 -3.019443 0.946071
-1.920873 -3.010782 0.947277
-1.919329 -2.980685 0.931089
-1.931058 -2.976096 0.935509
-1.945375 -2.976174 0.943780
-1.959636 -2.975896 0.951823
-1.968453 -2.965542 0.951590
-1.973578 -2.948641 0.945891
-1.978263 -2.931180 0.939649
-1.985803 -2.918919 0.937697
-1.996496 -2.912173 0.940371
-2.010087 -2.910302 0.947198
-2.021065 -2.903913 0.950225
-2.027320 -2.889703 0.946561
-2.033495 -2.875531 0.942879
-2.042054 -2.865364 0.942620
-2.051929 -2.857359 0.944233
-2.062483 -2.850434 0.946800
-2.069443 -2.837941 0.944479
-2.072324 -2.819344 0.936718
-2.082964 -2.812743 0.939549
-2.095649 -2.809180 0.945122
-2.106580 -2.802945 0.948345
-2.114107 -2.791736 0.947095
-2.119007 -2.776851 0.942480
-2.124201 -2.762569 0.938361
-2.136348 -2.758208 0.943320
-2.156575 -2.764973 0.958624
-2.163332 -2.752960 0.956626
-2.167335 -2.737336 0.951221
-2.170172 -2.720345 0.944468
-2.177381 -2.709356 0.943314
-2.188838 -2.703992 0.947498
-2.194794 -2.691483 0.944890
-2.207511 -2.687706 0.950656
-2.218188 -2.681267 0.953911
-2.223976 -2.668713 0.951248
-2.231931 -2.658936 0.951273
-2.239160 -2.648319 0.950471
-2.247081 -2.638596 0.950546
-2.252471 -2.625908 0.947665
-2.257362 -2.612742 0.944270
-2.263953 -2.601665 0.942944
-2.272566 -2.592975 0.944026
-2.284324 -2.587864 0.948781
-2.293960 -2.580302 0.951076
-2.299161 -2.567809 0.948301
-2.303401 -2.554356 0.944494
-2.311464 -2.545158 0.945098
-2.319327 -2.535763 0.945505
-2.331893 -2.531364 0.951219
-2.342662 -2.524989 0.954900
-2.344441 -2.509268 0.948589
-2.353800 -2.501453 0.950750
-2.363134 -2.493592 0.952894
-2.371629 -2.484872 0.954126
-2.374770 -2.470860 0.949544
-2.379527 -2.458544 0.946787
-2.388953 -2.450811 0.949120
-2.397660 -2.442363 0.950685
-2.399992 -2.427891 0.945450
-2.399837 -2.411225 0.937644
-2.413880 -2.407815 0.944966
-2.418581 -2.395766 0.942400
-2.423676 -2.384138 0.940295
-2.434491 -2.377657 0.944204
-2.451581 -2.376632 0.954623
-2.451917 -2.360851 0.947634
-2.460206 -2.352051 0.948922
-2.474804 -2.348597 0.956691
-2.476851 -2.334471 0.951597
-2.471888 -2.314638 0.939441
-2.477080 -2.303373 0.937691
-2.489587 -2.298075 0.943346
-2.499600 -2.290683 0.946470
-2.503996 -2.278796 0.943973
-2.506502 -2.265487 0.939635
-2.517577 -2.258885 0.943843
-2.531008 -2.254008 0.950359
-2.530833 -2.238758 0.943467
-2.538173 -2.229238 0.944005
-2.550709 -2.223537 0.949620
-2.561064 -2.216153 0.953090
-2.561115 -2.201308 0.946586
-2.563086 -2.187947 0.941998
-2.566213 -2.175481 0.938573
-2.577798 -2.168932 0.943272
-2.587988 -2.161348 0.946622
-2.600399 -2.155205 0.952069
-2.602096 -2.141823 0.947371
-2.607281 -2.130820 0.946006
-2.619448 -2.124379 0.951211
-2.624037 -2.112982 0.949315
-2.625432 -2.099593 0.944478
-2.629239 -2.087795 0.941929
-2.639508 -2.080028 0.945378
-2.648051 -2.071147 0.947231
-2.654151 -2.060760 0.946845
-2.662123 -2.051487 0.948186
-2.656327 -2.034120 0.937007
-2.660263 -2.022564 0.934744
-2.668087 -2.013258 0.936025
-2.676033 -2.003993 0.937421
-2.681070 -1.993082 0.936212
-2.691457 -1.985112 0.939808
-2.698148 -1.975078 0.940103
-2.708334 -1.966891 0.943510
-2.716836 -1.957753 0.945420
-2.720550 -1.946093 0.943110
-2.721766 -1.933185 0.938636
-2.720901 -1.919294 0.932386
-2.739445 -1.915117 0.943126
-2.751709 -1.907681 0.948348
-2.755229 -1.895934 0.945970
-2.756662 -1.883223 0.941820
-2.756164 -1.869662 0.936049
-2.769310 -1.862458 0.942038
-2.781695 -1.854795 0.947352
-2.787916 -1.844277 0.947391
-2.798744 -1.835764 0.951358
-2.811742 -1.828106 0.957152
-2.811373 -1.814647 0.951636
-2.814726 -1.802814 0.949300
-2.820865 -1.792145 0.949333
-2.823703 -1.780118 0.946616
-2.827808 -1.768615 0.944986
-2.837728 -1.759393 0.948214
-2.851063 -1.751410 0.954266
-2.861387 -1.742166 0.957806
-2.860259 -1.728583 0.951903
-2.859878 -1.715343 0.946660
-2.861217 -1.702776 0.942871
-2.878207 -1.695751 0.951894
-2.882940 -1.684321 0.950896
-2.883848 -1.671583 0.946812
-2.887557 -1.659813 0.945029
-2.886360 -1.646445 0.939307
-2.881780 -1.632058 0.930907
-2.904918 -1.626457 0.944800
-2.917585 -1.617394 0.950245
-2.923506 -1.606189 0.950286
-2.928032 -1.594547 0.949225
-2.931579 -1.582612 0.947399
-2.941365 -1.572436 0.950522
-2.955430 -1.563361 0.957007
-2.948905 -1.548621 0.947267
-2.952176 -1.536585 0.945265
-2.954987 -1.524440 0.942916
-2.963067 -1.513630 0.944687
-2.978422 -1.504551 0.952106
-2.977585 -1.491483 0.946922
-2.992759 -1.482196 0.954145
-2.997450 -1.470417 0.953237
-2.994293 -1.456917 0.946290
-2.998134 -1.445018 0.944739
-3.003371 -1.433432 0.944253
-3.007343 -1.421601 0.942790
-3.017909 -1.411092 0.946336
-3.019611 -1.398854 0.943121
-3.019398 -1.386330 0.938456
-3.030858 -1.375983 0.942600
-3.052178 -1.367305 0.954113
-3.060185 -1.356261 0.955551
-3.065423 -1.344787 0.954881
-3.078832 -1.334643 0.960279
-3.081057 -1.322790 0.957297
-3.108260 -1.314658 0.972823
-3.106365 -1.302305 0.966705
-3.117840 -1.291907 0.970444
-3.121619 -1.280542 0.968463
-3.093951 -1.265402 0.943398
-3.109144 -1.255782 0.949770
-3.123818 -1.246110 0.955685
-3.142333 -1.236873 0.964313
-3.147688 -1.226265 0.963312
-3.145358 -1.215023 0.956719
-3.147970 -1.204449 0.953683
-3.166874 -1.195485 0.962321
-3.182485 -1.186256 0.968504
-3.176054 -1.175310 0.958876
-3.198035 -1.166761 0.969479
-3.202418 -1.156959 0.967493
-3.183853 -1.145779 0.949251
-3.189387 -1.136461 0.948071
-3.220034 -1.119338 0.959337
-3.241426 -1.111189 0.969102
-3.234603 -1.092840 0.953922
-1.695894 -3.361268 0.949811
-1.702897 -3.353884 0.952245
-1.713183 -3.355282 0.960805
-1.717994 -3.340699 0.958282
-1.724687 -3.330985 0.959147
-1.720512 -3.291232 0.938839
-1.725147 -3.275500 0.935346
-1.737003 -3.278702 0.945285
-1.745079 -3.271255 0.947695
-1.753452 -3.264129 0.950347
-1.756547 -3.243047 0.942939
-1.769201 -3.246026 0.952897
-1.781819 -3.248224 0.962367
-1.787978 -3.233875 0.959795
-1.791376 -3.212611 0.952091
-1.798532 -3.200333 0.950939
-1.807582 -3.192304 0.952914
-1.816076 -3.182654 0.953677
-1.823787 -3.170937 0.952875
-1.835926 -3.169080 0.959479
-1.842557 -3.154456 0.956452
-1.849888 -3.141305 0.954494
-1.856420 -3.126321 0.951092
-1.863998 -3.113560 0.949342
