ply
format ascii 1.0
comment ---
element vertex 1594
property float x
property float y
property float z
element face 0
property list uchar uint vertex_indices
end_header
-4.567372 -5.311433 -0.756143
-4.563870 -5.290049 -0.749443
-4.553452 -5.263838 -0.740763
-4.572148 -5.259239 -0.740829
-4.589838 -5.253876 -0.740594
-1.826112 -6.094044 -0.744846
-1.835903 -6.114956 -0.751869
-1.847939 -6.112206 -0.752285
-1.860297 -6.107198 -0.752094
-1.871691 -6.117609 -0.756282
-1.883682 -6.122759 -0.759021
-1.896540 -6.116900 -0.758672
-1.909866 -6.104138 -0.756383
-1.922489 -6.105028 -0.757985
-1.935678 -6.096404 -0.756899
-1.948590 -6.094728 -0.757805
-1.961514 -6.094697 -0.759195
-1.974445 -6.096826 -0.761218
-1.987598 -6.094126 -0.761871
-2.000891 -6.086622 -0.761149
-2.014063 -6.084553 -0.761994
-2.027163 -6.089748 -0.764939
-2.040352 -6.094487 -0.767764
-2.053631 -6.093313 -0.768885
-2.066914 -6.089979 -0.769381
-2.080221 -6.092550 -0.771591
-2.093588 -6.097112 -0.774385
-2.106900 -6.095503 -0.775382
-2.119833 -6.077514 -0.771588
-2.133102 -6.078482 -0.773324
-2.146290 -6.076739 -0.774264
-2.159550 -6.077575 -0.775957
-2.175107 -6.132814 -0.793673
-2.259172 -6.381812 -0.874996
-2.384337 -6.457147 -0.910185
-2.425419 -6.425486 -0.905298
-2.444546 -6.459542 -0.917179
-2.495203 -6.499743 -0.934100
-2.524080 -6.489600 -0.934120
-2.541614 -6.504744 -0.940315
-2.748096 -6.398766 -0.930152
-2.907673 -6.316197 -0.921576
-3.001176 -6.369678 -0.946155
-3.067157 -6.158779 -0.890766
-3.074432 -6.137832 -0.885325
-3.103147 -6.095271 -0.875579
-3.068434 -5.969826 -0.835601
-3.080917 -5.965171 -0.835412
-3.091177 -5.955044 -0.833412
-3.107427 -5.959540 -0.836254
-3.120909 -5.957162 -0.836823
-3.137891 -5.962938 -0.840106
-3.149152 -5.955128 -0.838874
-3.161932 -5.950856 -0.838820
-3.175234 -5.947733 -0.839149
-3.188854 -5.945258 -0.839698
-3.203530 -5.945025 -0.841001
-3.223140 -5.955388 -0.845868
-3.234374 -5.947356 -0.844563
-3.246268 -5.940781 -0.843746
-3.260028 -5.938135 -0.844253
-3.273503 -5.934822 -0.844537
-3.288068 -5.933673 -0.845556
-3.302131 -5.931399 -0.846198
-3.318566 -5.933764 -0.848420
-3.335226 -5.936374 -0.850734
-3.354240 -5.943359 -0.854547
-3.363375 -5.931048 -0.851786
-3.378403 -5.930079 -0.852895
-3.393992 -5.930047 -0.854331
-3.406893 -5.924885 -0.854012
-3.419024 -5.918291 -0.853201
-3.432086 -5.913394 -0.852973
-3.452868 -5.922308 -0.857511
-3.463064 -5.912121 -0.855463
-3.474523 -5.904236 -0.854207
-3.492193 -5.907147 -0.856693
-3.510287 -5.910582 -0.859370
-3.524289 -5.906868 -0.859569
-3.537393 -5.901591 -0.859226
-3.554533 -5.902977 -0.861211
-3.574326 -5.908542 -0.864665
-3.595178 -5.915565 -0.868643
-3.607434 -5.908505 -0.867693
-3.618731 -5.899932 -0.866210
-3.636311 -5.901265 -0.868212
-3.643185 -5.885792 -0.864293
-3.662840 -5.890152 -0.867372
-3.680802 -5.891703 -0.869469
-3.696462 -5.889611 -0.870282
-3.723925 -5.905002 -0.877314
-3.733657 -5.893787 -0.874899
-3.740862 -5.878968 -0.871192
-3.754432 -5.873498 -0.870814
-3.779435 -5.884338 -0.876275
-3.805604 -5.896459 -0.882217
-3.822914 -5.895774 -0.883582
-3.842870 -5.898620 -0.886224
-3.872418 -5.914425 -0.893551
-3.909501 -5.940000 -0.904437
-3.977256 -5.955401 -0.915071
-3.831766 -5.717773 -0.831848
-3.818014 -5.677749 -0.818789
-3.839848 -5.683478 -0.822430
-4.276544 -6.027512 -0.962961
-4.241289 -5.961664 -0.940318
-4.188382 -5.876553 -0.910403
-4.191998 -5.857315 -0.904999
-4.202932 -5.846512 -0.902736
-4.216756 -5.838954 -0.901686
-4.233266 -5.834317 -0.901735
-4.250796 -5.830688 -0.902168
-4.266252 -5.824668 -0.901704
-4.288230 -5.825581 -0.903866
-4.307488 -5.823365 -0.904856
-4.323861 -5.817934 -0.904634
-4.337447 -5.809472 -0.903263
-4.354029 -5.804057 -0.903053
-4.378929 -5.807063 -0.906067
-4.401353 -5.807269 -0.908027
-4.420148 -5.803587 -0.908510
-4.439379 -5.800178 -0.909106
-4.458771 -5.796757 -0.909707
-4.478685 -5.793674 -0.910449
-4.500791 -5.792530 -0.911951
-4.517319 -5.785806 -0.911304
-4.531969 -5.777174 -0.909921
-4.556194 -5.777473 -0.912018
-4.574784 -5.772255 -0.911980
-4.582903 -5.757203 -0.908104
-4.588733 -5.740085 -0.903410
-4.595311 -5.723711 -0.898998
-4.595308 -5.701482 -0.892270
-4.595488 -5.679582 -0.885652
-4.591405 -5.654091 -0.877594
-4.588284 -5.629667 -0.869933
-4.586526 -5.606630 -0.862799
-4.586578 -5.585329 -0.856333
-4.587329 -5.564774 -0.850148
-4.585983 -5.542606 -0.843300
-4.576159 -5.513587 -0.833682
-4.580478 -5.496502 -0.828829
-4.587012 -5.481307 -0.824727
-4.592701 -5.465488 -0.820365
-4.597759 -5.449239 -0.815820
-4.598278 -5.429501 -0.809847
-4.585345 -5.399419 -0.799646
-4.584682 -5.379207 -0.793434
-4.579453 -5.355697 -0.785853
-4.570298 -5.329480 -0.777134
-4.574662 -5.313745 -0.772694
-4.567922 -5.289902 -0.764897
-4.561516 -5.266620 -0.757301
-4.566862 -5.252213 -0.753356
-4.579463 -5.243191 -0.751638
-1.822439 -6.117288 -0.764250
-1.835307 -6.103096 -0.761374
-1.847147 -6.102509 -0.762412
-1.859092 -6.102795 -0.763731
-1.870871 -6.107812 -0.766437
-1.882719 -6.114816 -0.769748
-1.895411 -6.111532 -0.770126
-1.908740 -6.098878 -0.767820
-1.921527 -6.096651 -0.768538
-1.934346 -6.095590 -0.769610
-1.947485 -6.089131 -0.769133
-1.960328 -6.091130 -0.771123
-1.973120 -6.097682 -0.774454
-1.986406 -6.091217 -0.774007
-1.999717 -6.083410 -0.773170
-2.012909 -6.080625 -0.773803
-2.025950 -6.090301 -0.778096
-2.039186 -6.091941 -0.780043
-2.052473 -6.090675 -0.781139
-2.065766 -6.088818 -0.782063
-2.079079 -6.090393 -0.784000
-2.092412 -6.091547 -0.785815
-2.105576 -6.081686 -0.784362
-2.118826 -6.080200 -0.785387
-2.132000 -6.076479 -0.785743
-2.145308 -6.078286 -0.787741
-2.158921 -6.088030 -0.792112
-2.172893 -6.104222 -0.798420
-2.340131 -6.475989 -0.926213
-2.428615 -6.458788 -0.930536
-2.580558 -6.468563 -0.949224
-2.598963 -6.487132 -0.956601
-2.614522 -6.488843 -0.958699
-2.658593 -6.559543 -0.984103
-2.695030 -6.434191 -0.950698
-2.695979 -6.368384 -0.931312
-2.786881 -6.435871 -0.960399
-2.827039 -6.412153 -0.957359
-2.980131 -6.352825 -0.954805
-3.060163 -6.139371 -0.899169
-3.101269 -6.089827 -0.888405
-3.074795 -5.985217 -0.854755
-3.085926 -5.976923 -0.853359
-3.097723 -5.970347 -0.852537
-3.106639 -5.956833 -0.849374
-3.121548 -5.957838 -0.851103
-3.135584 -5.956615 -0.852085
-3.149738 -5.955549 -0.853124
-3.161939 -5.949892 -0.852609
-3.175436 -5.947167 -0.853091
-3.188686 -5.943816 -0.853361
-3.204178 -5.945346 -0.855297
-3.219770 -5.946908 -0.857252
-3.235453 -5.948480 -0.859217
-3.246736 -5.940545 -0.857932
-3.260145 -5.937111 -0.858189
-3.274664 -5.935915 -0.859217
-3.290467 -5.937226 -0.861113
-3.305102 -5.936008 -0.862144
-3.318581 -5.932373 -0.862345
-3.338703 -5.941756 -0.867053
-3.352634 -5.938736 -0.867479
-3.366309 -5.935155 -0.867712
-3.380715 -5.932904 -0.868410
-3.395545 -5.931360 -0.869358
-3.407664 -5.924683 -0.868518
-3.418287 -5.915278 -0.866723
-3.433825 -5.914853 -0.868069
-3.449169 -5.913950 -0.869254
-3.462818 -5.909928 -0.869347
-3.479670 -5.911463 -0.871399
-3.501151 -5.920837 -0.876225
-3.513310 -5.913905 -0.875307
-3.530337 -5.915226 -0.877309
-3.545204 -5.912760 -0.877977
-3.556153 -5.903719 -0.876312
-3.578176 -5.912873 -0.881118
-3.590003 -5.905169 -0.879934
-3.601196 -5.896470 -0.878391
-3.614601 -5.891325 -0.878116
-3.629138 -5.887921 -0.878466
-3.646487 -5.888814 -0.880361
-3.666522 -5.893672 -0.883691
-3.678951 -5.886723 -0.882780
-3.706480 -5.902486 -0.890066
-3.722710 -5.900960 -0.891128
-3.732342 -5.889599 -0.888633
-3.744155 -5.881504 -0.887316
-3.771813 -5.896293 -0.894317
-3.790785 -5.898224 -0.896661
-3.804842 -5.893019 -0.896412
-3.819628 -5.888787 -0.896521
-3.836278 -5.887071 -0.897553
-3.860549 -5.895688 -0.902383
-3.882591 -5.900951 -0.906000
-3.819583 -5.699627 -0.839857
-3.821573 -5.679914 -0.834127
-3.841759 -5.683485 -0.837049
-4.285390 -6.034891 -0.983072
-4.224541 -5.939281 -0.948776
-4.182195 -5.866574 -0.923047
-4.190917 -5.853217 -0.919804
-4.205368 -5.846383 -0.919040
-4.219770 -5.839429 -0.918232
-4.236501 -5.834986 -0.918387
-4.252311 -5.829419 -0.918116
-4.270696 -5.826548 -0.918885
-4.289350 -5.823816 -0.919716
-4.315786 -5.829214 -0.923695
-4.329939 -5.821338 -0.922562
-4.339787 -5.808898 -0.919661
-4.358727 -5.805884 -0.920415
-4.381771 -5.806912 -0.922753
-4.401683 -5.804517 -0.923772
-4.421024 -5.801362 -0.924505
-4.441193 -5.798860 -0.925505
-4.458471 -5.793315 -0.925323
-4.474264 -5.786186 -0.924524
-4.492885 -5.781687 -0.924768
-4.518775 -5.783996 -0.927711
-4.538652 -5.780303 -0.928299
-4.568831 -5.786115 -0.932671
-4.578509 -5.772462 -0.929331
-4.581138 -5.752309 -0.923395
-4.588539 -5.736639 -0.919234
-4.597497 -5.722417 -0.915644
-4.602230 -5.704420 -0.910534
-4.599949 -5.680281 -0.902941
-4.595566 -5.654496 -0.894661
-4.588924 -5.626983 -0.885655
-4.587168 -5.603950 -0.878433
-4.587512 -5.582896 -0.871993
-4.586833 -5.561129 -0.865243
-4.583113 -5.536986 -0.857504
-4.576823 -5.510933 -0.848959
-4.574888 -5.488712 -0.841956
-4.582941 -5.474790 -0.838342
-4.588900 -5.459215 -0.834042
-4.596774 -5.445233 -0.830392
-4.587715 -5.417957 -0.821229
-4.584728 -5.395732 -0.814129
-4.580119 -5.372480 -0.806578
-4.576204 -5.350013 -0.799327
-4.581281 -5.334601 -0.795003
-4.585921 -5.318982 -0.790580
-4.579455 -5.295264 -0.782736
-4.551702 -5.256226 -0.768397
-4.564785 -5.247503 -0.766815
-4.577744 -5.238733 -0.765214
-1.820554 -6.120072 -0.777976
-1.833582 -6.104548 -0.774669
-1.845775 -6.099998 -0.774573
-1.857470 -6.103780 -0.776931
-1.868945 -6.113434 -0.781035
-1.881190 -6.115225 -0.782875
-1.894091 -6.109054 -0.782409
-1.907275 -6.099289 -0.780904
-1.919964 -6.099446 -0.782326
-1.932519 -6.104694 -0.785267
-1.945839 -6.095682 -0.784023
-1.959011 -6.090538 -0.783927
-1.971957 -6.092963 -0.786080
-1.985024 -6.094281 -0.787919
-1.998411 -6.085028 -0.786625
-2.011375 -6.096147 -0.791397
-2.024658 -6.094934 -0.792507
-2.037982 -6.091205 -0.792870
-2.051297 -6.086999 -0.793089
-2.064593 -6.085535 -0.794128
-2.077913 -6.087844 -0.796301
-2.091212 -6.085600 -0.797106
-2.104381 -6.076433 -0.795820
-2.117538 -6.070967 -0.795641
-2.130936 -6.076754 -0.798861
-2.144502 -6.086176 -0.803189
-2.157927 -6.089315 -0.805614
-2.171575 -6.097279 -0.809508
-2.341151 -6.497983 -0.948197
-2.442802 -6.459111 -0.947418
-2.572116 -6.513162 -0.977257
-2.636784 -6.529880 -0.988996
-2.694041 -6.361690 -0.944297
-2.735616 -6.414176 -0.964333
-2.752370 -6.421009 -0.968094
-2.884449 -6.342441 -0.957756
-2.919896 -6.359064 -0.966313
-3.024681 -6.345480 -0.972648
-3.067832 -6.159763 -0.920869
-3.112219 -6.237891 -0.948830
-3.121120 -6.220091 -0.944333
-3.141318 -6.231966 -0.949907
-3.073615 -5.981579 -0.867636
-3.085397 -5.974900 -0.866776
-3.096355 -5.966239 -0.865236
-3.108782 -5.961216 -0.864938
-3.121240 -5.956257 -0.864661
-3.135110 -5.954606 -0.865522
-3.149563 -5.954205 -0.866817
-3.164073 -5.953797 -0.868114
-3.176714 -5.949031 -0.867910
-3.189789 -5.945210 -0.868035
-3.203190 -5.942060 -0.868392
-3.218947 -5.943965 -0.870508
-3.233950 -5.944061 -0.872002
-3.247975 -5.941937 -0.872729
-3.261283 -5.938221 -0.872904
-3.276078 -5.937526 -0.874137
-3.291056 -5.937078 -0.875462
-3.306715 -5.937872 -0.877228
-3.322296 -5.938346 -0.878888
-3.337187 -5.937309 -0.880025
-3.351021 -5.934101 -0.880400
-3.365419 -5.931911 -0.881139
-3.379431 -5.928897 -0.881589
-3.392386 -5.923831 -0.881315
-3.405030 -5.918167 -0.880830
-3.418979 -5.914880 -0.881189
-3.434499 -5.914375 -0.882542
-3.448492 -5.911007 -0.882881
-3.463797 -5.909898 -0.884028
-3.485185 -5.919315 -0.888951
-3.502809 -5.921869 -0.891430
-3.518137 -5.920298 -0.892438
-3.531525 -5.915339 -0.892232
-3.545002 -5.910496 -0.892068
-3.563062 -5.913203 -0.894632
-3.575764 -5.906939 -0.893961
-3.585211 -5.895397 -0.891377
-3.599500 -5.891719 -0.891640
-3.615441 -5.890595 -0.892836
-3.632396 -5.890942 -0.894574
-3.651353 -5.894245 -0.897399
-3.663057 -5.886204 -0.896087
-3.692647 -5.905348 -0.904733
-3.705029 -5.898090 -0.903721
-3.718603 -5.892611 -0.903362
-3.731761 -5.886484 -0.902764
-3.752227 -5.890982 -0.906089
-3.772253 -5.894607 -0.909105
-3.790453 -5.895401 -0.911085
-3.805675 -5.891823 -0.911453
-3.817317 -5.883161 -0.909933
-3.830456 -5.876593 -0.909190
-3.848059 -5.876119 -0.910723
-3.813044 -5.688784 -0.850443
-3.822699 -5.678947 -0.848361
-3.856443 -5.699633 -0.857841
-4.252229 -5.993044 -0.984396
-4.232686 -5.945788 -0.968141
-4.171067 -5.850917 -0.933424
-4.186576 -5.845394 -0.933173
-4.205117 -5.843200 -0.934219
-4.221812 -5.838791 -0.934413
-4.238523 -5.834287 -0.934576
-4.255142 -5.829566 -0.934661
-4.272978 -5.826049 -0.935223
-4.297585 -5.829668 -0.938591
-4.317493 -5.828005 -0.939905
-4.331836 -5.820298 -0.938851
-4.345644 -5.811962 -0.937551
-4.362196 -5.806402 -0.937350
-4.381505 -5.803547 -0.938228
-4.400560 -5.800262 -0.938946
-4.416955 -5.794139 -0.938546
-4.440817 -5.795329 -0.941069
-4.459687 -5.791339 -0.941541
-4.475759 -5.784455 -0.940865
-4.493204 -5.778787 -0.940683
-4.519674 -5.781620 -0.943931
-4.545567 -5.783602 -0.946860
-4.573027 -5.786763 -0.950288
-4.582869 -5.773219 -0.946976
-4.587321 -5.754707 -0.941644
-4.594666 -5.738928 -0.937410
-4.605194 -5.726064 -0.934357
-4.603371 -5.702132 -0.926776
-4.598608 -5.675793 -0.918185
-4.594698 -5.650445 -0.909973
-4.591079 -5.625579 -0.901933
-4.590147 -5.603244 -0.894911
-4.589083 -5.580969 -0.887893
-4.586981 -5.557993 -0.880563
-4.581493 -5.532381 -0.872114
-4.573726 -5.505132 -0.862953
-4.569068 -5.480713 -0.854943
-4.572744 -5.463282 -0.849833
-4.581569 -5.450084 -0.846489
-4.582467 -5.430611 -0.840498
-4.582630 -5.410714 -0.834311
-4.581593 -5.390051 -0.827779
-4.574099 -5.364606 -0.819196
-4.572528 -5.343980 -0.812630
-4.577945 -5.328845 -0.808384
-4.584397 -5.314599 -0.804508
-4.536376 -5.260133 -0.783358
-4.569560 -5.266110 -0.788117
-4.573222 -5.250399 -0.783550
-4.582543 -5.238933 -0.780803
-1.821020 -6.096541 -0.784004
-1.831788 -6.106648 -0.788205
-1.844239 -6.099378 -0.787304
-1.856352 -6.097968 -0.788161
-1.867404 -6.113399 -0.794043
-1.879444 -6.118579 -0.796916
-1.891956 -6.119317 -0.798496
-1.905019 -6.112977 -0.797986
-1.917656 -6.115775 -0.800221
-1.930654 -6.113953 -0.801093
-1.943768 -6.111339 -0.801741
-1.957652 -6.090465 -0.796914
-1.970370 -6.100235 -0.801301
-1.983613 -6.097474 -0.801931
-1.996797 -6.098403 -0.803682
-2.010078 -6.097177 -0.804788
-2.023390 -6.095823 -0.805861
-2.036763 -6.089623 -0.805464
-2.050109 -6.081271 -0.804409
-2.063399 -6.082679 -0.806323
-2.076735 -6.087157 -0.809177
-2.090011 -6.081220 -0.808850
-2.103214 -6.074162 -0.808172
-2.116409 -6.070081 -0.808400
-2.129759 -6.073580 -0.810954
-2.143263 -6.081087 -0.814745
-2.157018 -6.093652 -0.820104
-2.170861 -6.105468 -0.825242
-2.291643 -6.462855 -0.947507
-2.476133 -6.489481 -0.975593
-2.488825 -6.471639 -0.971503
-2.536259 -6.484848 -0.980579
-2.554435 -6.503312 -0.988142
-2.642809 -6.483319 -0.991337
-2.664974 -6.366904 -0.958076
-2.727589 -6.448635 -0.989567
-2.748945 -6.408119 -0.979388
-2.852160 -6.393083 -0.985405
-2.865139 -6.328560 -0.966983
-2.971602 -6.427882 -1.008243
-2.989430 -6.433984 -1.011923
-3.026203 -6.350130 -0.989960
-3.070655 -6.208784 -0.951127
-3.083224 -6.201109 -0.950040
-3.112812 -6.118089 -0.927557
-3.076982 -5.989413 -0.884496
-3.082742 -5.967596 -0.878382
-3.096594 -5.966069 -0.879303
-3.109326 -5.961731 -0.879249
-3.121892 -5.956964 -0.879046
-3.136002 -5.955812 -0.880105
-3.153798 -5.963092 -0.884120
-3.167790 -5.961324 -0.884978
-3.178115 -5.951169 -0.882894
-3.189612 -5.943749 -0.881766
-3.204380 -5.943570 -0.883187
-3.219206 -5.943375 -0.884608
-3.233269 -5.941405 -0.885408
-3.248035 -5.940829 -0.886705
-3.262028 -5.938504 -0.887387
-3.277629 -5.939414 -0.889222
-3.293785 -5.941288 -0.891408
-3.308157 -5.939382 -0.892255
-3.321939 -5.936203 -0.892652
-3.335593 -5.932708 -0.892938
-3.349658 -5.929951 -0.893491
-3.365038 -5.929641 -0.894926
-3.379037 -5.926576 -0.895377
-3.389123 -5.916111 -0.893166
-3.403700 -5.914065 -0.893985
-3.419686 -5.914505 -0.895709
-3.434510 -5.912691 -0.896623
-3.447424 -5.907361 -0.896267
-3.466766 -5.913378 -0.900035
-3.484679 -5.916622 -0.902808
-3.499805 -5.914833 -0.903757
-3.517422 -5.917201 -0.906230
-3.528331 -5.908036 -0.904494
-3.543650 -5.906305 -0.905477
-3.559809 -5.905858 -0.906938
-3.574173 -5.902346 -0.907279
-3.589901 -5.900973 -0.908411
-3.605810 -5.899776 -0.909614
-3.623106 -5.900660 -0.911592
-3.636668 -5.895535 -0.911354
-3.653216 -5.895000 -0.912821
-3.671930 -5.897656 -0.915481
-3.697597 -5.910658 -0.922009
-3.707407 -5.899439 -0.919522
-3.719245 -5.891318 -0.918186
-3.738090 -5.893521 -0.920715
-3.752652 -5.889301 -0.920845
-3.766426 -5.883882 -0.920528
-3.787627 -5.889012 -0.924186
-3.803888 -5.886918 -0.925133
-3.818305 -5.882139 -0.925071
-3.827286 -5.869787 -0.922143
-3.850322 -5.876767 -0.926545
-3.926997 -5.956140 -0.958500
-3.886307 -5.804234 -0.907677
-3.826992 -5.704360 -0.871087
-3.829698 -5.685462 -0.865514
-3.850868 -5.690119 -0.869004
-4.228329 -5.986697 -0.997110
-4.212657 -5.919623 -0.974836
-4.170315 -5.847174 -0.948336
-4.181831 -5.837105 -0.946315
-4.204642 -5.839744 -0.949309
-4.223414 -5.837636 -0.950444
-4.239290 -5.832173 -0.950259
-4.255633 -5.827124 -0.950243
-4.275923 -5.826241 -0.951893
-4.297285 -5.826315 -0.953939
-4.314848 -5.822144 -0.954303
-4.331426 -5.816801 -0.954206
-4.348120 -5.811463 -0.954118
-4.372027 -5.813454 -0.956987
-4.388919 -5.808008 -0.956877
-4.402853 -5.799444 -0.955515
-4.426595 -5.800652 -0.958114
-4.446648 -5.797937 -0.959142
-4.469763 -5.798051 -0.961334
-4.484451 -5.789707 -0.960096
-4.500002 -5.782110 -0.959169
-4.519301 -5.777995 -0.959674
-4.546424 -5.781116 -0.963163
-4.564533 -5.775468 -0.963071
-4.579996 -5.767213 -0.961915
-4.592705 -5.756322 -0.959675
-4.604409 -5.744461 -0.957035
-4.606276 -5.723689 -0.950693
-4.597743 -5.693761 -0.940521
-4.594857 -5.669142 -0.932529
-4.592326 -5.645045 -0.924730
-4.591904 -5.622982 -0.917759
-4.589379 -5.599276 -0.910078
-4.590785 -5.579115 -0.903865
-4.587269 -5.554940 -0.895940
-4.583367 -5.530659 -0.887943
-4.576345 -5.504023 -0.878919
-4.568786 -5.477219 -0.869792
-4.571852 -5.459295 -0.864423
-4.579198 -5.444911 -0.860556
-4.584269 -5.428767 -0.855927
-4.585018 -5.409317 -0.849864
-4.582469 -5.387464 -0.842744
-4.574722 -5.361827 -0.833961
-4.562609 -5.333167 -0.823831
-4.567110 -5.317410 -0.819272
-4.568273 -5.299288 -0.813667
-4.573747 -5.284537 -0.809517
-4.575427 -5.267143 -0.804193
-4.573217 -5.247129 -0.797694
-4.583828 -5.236573 -0.795341
-1.814466 -6.150771 -0.813152
-1.829334 -6.116224 -0.804042
-1.842050 -6.106586 -0.802419
-1.854360 -6.103357 -0.802744
-1.866466 -6.104823 -0.804508
-1.878218 -6.113972 -0.808619
-1.890133 -6.124169 -0.813080
-1.902892 -6.123881 -0.814392
-1.916015 -6.119038 -0.814339
-1.929153 -6.115172 -0.814596
-1.942609 -6.105485 -0.813089
-1.955616 -6.107053 -0.815022
-1.968994 -6.100494 -0.814482
-1.982121 -6.102507 -0.816572
-1.995440 -6.099767 -0.817214
-2.008787 -6.096674 -0.817751
-2.022101 -6.096426 -0.819167
-2.035513 -6.088923 -0.818348
-2.048872 -6.082274 -0.817787
-2.062184 -6.080497 -0.818731
-2.075510 -6.082101 -0.820723
-2.088852 -6.082850 -0.822452
-2.102081 -6.075534 -0.821670
-2.115391 -6.075710 -0.823216
-2.128787 -6.079279 -0.825821
-2.142013 -6.076253 -0.826363
-2.155580 -6.083869 -0.830239
-2.169721 -6.103918 -0.838028
-2.240061 -6.379782 -0.931316
-2.298580 -6.568862 -0.996376
-2.374493 -6.546259 -0.997714
-2.410016 -6.451260 -0.972142
-2.432928 -6.516802 -0.994953
-2.546022 -6.455572 -0.988167
-2.628072 -6.489988 -1.007605
-2.655987 -6.475422 -1.006048
-2.760767 -6.395638 -0.992321
-2.787393 -6.443088 -1.009856
-2.815197 -6.430387 -1.008819
-2.924332 -6.429459 -1.019901
-2.932255 -6.349761 -0.995939
-2.978268 -6.347711 -1.000065
-2.996547 -6.355941 -1.004515
-3.027593 -6.403019 -1.022369
-3.067124 -6.198701 -0.962855
-3.107973 -6.105079 -0.937900
-3.075113 -5.984042 -0.896840
-3.087018 -5.977518 -0.896028
-3.097599 -5.967781 -0.894079
-3.109875 -5.962257 -0.893616
-3.123121 -5.959047 -0.893971
-3.139554 -5.963269 -0.896968
-3.155919 -5.967069 -0.899825
-3.168770 -5.962578 -0.899739
-3.179286 -5.952786 -0.897763
-3.190233 -5.944062 -0.896163
-3.207550 -5.949428 -0.899603
-3.219990 -5.943921 -0.899157
-3.231442 -5.936293 -0.897949
-3.244414 -5.931928 -0.897912
-3.262593 -5.938407 -0.901784
-3.279663 -5.942294 -0.904736
-3.294726 -5.941849 -0.906132
-3.308595 -5.938867 -0.906615
-3.321269 -5.933437 -0.906213
-3.334874 -5.929825 -0.906472
-3.351710 -5.932427 -0.908996
-3.369969 -5.937553 -0.912452
-3.378808 -5.924565 -0.909302
-3.390731 -5.917515 -0.908316
-3.404716 -5.914305 -0.908736
-3.423639 -5.920059 -0.912452
-3.436059 -5.913782 -0.911756
-3.447840 -5.906364 -0.910639
-3.467102 -5.912194 -0.914412
-3.482606 -5.911185 -0.915670
-3.498190 -5.910197 -0.916942
-3.514397 -5.910153 -0.918571
-3.530559 -5.909893 -0.920127
-3.544321 -5.905488 -0.920146
-3.560862 -5.905630 -0.921865
-3.576732 -5.904530 -0.923127
-3.591852 -5.902101 -0.923898
-3.608289 -5.901685 -0.925430
-3.628695 -5.907414 -0.929281
-3.650210 -5.914613 -0.933701
-3.661933 -5.906355 -0.932306
-3.684471 -5.914693 -0.937183
-3.700608 -5.913008 -0.938284
-3.711944 -5.904009 -0.936616
-3.721496 -5.892405 -0.933953
-3.739617 -5.893479 -0.936112
-3.753659 -5.888454 -0.935955
-3.764385 -5.878612 -0.933957
-3.779888 -5.875624 -0.934581
-3.802004 -5.881869 -0.938753
-3.818854 -5.880488 -0.940012
-3.835562 -5.878788 -0.941155
-3.858032 -5.884846 -0.945300
-3.910818 -5.931666 -0.965230
-3.826644 -5.701472 -0.884778
-3.838533 -5.694285 -0.883711
-3.861873 -5.701543 -0.888307
-3.964920 -5.784961 -0.924686
-4.186103 -5.885945 -0.978241
-4.174298 -5.848839 -0.965423
-4.186266 -5.839226 -0.963580
-4.203521 -5.835543 -0.964117
-4.223729 -5.835024 -0.965936
-4.240917 -5.830985 -0.966350
-4.258614 -5.827377 -0.966946
-4.278465 -5.825964 -0.968442
-4.296316 -5.822228 -0.969007
-4.312323 -5.816393 -0.968730
-4.327538 -5.809626 -0.968078
-4.349962 -5.810273 -0.970462
-4.373538 -5.811875 -0.973256
-4.395379 -5.811450 -0.975240
-4.414492 -5.808047 -0.976016
-4.434250 -5.805123 -0.977003
-4.461650 -5.809604 -0.981064
-4.478892 -5.803776 -0.980884
-4.489532 -5.791391 -0.977993
-4.504223 -5.782902 -0.976720
-4.527867 -5.782874 -0.978981
-4.542009 -5.773611 -0.977404
-4.561528 -5.769305 -0.977909
-4.579243 -5.763149 -0.977652
-4.594194 -5.754312 -0.976277
-4.605452 -5.742021 -0.973453
-4.606339 -5.720360 -0.966664
-4.599401 -5.691869 -0.956960
-4.596809 -5.667504 -0.948976
-4.596547 -5.645382 -0.941922
-4.592146 -5.619842 -0.933387
-4.591578 -5.597820 -0.926331
-4.588391 -5.573742 -0.918371
-4.585362 -5.550006 -0.910532
-4.584045 -5.527901 -0.903371
-4.580484 -5.504124 -0.895465
-4.578028 -5.481463 -0.888016
-4.576908 -5.460082 -0.881099
-4.581858 -5.443733 -0.876355
-4.584702 -5.425799 -0.870907
-4.584909 -5.405922 -0.864591
-4.581970 -5.383771 -0.857254
-4.572305 -5.356676 -0.847709
-4.561244 -5.328851 -0.837800
-4.563688 -5.311551 -0.832516
-4.570585 -5.297726 -0.828759
-4.574220 -5.281594 -0.823962
-4.568318 -5.258655 -0.816101
-4.565499 -5.238254 -0.809342
-1.812856 -6.149875 -0.826069
-1.827070 -6.123342 -0.819258
-1.840004 -6.111775 -0.817023
-1.852419 -6.107821 -0.817132
-1.864266 -6.113403 -0.820185
-1.876568 -6.115368 -0.822157
-1.888749 -6.121777 -0.825518
-1.901532 -6.121267 -0.826775
-1.914671 -6.116361 -0.826691
-1.928100 -6.106866 -0.825200
-1.941222 -6.104381 -0.825884
-1.954649 -6.095801 -0.824688
-1.967394 -6.106471 -0.829476
-1.980593 -6.107768 -0.831368
-1.993997 -6.103571 -0.831555
-2.007331 -6.103182 -0.832934
-2.020724 -6.101212 -0.833823
-2.034198 -6.092304 -0.832538
-2.047620 -6.080821 -0.830437
-2.060946 -6.079332 -0.831471
-2.074296 -6.083155 -0.834180
-2.087670 -6.084612 -0.836146
-2.101066 -6.086387 -0.838214
-2.114579 -6.093027 -0.841826
-2.127757 -6.083753 -0.840390
-2.140986 -6.079468 -0.840528
-2.154322 -6.079644 -0.842082
-2.168110 -6.091201 -0.847267
-2.296055 -6.550543 -1.006160
-2.340823 -6.528845 -1.004296
-2.371462 -6.526348 -1.006896
-2.409945 -6.458853 -0.989879
-2.483870 -6.559652 -1.029732
-2.521472 -6.498393 -1.014531
-2.629889 -6.503449 -1.027868
-2.699600 -6.394653 -1.001051
-2.818582 -6.445388 -1.029754
-2.828891 -6.424761 -1.024340
-2.825026 -6.350565 -1.000511
-2.878660 -6.435962 -1.033157
-2.885409 -6.403559 -1.023643
-2.900159 -6.400531 -1.024248
-2.920636 -6.417363 -1.031729
-2.929625 -6.394181 -1.025359
-2.936790 -6.365532 -1.017069
-2.987984 -6.378943 -1.026705
-3.018039 -6.373752 -1.028230
-3.042329 -6.399068 -1.038784
-3.055447 -6.390109 -1.037333
-3.082570 -6.198503 -0.979634
-3.101606 -6.127136 -0.959071
-3.106329 -6.100245 -0.951065
-3.073402 -5.979078 -0.909315
-3.085617 -5.973335 -0.908778
-3.096832 -5.965149 -0.907362
-3.109421 -5.960360 -0.907164
-3.124226 -5.960833 -0.908860
-3.140084 -5.963618 -0.911397
-3.154100 -5.961908 -0.912320
-3.167359 -5.958361 -0.912583
-3.180198 -5.953815 -0.912485
-3.194802 -5.953167 -0.913803
-3.208059 -5.949430 -0.914004
-3.222066 -5.947270 -0.914781
-3.230531 -5.933145 -0.911195
-3.244131 -5.930093 -0.911647
-3.262249 -5.936409 -0.915533
-3.280367 -5.942422 -0.919322
-3.294456 -5.939937 -0.920002
-3.308158 -5.936587 -0.920369
-3.320923 -5.931314 -0.920029
-3.335450 -5.929484 -0.920961
-3.355015 -5.937325 -0.925477
-3.372121 -5.940125 -0.928141
-3.384608 -5.933967 -0.927490
-3.394408 -5.922782 -0.924969
-3.413667 -5.929212 -0.929005
-3.431005 -5.931837 -0.931636
-3.440557 -5.920193 -0.928942
-3.454519 -5.916547 -0.929238
-3.470982 -5.917261 -0.931172
-3.483976 -5.911761 -0.930778
-3.496533 -5.905488 -0.930095
-3.518440 -5.915171 -0.935431
-3.533434 -5.912831 -0.936244
-3.548886 -5.911165 -0.937317
-3.565459 -5.911243 -0.939058
-3.579449 -5.906960 -0.939150
-3.591767 -5.899926 -0.938196
-3.617660 -5.914588 -0.945519
-3.642966 -5.927866 -0.952341
-3.655996 -5.921521 -0.951678
-3.669621 -5.916085 -0.951363
-3.685562 -5.914164 -0.952400
-3.698796 -5.908036 -0.951825
-3.711835 -5.901598 -0.951129
-3.728591 -5.900658 -0.952559
-3.743087 -5.896274 -0.952664
-3.754782 -5.887763 -0.951170
-3.776166 -5.893206 -0.955097
-3.781803 -5.875981 -0.950216
-3.799655 -5.876162 -0.952109
-3.819072 -5.878366 -0.954804
-3.841251 -5.884185 -0.958928
-3.858398 -5.882860 -0.960268
-3.888829 -5.899368 -0.968628
-3.833609 -5.730710 -0.909435
-3.825767 -5.697893 -0.898212
-3.833642 -5.685586 -0.895108
-3.869859 -5.709115 -0.906280
-4.224036 -5.975650 -1.027068
-4.210679 -5.935520 -1.012942
-4.175405 -5.870643 -0.988716
-4.175786 -5.847619 -0.981424
-4.188854 -5.839221 -0.980071
-4.205101 -5.834358 -0.980163
-4.222173 -5.830309 -0.980596
-4.239124 -5.826006 -0.980934
-4.261994 -5.828038 -0.983886
-4.279504 -5.824036 -0.984371
-4.297351 -5.820263 -0.984961
-4.312266 -5.813242 -0.984219
-4.330285 -5.809400 -0.984800
-4.349765 -5.806932 -0.985963
-4.376382 -5.811639 -0.990131
-4.400414 -5.813395 -0.993095
-4.415633 -5.805988 -0.992247
-4.435943 -5.803583 -0.993504
-4.463391 -5.808061 -0.997671
-4.482111 -5.803648 -0.998122
-4.492927 -5.791393 -0.995275
-4.514305 -5.789294 -0.996725
-4.532028 -5.783501 -0.996628
-4.552970 -5.780605 -0.997775
-4.566760 -5.770819 -0.996002
-4.582093 -5.762392 -0.994815
-4.596196 -5.752736 -0.993110
-4.599627 -5.733307 -0.987213
-4.600798 -5.711956 -0.980473
-4.602146 -5.690908 -0.973846
-4.602425 -5.669058 -0.966853
-4.601002 -5.645880 -0.959264
-4.596118 -5.619893 -0.950429
-4.588767 -5.592033 -0.940748
-4.584532 -5.567099 -0.932312
-4.581402 -5.543317 -0.924352
-4.581635 -5.522538 -0.917686
-4.583438 -5.503204 -0.911637
-4.580020 -5.479743 -0.903747
-4.581314 -5.460295 -0.897609
-4.583714 -5.441869 -0.891906
-4.581766 -5.420133 -0.884712
-4.576975 -5.396369 -0.876586
-4.574673 -5.374779 -0.869404
-4.567667 -5.349794 -0.860668
-4.568973 -5.331410 -0.854870
-4.567585 -5.311167 -0.848212
-4.571547 -5.295120 -0.843428
-4.567398 -5.273244 -0.835976
-4.558897 -5.248469 -0.827167
-4.560671 -5.231453 -0.821863
-1.817752 -6.077954 -0.817034
-1.827068 -6.104301 -0.826472
-1.838480 -6.110422 -0.829682
-1.850068 -6.117246 -0.833142
-1.861876 -6.124190 -0.836669
-1.874523 -6.122183 -0.837434
-1.887579 -6.115799 -0.836848
-1.900398 -6.114599 -0.837897
-1.913283 -6.114177 -0.839207
-1.926909 -6.101080 -0.836550
-1.939929 -6.100720 -0.837900
-1.953027 -6.100485 -0.839301
-1.965836 -6.110449 -0.843933
-1.978907 -6.117236 -0.847580
-1.992326 -6.115194 -0.848445
-2.005858 -6.108992 -0.847993
-2.019356 -6.103508 -0.847768
-2.032941 -6.087436 -0.844167
-2.046305 -6.086835 -0.845489
-2.059680 -6.086979 -0.847051
-2.073069 -6.086842 -0.848524
-2.086506 -6.091085 -0.851402
-2.099983 -6.094914 -0.854153
-2.113345 -6.090899 -0.854381
-2.126496 -6.080074 -0.852407
-2.139978 -6.084202 -0.855250
-2.153465 -6.087521 -0.857835
-2.166878 -6.088309 -0.859601
-2.355317 -6.530085 -1.022025
-2.413792 -6.500792 -1.019159
-2.480464 -6.541174 -1.039463
-2.544394 -6.455091 -1.018957
-2.660375 -6.504463 -1.047463
-2.702056 -6.408576 -1.021295
-2.825896 -6.414493 -1.036613
-2.857935 -6.418229 -1.041271
-2.869974 -6.405087 -1.038358
-2.909697 -6.380088 -1.034625
-2.924301 -6.376670 -1.035101
-2.956104 -6.378236 -1.039023
-3.015239 -6.365283 -1.041219
-3.093730 -6.360589 -1.048125
-3.086581 -6.251580 -1.012392
-3.095176 -6.190431 -0.993694
-3.104383 -6.133764 -0.976498
-3.099279 -6.081599 -0.959216
-3.070633 -5.971450 -0.920815
-3.082913 -5.965917 -0.920350
-3.094964 -5.959824 -0.919681
-3.109108 -5.958809 -0.920864
-3.122998 -5.957063 -0.921785
-3.137612 -5.956913 -0.923295
-3.151355 -5.954602 -0.924018
-3.164758 -5.951427 -0.924427
-3.180115 -5.952595 -0.926438
-3.196495 -5.955862 -0.929231
-3.210466 -5.953601 -0.929993
-3.220556 -5.942833 -0.927611
-3.235210 -5.941967 -0.928892
-3.247309 -5.935573 -0.928127
-3.265523 -5.941960 -0.932115
-3.278903 -5.938078 -0.932292
-3.293240 -5.936094 -0.933180
-3.306747 -5.932348 -0.933413
-3.320683 -5.929397 -0.933947
-3.335588 -5.928277 -0.935171
-3.353818 -5.933485 -0.938780
-3.370211 -5.934907 -0.940978
-3.383368 -5.930029 -0.940809
-3.397233 -5.926444 -0.941129
-3.415441 -5.930828 -0.944470
-3.432879 -5.933560 -0.947199
-3.446094 -5.928462 -0.946963
-3.467321 -5.937638 -0.952162
-3.482324 -5.935479 -0.953059
-3.487181 -5.915526 -0.947165
-3.502207 -5.913420 -0.948081
-3.519315 -5.914771 -0.950328
-3.536698 -5.916411 -0.952696
-3.552625 -5.915444 -0.954073
-3.567660 -5.912885 -0.954842
-3.580296 -5.906324 -0.954072
-3.596171 -5.904990 -0.955323
-3.615989 -5.909835 -0.958976
-3.636431 -5.915418 -0.962932
-3.654243 -5.916628 -0.965204
-3.668841 -5.912699 -0.965484
-3.684044 -5.909633 -0.966104
-3.699042 -5.906174 -0.966576
-3.713618 -5.902009 -0.966776
-3.728439 -5.898146 -0.967097
-3.743409 -5.894433 -0.967483
-3.760214 -5.893312 -0.968894
-3.775877 -5.890423 -0.969616
-3.786621 -5.880451 -0.967540
-3.805071 -5.881373 -0.969780
-3.826949 -5.886898 -0.973860
-3.836298 -5.874886 -0.970979
-3.858315 -5.880249 -0.975020
-3.843794 -5.741456 -0.928818
-3.824197 -5.693411 -0.911292
-3.835569 -5.685563 -0.909955
-3.863272 -5.698290 -0.916956
-4.216150 -5.963355 -1.039251
-4.232768 -5.958263 -1.039340
-4.166980 -5.857974 -1.000135
-4.175461 -5.844302 -0.996605
-4.192817 -5.840746 -0.997261
-4.205842 -5.832207 -0.995858
-4.222030 -5.827148 -0.995904
-4.239192 -5.823056 -0.996362
-4.262681 -5.825732 -0.999660
-4.285129 -5.827028 -1.002403
-4.298720 -5.818629 -1.001094
-4.315714 -5.813776 -1.001283
-4.331845 -5.807899 -1.001048
-4.354034 -5.808204 -1.003436
-4.382081 -5.814305 -1.008302
-4.399801 -5.809548 -1.008588
-4.413959 -5.801059 -1.007297
-4.434147 -5.798523 -1.008552
-4.461150 -5.802545 -1.012629
-4.480660 -5.798905 -1.013453
-4.502544 -5.797396 -1.015208
-4.514011 -5.785655 -1.012577
-4.544913 -5.792390 -1.017926
-4.562175 -5.785882 -1.017580
-4.573292 -5.773502 -1.014700
-4.590526 -5.766756 -1.014271
-4.595749 -5.748878 -1.008999
-4.597333 -5.727777 -1.002309
-4.598491 -5.706437 -0.995495
-4.601406 -5.686805 -0.989413
-4.599298 -5.662863 -0.981417
-4.600782 -5.642253 -0.974867
-4.595650 -5.616063 -0.965830
-4.582690 -5.583427 -0.953899
-4.582923 -5.562335 -0.947060
-4.580843 -5.539455 -0.939403
-4.583466 -5.520666 -0.933553
-4.584288 -5.500511 -0.927075
-4.581854 -5.477851 -0.919449
-4.578057 -5.454291 -0.911392
-4.575910 -5.432266 -0.904001
-4.572383 -5.409352 -0.896179
-4.570522 -5.387959 -0.889022
-4.564301 -5.363395 -0.880389
-4.564975 -5.344381 -0.874262
-4.567657 -5.327058 -0.868889
-4.574328 -5.312874 -0.864942
-4.562675 -5.285177 -0.854741
-4.557202 -5.262401 -0.846769
-4.558084 -5.244540 -0.841042
-4.564410 -5.230807 -0.837212
-4.613413 -5.247645 -0.847655
-4.721416 -5.250366 -0.859510
-1.816571 -6.072656 -0.828279
-1.826221 -6.094980 -0.836597
-1.837391 -6.103700 -0.840672
-1.848511 -6.116261 -0.845993
-1.860121 -6.126036 -0.850467
-1.872850 -6.123287 -0.851004
-1.885801 -6.118977 -0.851062
-1.898687 -6.117271 -0.851961
-1.911343 -6.121589 -0.854793
-1.924368 -6.121620 -0.856276
-1.938023 -6.110030 -0.854059
-1.951641 -6.098719 -0.851930
-1.964318 -6.112533 -0.857856
-1.977458 -6.117982 -0.861119
-1.990887 -6.116510 -0.862168
-2.004473 -6.109201 -0.861339
-2.018197 -6.091136 -0.857034
-2.031560 -6.092064 -0.858856
-2.044948 -6.094716 -0.861241
-2.058381 -6.096511 -0.863353
-2.071834 -6.095879 -0.864679
-2.085276 -6.093768 -0.865523
-2.098803 -6.098900 -0.868729
-2.112138 -6.091300 -0.867777
-2.125389 -6.083574 -0.866774
-2.138785 -6.083596 -0.868302
-2.152308 -6.087534 -0.871117
-2.165758 -6.088816 -0.873060
-2.205968 -6.360376 -0.965823
-2.523533 -6.423258 -1.021918
-2.606637 -6.467888 -1.045660
-2.682854 -6.391916 -1.029395
-2.747124 -6.476158 -1.063883
-2.749681 -6.419497 -1.045737
-2.766140 -6.424226 -1.049089
-2.842797 -6.362620 -1.037478
-2.881639 -6.391914 -1.051270
-2.908750 -6.377578 -1.049578
-2.933236 -6.354773 -1.044839
-2.950866 -6.361474 -1.048950
-2.974954 -6.388688 -1.060442
-2.985320 -6.371104 -1.055853
-3.012898 -6.358238 -1.054681
-3.019894 -6.331289 -1.046674
-3.031442 -6.318598 -1.043804
-3.071837 -6.343805 -1.056420
-3.095357 -6.232367 -1.022708
-3.108945 -6.226742 -1.022358
-3.108456 -6.184072 -1.008411
-3.076416 -6.022554 -0.952331
-3.068748 -5.966053 -0.933098
-3.081423 -5.961518 -0.933002
-3.095737 -5.960972 -0.934382
-3.108372 -5.956234 -0.934214
-3.120993 -5.951443 -0.934027
-3.136763 -5.954026 -0.936584
-3.150843 -5.952476 -0.937611
-3.165343 -5.951777 -0.938960
-3.181221 -5.954056 -0.941428
-3.197628 -5.957304 -0.944270
-3.212001 -5.955848 -0.945357
-3.224589 -5.950415 -0.944955
-3.235857 -5.942145 -0.943486
-3.251032 -5.942196 -0.945151
-3.264389 -5.938305 -0.945334
-3.280248 -5.939522 -0.947453
-3.294176 -5.936631 -0.948023
-3.306549 -5.930542 -0.947382
-3.318789 -5.924195 -0.946643
-3.335170 -5.925977 -0.949001
-3.350966 -5.926438 -0.950865
-3.365658 -5.924631 -0.951870
-3.379314 -5.920766 -0.952092
-3.395855 -5.922238 -0.954365
-3.408974 -5.917214 -0.954151
-3.422555 -5.913007 -0.954252
-3.463631 -5.929274 -0.964004
-3.476017 -5.922543 -0.963153
-3.488632 -5.916222 -0.962459
-3.503183 -5.913235 -0.963062
-3.521639 -5.916829 -0.966231
-3.538680 -5.917814 -0.968397
-3.553927 -5.915647 -0.969341
-3.569681 -5.914217 -0.970580
-3.583620 -5.909718 -0.970621
-3.597840 -5.905625 -0.970825
-3.614511 -5.905386 -0.972550
-3.632414 -5.906952 -0.974996
-3.647882 -5.904538 -0.975881
-3.667049 -5.907744 -0.978997
-3.683859 -5.907134 -0.980614
-3.697385 -5.901426 -0.980214
-3.714525 -5.901095 -0.981957
-3.727953 -5.895131 -0.981461
-3.743954 -5.892910 -0.982463
-3.762547 -5.894342 -0.984936
-3.775021 -5.886818 -0.983827
-3.791059 -5.884357 -0.984753
-3.812059 -5.888768 -0.988455
-3.824735 -5.881357 -0.987403
-3.845324 -5.884839 -0.990757
-3.852536 -5.869858 -0.986645
-3.874424 -5.874829 -0.990623
-3.920878 -5.887545 -0.999770
-3.890593 -5.799629 -0.967814
-3.856867 -5.732874 -0.942395
-3.846996 -5.697596 -0.929815
-3.862744 -5.695094 -0.930688
-4.210663 -5.929488 -1.044541
-4.166655 -5.854646 -1.015367
-4.176492 -5.842515 -1.012451
-4.195022 -5.840251 -1.013688
-4.209633 -5.833449 -1.013022
-4.224562 -5.826931 -1.012482
-4.241138 -5.822147 -1.012682
-4.268052 -5.828499 -1.017628
-4.281812 -5.820349 -1.016425
-4.299828 -5.816689 -1.017143
-4.315412 -5.810314 -1.016713
-4.332166 -5.805072 -1.016776
-4.353733 -5.804701 -1.018945
-4.382760 -5.811776 -1.024343
-4.403903 -5.810472 -1.026158
-4.421137 -5.805024 -1.026199
-4.446493 -5.807551 -1.029713
-4.459717 -5.797805 -1.027918
-4.485275 -5.800074 -1.031366
-4.490855 -5.782692 -1.026253
-4.525839 -5.793622 -1.033536
-4.547150 -5.791091 -1.034956
-4.567110 -5.787083 -1.035746
-4.580814 -5.777059 -1.033900
-4.589208 -5.762062 -1.029860
-4.602852 -5.751892 -1.027956
-4.604561 -5.730843 -1.021221
-4.605769 -5.709486 -1.014330
-4.596214 -5.678718 -1.003213
-4.597971 -5.658226 -0.996661
-4.598200 -5.636535 -0.989553
-4.593436 -5.610696 -0.980555
-4.581572 -5.579035 -0.968896
-4.580404 -5.556770 -0.961448
-4.586811 -5.541019 -0.956937
-4.584685 -5.518247 -0.949219
-4.584060 -5.496897 -0.942126
-4.580115 -5.473019 -0.933852
-4.570676 -5.444944 -0.923621
-4.571922 -5.425685 -0.917409
-4.574195 -5.407379 -0.911618
-4.565908 -5.380965 -0.902052
-4.563750 -5.359584 -0.894785
-4.567309 -5.342781 -0.889622
-4.568679 -5.324446 -0.883726
-4.564945 -5.302456 -0.876093
-4.553913 -5.275307 -0.865998
-4.551897 -5.255140 -0.859147
-4.559558 -5.242243 -0.855702
-4.588067 -5.244441 -0.859409
-1.808320 -6.143316 -0.863758
-1.823907 -6.102193 -0.851955
-1.835236 -6.109565 -0.855664
-1.847397 -6.109535 -0.857029
-1.859612 -6.111006 -0.858898
-1.871594 -6.118182 -0.862624
-1.884099 -6.120648 -0.864858
-1.897127 -6.117070 -0.865160
-1.909737 -6.122509 -0.868389
-1.922985 -6.118667 -0.868632
-1.936881 -6.102143 -0.864767
-1.950146 -6.099040 -0.865257
-1.963152 -6.104251 -0.868461
-1.976398 -6.105562 -0.870407
-1.989661 -6.108828 -0.873000
-2.003057 -6.109636 -0.874798
-2.017088 -6.074885 -0.864940
-2.030238 -6.089000 -0.871100
-2.043610 -6.094416 -0.874415
-2.057066 -6.092074 -0.875181
-2.070519 -6.091923 -0.876670
-2.084027 -6.097337 -0.880000
-2.097460 -6.093071 -0.880128
-2.110798 -6.086033 -0.879331
-2.124106 -6.080836 -0.879137
-2.137556 -6.082560 -0.881241
-2.150975 -6.083069 -0.882941
-2.164345 -6.082413 -0.884250
-2.275104 -6.525540 -1.043031
-2.318227 -6.484519 -1.034400
-2.348786 -6.484214 -1.037767
-2.463431 -6.428170 -1.032252
-2.511178 -6.446515 -1.043692
-2.521812 -6.417455 -1.035301
-2.551557 -6.510226 -1.069265
-2.566828 -6.417646 -1.040433
-2.704309 -6.424252 -1.058048
-2.758129 -6.458381 -1.075342
-2.768909 -6.438015 -1.069825
-2.785901 -6.444211 -1.073771
-2.831160 -6.438002 -1.076780
-2.845597 -6.374359 -1.057379
-2.884333 -6.402667 -1.071049
-2.910814 -6.385569 -1.068357
-2.981251 -6.358490 -1.067264
-2.997164 -6.309969 -1.053010
-3.043954 -6.308903 -1.057865
-3.080506 -6.368675 -1.081674
-3.094681 -6.230130 -1.037484
-3.068986 -5.966010 -0.947373
-3.082760 -5.964142 -0.948285
-3.099076 -5.968396 -0.951502
-3.107943 -5.954402 -0.947863
-3.122350 -5.953828 -0.949272
-3.138974 -5.958323 -0.952602
-3.153075 -5.956703 -0.953631
-3.167349 -5.955372 -0.954774
-3.182588 -5.956102 -0.956706
-3.198747 -5.958711 -0.959360
-3.212448 -5.955704 -0.959886
-3.224615 -5.949302 -0.959119
-3.237356 -5.944146 -0.958828
-3.249712 -5.938159 -0.958219
-3.264406 -5.937051 -0.959482
-3.281283 -5.940319 -0.962432
-3.295125 -5.937190 -0.962931
-3.305192 -5.926409 -0.960484
-3.317441 -5.920077 -0.959748
-3.334397 -5.922978 -0.962585
-3.349624 -5.922317 -0.964053
-3.361997 -5.916069 -0.963358
-3.376766 -5.914355 -0.964427
-3.393989 -5.917121 -0.967248
-3.409871 -5.917203 -0.969033
-3.431562 -5.927737 -0.974916
-3.449993 -5.932007 -0.978367
-3.460238 -5.921446 -0.976010
-3.471606 -5.912961 -0.974463
-3.488818 -5.914703 -0.976943
-3.503437 -5.911798 -0.977599
-3.522649 -5.916637 -0.981324
-3.538945 -5.916316 -0.983020
-3.551918 -5.910323 -0.982473
-3.568384 -5.910072 -0.984210
-3.587230 -5.913560 -0.987447
-3.602772 -5.911503 -0.988484
-3.616789 -5.906918 -0.988517
-3.630195 -5.901322 -0.988147
-3.645860 -5.899226 -0.989185
-3.663737 -5.900439 -0.991560
-3.680558 -5.899870 -0.993230
-3.695071 -5.895679 -0.993446
-3.711101 -5.893699 -0.994560
-3.725847 -5.889711 -0.994869
-3.745818 -5.893305 -0.998261
-3.762063 -5.891278 -0.999383
-3.779407 -5.890719 -1.001111
-3.791472 -5.882529 -0.999732
-3.804803 -5.876134 -0.999086
-3.839134 -5.898901 -1.010403
-3.848000 -5.886020 -1.007118
-3.855177 -5.870942 -1.002919
-3.927369 -5.893503 -1.018335
-3.885567 -5.790541 -0.979657
-3.853998 -5.726664 -0.955041
-3.861783 -5.713849 -0.951655
-3.865718 -5.696290 -0.946275
-3.873558 -5.683775 -0.942993
-4.178582 -5.889161 -1.044500
-4.162058 -5.846382 -1.028515
-4.175853 -5.838801 -1.027515
-4.195434 -5.837707 -1.029298
-4.212749 -5.833905 -1.029934
-4.231549 -5.831622 -1.031236
-4.249207 -5.827929 -1.031944
-4.265172 -5.822264 -1.031813
-4.287234 -5.823060 -1.034490
-4.304623 -5.818652 -1.034929
-4.319460 -5.811421 -1.034153
-4.330848 -5.800506 -1.031776
-4.351632 -5.799310 -1.033649
-4.382405 -5.808158 -1.039943
-4.409774 -5.813153 -1.044587
-4.435048 -5.815716 -1.048194
-4.452372 -5.810073 -1.048210
-4.468039 -5.802665 -1.047458
-4.477067 -5.788670 -1.043796
-4.495729 -5.784023 -1.044285
-4.506537 -5.771687 -1.041365
-4.547602 -5.788061 -1.051270
-4.574867 -5.790891 -1.055176
-4.584565 -5.777050 -1.051632
-4.581915 -5.751830 -1.042964
-4.596241 -5.742332 -1.041364
-4.605412 -5.728090 -1.037627
-4.602431 -5.702977 -1.028956
-4.601195 -5.679628 -1.021060
-4.596911 -5.653792 -1.012005
-4.595804 -5.630951 -1.004290
-4.590503 -5.604680 -0.994978
-4.578753 -5.573160 -0.983221
-4.582770 -5.555300 -0.977715
-4.587667 -5.538261 -0.972576
-4.587467 -5.517081 -0.965507
-4.581960 -5.491714 -0.956470
-4.569997 -5.461360 -0.945074
-4.574208 -5.444339 -0.939864
-4.575198 -5.424850 -0.933483
-4.576426 -5.405694 -0.927240
-4.569784 -5.380558 -0.918154
-4.567545 -5.359089 -0.910764
-4.566149 -5.338473 -0.903750
-4.564898 -5.318169 -0.896855
-4.560116 -5.295431 -0.888768
-4.556269 -5.273651 -0.881101
-4.559633 -5.257413 -0.876060
-4.595828 -5.265135 -0.882544
-4.626261 -5.268411 -0.886926
-4.740477 -5.238204 -0.889251
-1.804708 -6.163346 -0.883555
-1.819860 -6.128567 -0.873641
-1.833531 -6.109850 -0.868937
-1.845988 -6.106371 -0.869198
-1.858983 -6.097558 -0.867735
-1.870893 -6.105083 -0.871619
-1.883015 -6.112637 -0.875538
-1.895416 -6.118994 -0.879090
-1.908283 -6.120350 -0.881020
-1.921511 -6.117098 -0.881449
-1.935043 -6.108789 -0.880220
-1.948711 -6.097392 -0.877973
-1.961760 -6.101665 -0.880903
-1.974955 -6.104759 -0.883455
-1.988458 -6.099692 -0.883310
-2.001810 -6.101271 -0.885372
-2.015267 -6.099904 -0.886461
-2.028884 -6.086707 -0.883606
-2.042300 -6.086697 -0.885144
-2.055727 -6.090092 -0.887823
-2.069190 -6.090360 -0.889460
-2.082674 -6.091737 -0.891469
-2.096130 -6.089703 -0.892333
-2.109404 -6.078856 -0.890225
-2.122807 -6.078344 -0.891593
-2.136343 -6.082855 -0.894657
-2.149852 -6.085458 -0.897079
-2.163249 -6.084693 -0.898360
-2.252530 -6.435220 -1.025984
-2.271011 -6.484148 -1.044487
-2.316335 -6.475856 -1.046899
-2.333258 -6.494402 -1.055047
-2.364758 -6.502347 -1.061311
-2.388592 -6.438602 -1.042687
-2.446202 -6.538997 -1.082893
-2.457611 -6.391629 -1.034837
-2.513793 -6.469933 -1.067475
-2.534792 -6.507276 -1.082378
-2.585252 -6.441499 -1.066096
-2.690624 -6.434620 -1.075786
-2.705108 -6.430661 -1.076107
-2.739370 -6.446407 -1.085278
-2.752941 -6.438038 -1.084016
-2.776419 -6.406657 -1.076171
-2.799750 -6.438969 -1.089647
-2.816408 -6.443143 -1.092937
-2.840218 -6.414066 -1.085899
-2.893836 -6.381721 -1.081147
-2.913145 -6.340661 -1.069579
-2.931717 -6.350910 -1.075120
-2.949547 -6.358175 -1.079577
-2.963631 -6.352871 -1.079397
-2.997783 -6.361027 -1.086001
-3.011195 -6.353352 -1.084950
-3.004041 -6.283476 -1.060723
-3.079366 -6.365255 -1.096664
-3.085695 -6.292030 -1.072840
-3.079833 -6.231987 -1.052054
-3.086407 -6.207303 -1.044526
-3.120244 -6.173161 -1.036914
-3.072618 -6.011647 -0.977390
-3.070720 -5.969733 -0.963127
-3.082844 -5.963655 -0.962462
-3.095710 -5.959412 -0.962496
-3.109345 -5.956989 -0.963227
-3.124461 -5.958005 -0.965278
-3.142732 -5.966247 -0.970108
-3.155670 -5.961768 -0.970070
-3.168061 -5.956009 -0.969542
-3.184555 -5.959498 -0.972577
-3.198584 -5.957264 -0.973415
-3.210072 -5.949362 -0.972066
-3.223872 -5.946523 -0.972675
-3.236626 -5.941373 -0.972391
-3.249308 -5.936055 -0.972042
-3.263917 -5.934739 -0.973253
-3.281551 -5.939535 -0.976854
-3.296875 -5.939371 -0.978532
-3.305600 -5.925818 -0.974975
-3.317754 -5.919251 -0.974147
-3.332087 -5.916967 -0.975001
-3.346504 -5.914755 -0.975889
-3.361185 -5.912957 -0.976946
-3.380162 -5.919171 -0.981173
-3.400707 -5.928024 -0.986462
-3.419265 -5.932857 -0.990180
-3.435817 -5.933779 -0.992359
-3.450845 -5.931788 -0.993389
-3.462173 -5.923107 -0.991758
-3.479118 -5.924374 -0.994097
-3.492168 -5.918687 -0.993664
-3.507557 -5.917008 -0.994839
-3.522659 -5.914737 -0.995783
-3.539297 -5.914956 -0.997735
-3.552047 -5.908558 -0.997029
-3.565832 -5.903860 -0.997010
-3.593142 -5.921133 -1.005885
-3.605839 -5.914362 -1.005048
-3.609303 -5.892890 -0.998239
-3.629955 -5.898810 -1.002555
-3.647961 -5.900333 -1.005097
-3.662229 -5.895916 -1.005226
-3.676994 -5.892207 -1.005648
-3.690877 -5.887096 -1.005500
-3.708940 -5.888187 -1.007903
-3.724388 -5.885245 -1.008659
-3.739801 -5.882162 -1.009363
-3.764258 -5.892082 -1.015448
-3.781674 -5.891563 -1.017238
-3.791849 -5.880640 -1.014722
-3.804360 -5.873065 -1.013592
-3.837255 -5.893794 -1.024252
-3.853339 -5.890841 -1.025075
-3.860355 -5.875455 -1.020704
-3.902831 -5.907977 -1.036400
-3.838718 -5.704549 -0.960930
-3.861252 -5.710620 -0.965504
-3.879668 -5.711245 -0.967787
-4.223072 -5.962339 -1.090689
-4.156671 -5.860713 -1.049112
-4.163888 -5.845501 -1.044817
-4.175999 -5.835963 -1.042976
-4.197414 -5.836909 -1.045701
-4.216910 -5.835498 -1.047418
-4.235424 -5.832829 -1.048602
-4.249933 -5.825621 -1.047812
-4.267595 -5.821768 -1.048502
-4.286253 -5.818853 -1.049618
-4.307976 -5.819044 -1.052121
-4.324642 -5.813687 -1.052193
-4.339046 -5.805854 -1.051179
-4.360761 -5.805511 -1.053500
-4.391957 -5.814661 -1.060073
-4.415475 -5.815620 -1.063033
-4.436065 -5.813389 -1.064593
-4.453338 -5.807664 -1.064606
-4.464650 -5.795936 -1.061934
-4.482221 -5.790298 -1.062009
-4.501227 -5.785912 -1.062665
-4.528601 -5.789368 -1.066893
-4.555260 -5.791828 -1.070706
-4.572330 -5.784983 -1.070318
-4.592893 -5.781254 -1.071367
-4.591438 -5.757065 -1.063074
-4.593427 -5.736217 -1.056288
-4.602012 -5.721462 -1.052289
-4.606720 -5.703259 -1.046696
-4.602563 -5.677293 -1.037501
-4.598765 -5.651879 -1.028530
-4.593153 -5.625117 -1.018904
-4.583939 -5.595516 -1.007919
-4.582116 -5.572518 -0.999981
-4.584089 -5.552904 -0.993605
-4.586077 -5.533425 -0.987275
-4.584371 -5.511017 -0.979547
-4.577649 -5.484693 -0.969941
-4.573785 -5.460949 -0.961522
-4.576812 -5.442945 -0.955803
-4.580815 -5.425825 -0.950490
-4.578557 -5.403888 -0.942857
-4.577537 -5.383116 -0.935754
-4.569115 -5.356837 -0.925972
-4.562711 -5.332400 -0.917034
-4.557831 -5.309391 -0.908747
-4.554478 -5.287784 -0.901102
-4.558243 -5.271677 -0.896102
-4.565048 -5.257936 -0.892238
-4.576694 -5.247807 -0.890130
-4.678880 -5.302577 -0.919968
-1.807819 -6.111661 -0.879990
-1.820187 -6.105746 -0.879412
-1.831613 -6.112447 -0.883014
-1.843826 -6.112368 -0.884401
-1.856290 -6.111175 -0.885439
-1.869708 -6.098680 -0.882744
-1.881781 -6.106728 -0.886876
-1.894388 -6.109534 -0.889289
-1.906735 -6.119476 -0.894096
-1.920061 -6.114676 -0.894005
-1.933406 -6.110554 -0.894145
-1.946725 -6.108152 -0.894868
-1.960186 -6.103323 -0.894781
-1.973488 -6.103933 -0.896525
-1.986798 -6.106503 -0.898936
-2.000361 -6.101116 -0.898671
-2.013913 -6.095485 -0.898321
-2.027432 -6.090387 -0.898149
-2.040825 -6.098469 -0.902442
-2.054324 -6.103823 -0.905820
-2.067858 -6.096840 -0.905008
-2.081355 -6.093154 -0.905312
-2.094816 -6.089360 -0.905575
-2.108320 -6.090116 -0.907391
-2.121601 -6.080881 -0.905783
-2.135128 -6.084010 -0.908408
-2.148663 -6.086662 -0.910871
-2.162256 -6.090366 -0.913698
-2.267601 -6.452629 -1.049003
-2.350964 -6.531782 -1.085527
-2.386333 -6.427568 -1.054180
