ply
format ascii 1.0
comment ---
element vertex 1649
property float x
property float y
property float z
element face 0
property list uchar uint vertex_indices
end_header
-1.895903 -1.601333 0.960963
-1.901069 -1.591514 0.962236
-1.885352 -1.574776 0.955454
-1.887509 -1.564051 0.955592
-1.895237 -1.555119 0.957890
-1.893147 -1.543052 0.956414
-1.883662 -1.528757 0.952105
-1.889763 -1.519328 0.953809
-1.891173 -1.508467 0.953719
-1.913971 -1.503889 0.961855
-1.894275 -1.486875 0.953683
-1.914636 -1.481413 0.960895
-1.907001 -1.468006 0.957380
-1.907660 -1.456965 0.957058
-1.906689 -1.445510 0.956123
-1.923265 -1.438683 0.961911
-1.915755 -1.425535 0.958499
-1.920438 -1.415556 0.959759
-1.927162 -1.406056 0.961808
-1.911319 -1.391077 0.955258
-1.905787 -1.378717 0.952659
-1.899455 -1.366253 0.949769
-1.910770 -1.357856 0.953613
-1.922180 -1.349387 0.957501
-1.927442 -1.339501 0.959058
-1.917738 -1.326438 0.954937
-1.913728 -1.314662 0.952994
-1.916081 -1.304221 0.953483
-1.927687 -1.295578 0.957494
-1.930723 -1.285211 0.958264
-1.935511 -1.275156 0.959709
-1.926304 -1.262553 0.955861
-1.920407 -1.250640 0.953283
-1.930080 -1.241445 0.956616
-1.948499 -1.233610 0.963272
-1.927714 -1.219343 0.955098
-1.914151 -1.206417 0.949675
-1.903594 -1.194090 0.945407
-1.906056 -1.183766 0.946077
-1.927448 -1.176075 0.953915
-1.938269 -1.166758 0.957767
-1.928403 -1.154658 0.953817
-1.910618 -1.141679 0.946893
-1.921341 -1.132302 0.950750
-1.920672 -1.121519 0.950319
-1.928946 -1.111734 0.953278
-1.937549 -1.101908 0.956375
-1.936684 -1.091055 0.955914
-1.936517 -1.080284 0.955731
-1.901872 -1.066409 0.942559
-1.954115 -1.060286 0.962174
-1.942352 -1.048511 0.957664
-1.942266 -1.037734 0.957574
-1.953149 -1.027732 0.961636
-1.955145 -1.017041 0.962362
-1.941760 -1.005399 0.957306
-1.922312 -0.993550 0.949979
-1.930358 -0.983285 0.953035
-1.936417 -0.972847 0.955358
-1.935799 -0.962073 0.955179
-1.938364 -0.951415 0.956217
-1.942511 -0.940775 0.957868
-1.952545 -0.930242 0.961757
-1.950566 -0.919350 0.961130
-1.931981 -0.908206 0.954253
-1.941886 -0.897553 0.958141
-1.949070 -0.886777 0.961019
-1.930993 -0.875893 0.954377
-1.929325 -0.865117 0.953942
-1.925794 -0.854364 0.952818
-1.923659 -0.843617 0.952235
-1.936911 -0.832593 0.957480
-1.941975 -0.821621 0.959645
-1.924079 -0.811251 0.953141
-1.922346 -0.800503 0.952758
-1.924273 -0.789622 0.953771
-1.921254 -0.778930 0.952920
-1.913360 -0.768497 0.950232
-1.900945 -0.758380 0.945835
-1.928398 -0.746036 0.956551
-1.924737 -0.735399 0.955482
-1.919651 -0.724893 0.953875
-1.940197 -0.712543 0.961993
-1.929487 -0.702454 0.958252
-1.915430 -0.692756 0.953233
-1.921762 -0.681392 0.955952
-1.926400 -0.670131 0.958021
-1.921378 -0.659792 0.956409
-1.923823 -0.648741 0.957623
-1.912131 -0.639226 0.953444
-1.902689 -0.629594 0.950102
-1.912610 -0.617781 0.954107
-1.905357 -0.608028 0.951552
-1.917893 -0.595835 0.956505
-1.921803 -0.584714 0.958145
-1.915101 -0.575074 0.955708
-1.901308 -0.566569 0.950535
-1.905286 -0.555621 0.952092
-1.928437 -0.541761 0.960913
-1.950865 -0.527865 0.969413
-1.940249 -0.519207 0.965276
-1.910305 -0.513966 0.953726
-1.907803 -0.504372 0.952580
-1.914896 -0.493198 0.955031
-1.931753 -0.480286 0.961141
-1.931711 -0.470463 0.960758
-1.927791 -0.461486 0.958841
-1.947380 -0.448078 0.965797
-1.937834 -0.440415 0.961619
-1.923813 -0.433864 0.955686
-1.919109 -0.425621 0.953230
-1.922409 -0.415847 0.953747
-1.940678 -0.402938 0.959863
-1.935715 -0.395122 0.957122
-1.945101 -0.384262 0.959741
-1.948859 -0.374743 0.960170
-1.952125 -0.365442 0.960350
-1.968746 -0.344751 0.964317
-1.628878 -2.762703 0.966653
-1.628912 -2.694082 0.964933
-1.632788 -2.683687 0.966034
-1.582993 -2.621573 0.943234
-1.624460 -2.647032 0.960832
-1.621042 -2.629337 0.958436
-1.610499 -2.604917 0.952808
-1.609986 -2.589887 0.951540
-1.621807 -2.586143 0.955632
-1.632072 -2.580715 0.958948
-1.673605 -2.603358 0.975924
-1.602668 -2.524383 0.943402
-1.608949 -2.515154 0.944757
-1.633643 -2.522011 0.954096
-1.638818 -2.511406 0.954817
-1.632887 -2.491098 0.950637
-1.632750 -2.475846 0.948940
-1.660549 -2.484308 0.959323
-1.658018 -2.466842 0.956483
-1.657897 -2.451448 0.954657
-1.666663 -2.443415 0.956633
-1.666208 -2.427754 0.954601
-1.673636 -2.418522 0.955935
-1.666789 -2.397801 0.951125
-1.700692 -2.409546 0.963727
-1.704195 -2.396972 0.963297
-1.699210 -2.377825 0.959246
-1.710637 -2.371456 0.962169
-1.708789 -2.354889 0.959453
-1.679255 -2.317581 0.945055
-1.711162 -2.326634 0.956609
-1.746829 -2.338067 0.969692
-1.729328 -2.310218 0.960423
-1.729107 -2.295225 0.958434
-1.730644 -2.281594 0.957197
-1.740761 -2.274115 0.959549
-1.742988 -2.261061 0.958625
-1.750473 -2.251722 0.959899
-1.741821 -2.231308 0.954506
-1.801494 -2.242855 0.975548
-1.777516 -2.212387 0.963909
-1.756925 -2.184588 0.953727
-1.751295 -2.166909 0.949731
-1.767896 -2.163709 0.954852
-1.792402 -2.165407 0.963195
-1.801421 -2.157116 0.965225
-1.795193 -2.139303 0.961077
-1.791561 -2.123269 0.958019
-1.788941 -2.107994 0.955403
-1.781227 -2.089776 0.950762
-1.791777 -2.082631 0.953519
-1.801905 -2.075187 0.956119
-1.819651 -2.072135 0.961790
-1.815144 -2.056116 0.958541
-1.813227 -2.041714 0.956362
-1.830151 -2.038031 0.961739
-1.843787 -2.032380 0.965807
-1.846884 -2.020833 0.965686
-1.858954 -2.014208 0.969153
-1.857448 -2.000206 0.967241
-1.827640 -1.971253 0.954138
-1.837130 -1.963390 0.956647
-1.848608 -1.956512 0.959953
-1.856036 -1.947484 0.961670
-1.854331 -1.933805 0.959803
-1.851248 -1.919523 0.957418
-1.850341 -1.906421 0.955913
-1.856950 -1.897066 0.957379
-1.860886 -1.886405 0.957811
-1.863953 -1.875344 0.957920
-1.861738 -1.861819 0.955981
-1.850630 -1.844246 0.950594
-1.862205 -1.837272 0.954078
-1.874350 -1.830476 0.957792
-1.885240 -1.823033 0.961025
-1.891921 -1.813659 0.962631
-1.904487 -1.806825 0.966531
-1.913078 -1.798190 0.968898
-1.914043 -1.786273 0.968323
-1.895882 -1.766391 0.960371
-1.895844 -1.754246 0.959449
-1.881702 -1.736407 0.953103
-1.900726 -1.732092 0.959564
-1.906058 -1.722188 0.960756
-1.899460 -1.707614 0.957371
-1.887152 -1.690960 0.951812
-1.876390 -1.675074 0.946872
-1.882179 -1.665532 0.948299
-1.893128 -1.657868 0.951713
-1.903202 -1.649806 0.954797
-1.901770 -1.637565 0.953490
-1.907726 -1.627977 0.955019
-1.917140 -1.619560 0.957878
-1.927785 -1.611499 0.961213
-1.921688 -1.597744 0.958176
-1.902864 -1.579891 0.950312
-1.914225 -1.572076 0.953952
-1.918572 -1.561935 0.954933
-1.913481 -1.548818 0.952340
-1.921351 -1.539790 0.954680
-1.924282 -1.529214 0.955156
-1.935089 -1.520985 0.958625
-1.938181 -1.510416 0.959180
-1.946243 -1.501275 0.961625
-1.939041 -1.487772 0.958309
-1.936950 -1.475790 0.956940
-1.924228 -1.460971 0.951571
-1.946970 -1.455766 0.959597
-1.940221 -1.442645 0.956507
-1.944149 -1.432357 0.957454
-1.939799 -1.419977 0.955295
-1.939662 -1.408705 0.954735
-1.939827 -1.397533 0.954300
-1.946089 -1.387820 0.956169
-1.938264 -1.374822 0.952756
-1.950670 -1.366485 0.956952
-1.958919 -1.357130 0.959595
-1.956293 -1.345375 0.958170
-1.949060 -1.332700 0.955031
-1.941535 -1.320062 0.951799
-1.943012 -1.309319 0.951951
-1.967630 -1.303090 0.960774
-1.965558 -1.291567 0.959618
-1.957640 -1.279004 0.956291
-1.957915 -1.268012 0.956040
-1.957030 -1.256831 0.955368
-1.965230 -1.247218 0.958102
-1.963367 -1.235882 0.957091
-1.970750 -1.226056 0.959543
-1.964162 -1.214011 0.956796
-1.957293 -1.202004 0.953959
-1.955323 -1.190787 0.952963
-1.952494 -1.179483 0.951661
-1.970532 -1.171030 0.958146
-1.976340 -1.160822 0.960087
-1.950545 -1.146623 0.950276
-1.951464 -1.135891 0.950427
-1.939052 -1.123626 0.945631
-1.935132 -1.112426 0.944010
-1.967744 -1.105109 0.955995
-1.963012 -1.093739 0.954101
-1.956738 -1.082274 0.951649
-1.969725 -1.072614 0.956375
-1.972507 -1.061959 0.957321
-1.963114 -1.050302 0.953756
-1.967453 -1.039775 0.955312
-1.971464 -1.029184 0.956761
-1.973543 -1.018427 0.957508
-1.978321 -1.007813 0.959275
-1.980907 -0.997029 0.960242
-1.974140 -0.985743 0.957750
-1.976489 -0.974939 0.958662
-1.964808 -0.963534 0.954375
-1.957602 -0.952401 0.951767
-1.965333 -0.941798 0.954729
-1.968715 -0.930999 0.956091
-1.970596 -0.920128 0.956910
-1.973818 -0.909254 0.958245
-1.973333 -0.898297 0.958217
-1.970268 -0.887322 0.957244
-1.959180 -0.876357 0.953301
-1.948002 -0.865493 0.949337
-1.944915 -0.854660 0.948399
-1.961420 -0.843582 0.954773
-1.967469 -0.832524 0.957268
-1.964068 -0.821617 0.956256
-1.957435 -0.810826 0.954051
-1.942288 -0.800376 0.948680
-1.939741 -0.789582 0.948018
-1.938828 -0.778733 0.947975
-1.931820 -0.768179 0.945666
-1.970422 -0.755246 0.960400
-1.967135 -0.744371 0.959499
-1.968118 -0.733251 0.960198
-1.966910 -0.722267 0.960083
-1.964989 -0.711344 0.959703
-1.963002 -0.700444 0.959298
-1.952261 -0.690298 0.955613
-1.951468 -0.679381 0.955648
-1.946223 -0.668895 0.954009
-1.944360 -0.658138 0.953628
-1.946466 -0.647000 0.954724
-1.960417 -0.634570 0.960252
-1.957840 -0.623901 0.959564
-1.932986 -0.615925 0.950494
-1.934509 -0.604966 0.951301
-1.939562 -0.593571 0.953410
-1.945686 -0.582023 0.955894
-1.936665 -0.572556 0.952657
-1.944485 -0.560815 0.955715
-1.945243 -0.550100 0.956080
-1.946398 -0.539379 0.956555
-1.927607 -0.531863 0.949489
-1.961169 -0.516089 0.962055
-1.955302 -0.506673 0.959751
-1.945564 -0.498064 0.955942
-1.947913 -0.487503 0.956621
-1.945355 -0.477906 0.955401
-1.928463 -0.471097 0.948743
-1.961463 -0.455054 0.960752
-1.950133 -0.447460 0.956063
-1.948759 -0.438099 0.955048
-1.936551 -0.431076 0.949914
-1.926010 -0.423933 0.945348
-1.956353 -0.408337 0.956014
-1.974671 -0.395215 0.962105
-1.960106 -0.389317 0.955847
-1.949919 -0.382690 0.951169
-1.973706 -0.368520 0.959092
-1.903275 -0.367897 0.930858
-1.952544 -0.347920 0.948046
-1.654643 -2.828622 0.966101
-1.658621 -2.778696 0.967552
-1.629819 -2.722228 0.954233
-1.647838 -2.711696 0.961076
-1.641357 -2.691040 0.957577
-1.636798 -2.672203 0.954833
-1.621985 -2.643559 0.947528
-1.645669 -2.651380 0.956941
-1.638052 -2.629426 0.952612
-1.630194 -2.607277 0.948105
-1.640396 -2.601791 0.951375
-1.661411 -2.605936 0.959246
-1.644127 -2.575048 0.950433
-1.696943 -2.607210 0.971880
-1.660527 -2.559229 0.954678
-1.651273 -2.535710 0.949173
-1.657580 -2.525890 0.950318
-1.665631 -2.517463 0.952151
-1.680048 -2.514354 0.956651
-1.699426 -2.515227 0.963204
-1.698285 -2.498582 0.960939
-1.692193 -2.477868 0.956537
-1.693432 -2.463327 0.955234
-1.698934 -2.452289 0.955711
-1.704791 -2.441504 0.956311
-1.716258 -2.435171 0.959251
-1.723416 -2.425314 0.960349
-1.724086 -2.410335 0.958704
-1.725578 -2.396063 0.957401
-1.730354 -2.384374 0.957469
-1.742002 -2.377921 0.960395
-1.752982 -2.370879 0.963030
-1.763258 -2.363239 0.965361
-1.773850 -2.355774 0.967817
-1.772421 -2.339482 0.965306
-1.747710 -2.306510 0.953227
-1.755655 -2.297339 0.954631
-1.763986 -2.288426 0.956199
-1.770398 -2.278154 0.956989
-1.772330 -2.264790 0.955962
-1.806905 -2.273863 0.968249
-1.816439 -2.265571 0.970325
-1.808474 -2.245514 0.965314
-1.806274 -2.229501 0.962677
-1.817820 -2.222645 0.965620
-1.807108 -2.201276 0.959602
-1.806907 -2.186911 0.957857
-1.827363 -2.185777 0.964430
-1.820504 -2.167289 0.960057
-1.823681 -2.155232 0.959735
-1.812739 -2.134546 0.953802
-1.808560 -2.118215 0.950607
-1.815826 -2.108917 0.951995
-1.815405 -2.095039 0.950349
-1.837169 -2.094310 0.957519
-1.842025 -2.083545 0.957999
-1.848032 -2.073464 0.958953
-1.841431 -2.056217 0.954956
-1.856804 -2.051499 0.959640
-1.870086 -2.045501 0.963507
-1.873432 -2.033952 0.963487
-1.873230 -2.020512 0.962097
-1.873625 -2.007472 0.960966
-1.878297 -1.996772 0.961528
-1.871320 -1.979976 0.957568
-1.873344 -1.968005 0.957142
-1.872541 -1.954631 0.955638
-1.881027 -1.946038 0.957761
-1.876931 -1.931116 0.955022
-1.877753 -1.918740 0.954211
-1.886116 -1.910098 0.956334
-1.905308 -1.906640 0.962649
-1.886364 -1.884856 0.954265
-1.882098 -1.870260 0.951571
-1.876183 -1.855007 0.948266
-1.881873 -1.845202 0.949441
-1.899232 -1.840668 0.955105
-1.905687 -1.831115 0.956594
-1.904580 -1.818208 0.955202
-1.918591 -1.811946 0.959605
-1.921149 -1.800656 0.959642
-1.924428 -1.789694 0.959969
-1.923821 -1.777120 0.958829
-1.924107 -1.764970 0.958046
-1.925515 -1.753323 0.957705
-1.922180 -1.739804 0.955578
-1.922497 -1.727814 0.954854
-1.927030 -1.717509 0.955742
-1.925818 -1.704991 0.954467
-1.926821 -1.693368 0.954045
-1.944302 -1.687928 0.959861
-1.940069 -1.674352 0.957484
-1.943048 -1.663476 0.957843
-1.935699 -1.648924 0.954323
-1.929223 -1.634798 0.951150
-1.936292 -1.625467 0.953088
-1.941648 -1.615514 0.954391
-1.949589 -1.606407 0.956674
-1.953410 -1.595892 0.957419
-1.946409 -1.581863 0.954119
-1.946827 -1.570311 0.953614
-1.958442 -1.562302 0.957310
-1.969546 -1.554045 0.960821
-1.960477 -1.539591 0.956801
-1.968425 -1.530333 0.959150
-1.974170 -1.520379 0.960687
-1.967422 -1.506808 0.957574
-1.962658 -1.493898 0.955216
-1.960754 -1.481861 0.953937
-1.968004 -1.472358 0.956076
-1.939216 -1.453212 0.944826
-1.965691 -1.448823 0.954132
-1.959191 -1.435748 0.951195
-1.954510 -1.423224 0.948947
-1.954877 -1.412015 0.948585
-1.969512 -1.404259 0.953521
-1.976843 -1.394659 0.955758
-1.979292 -1.383885 0.956196
-1.972805 -1.371099 0.953339
-1.980446 -1.361511 0.955720
-1.991997 -1.352709 0.959555
-1.983571 -1.339620 0.956019
-1.970250 -1.325636 0.950691
-1.980826 -1.316580 0.954197
-1.995085 -1.308156 0.959071
-2.005832 -1.298941 0.962657
-1.992799 -1.285248 0.957489
-1.979782 -1.271707 0.952344
-1.982097 -1.260992 0.952860
-1.989527 -1.251137 0.955271
-1.997347 -1.241290 0.957835
-1.997768 -1.230199 0.957690
-1.997646 -1.219036 0.957358
-1.985359 -1.206068 0.952568
-1.982904 -1.194658 0.951408
-1.988944 -1.184472 0.953380
-1.995122 -1.174258 0.955417
-1.996106 -1.163319 0.955559
-1.994871 -1.152104 0.954900
-1.985064 -1.139884 0.951111
-1.985242 -1.128918 0.951000
-2.000537 -1.119621 0.956448
-1.994576 -1.107947 0.954114
-1.993519 -1.096830 0.953594
-1.996717 -1.086135 0.954648
-1.997976 -1.075238 0.955007
-1.989606 -1.063511 0.951852
-1.988521 -1.052455 0.951382
-1.991226 -1.041699 0.952317
-1.990871 -1.030702 0.952146
-1.992875 -1.019864 0.952855
-2.004172 -1.009570 0.956985
-2.003520 -0.998498 0.956753
-2.005160 -0.987547 0.957376
-2.001420 -0.976330 0.956045
-2.007273 -0.965539 0.958246
-1.986392 -0.953722 0.950666
-1.982628 -0.942640 0.949374
-1.987026 -0.931802 0.951090
-1.992257 -0.920932 0.953128
-1.996630 -0.909989 0.954868
-2.003944 -0.899028 0.957704
-2.000818 -0.887919 0.956727
-1.987571 -0.876816 0.952052
-1.976813 -0.865827 0.948303
-1.980801 -0.854809 0.949981
-1.991654 -0.843650 0.954195
-1.991194 -0.832579 0.954271
-1.982486 -0.821694 0.951330
-1.983647 -0.810606 0.952027
-1.983045 -0.799553 0.952090
-1.979936 -0.788591 0.951242
-1.977511 -0.777620 0.950656
-1.990485 -0.765920 0.955747
-2.000806 -0.754221 0.959874
-1.998265 -0.743160 0.959275
-2.004620 -0.731554 0.961959
-2.003863 -0.720363 0.962030
-1.977839 -0.711029 0.952783
-1.977365 -0.699950 0.952958
-1.980966 -0.688535 0.954638
-1.977182 -0.677739 0.953589
-1.965720 -0.667702 0.949698
-1.961597 -0.657064 0.948510
-1.966762 -0.645518 0.950746
-1.980419 -0.633013 0.956114
-1.979493 -0.622044 0.956074
-1.961658 -0.613108 0.949758
-1.954315 -0.603083 0.947303
-1.961720 -0.591269 0.950286
-1.957409 -0.580980 0.948903
-1.979808 -0.567085 0.957390
-1.988995 -0.554908 0.960950
-1.970705 -0.546762 0.954289
-1.957357 -0.538098 0.949419
-1.978217 -0.524236 0.957191
-1.974923 -0.514170 0.955963
-1.978101 -0.503131 0.957086
-1.981574 -0.492096 0.958268
-1.990070 -0.480232 0.961258
-1.988114 -0.470279 0.960318
-1.986667 -0.460352 0.959510
-1.962992 -0.454775 0.950413
-1.958412 -0.445803 0.948330
-1.952954 -0.437162 0.945863
-1.960509 -0.426040 0.948147
-1.985523 -0.411346 0.956813
-2.012595 -0.396128 0.966161
-2.007292 -0.387819 0.963490
-1.996155 -0.380974 0.958609
-1.989797 -0.373283 0.955431
-2.000820 -0.361808 0.958586
-1.962669 -0.344813 0.941542
-1.994725 -0.328693 0.952146
-1.630224 -2.816239 0.943402
-1.661129 -2.835173 0.956876
-1.638539 -2.785235 0.947059
-1.677208 -2.796836 0.963374
-1.676638 -2.782131 0.962784
-1.677835 -2.754592 0.962337
-1.669774 -2.732160 0.958241
-1.657038 -2.705197 0.952044
-1.648707 -2.682530 0.947665
-1.659632 -2.678194 0.951487
-1.652981 -2.656998 0.947663
-1.672851 -2.660618 0.955141
-1.652772 -2.626780 0.945403
-1.658486 -2.616900 0.946645
-1.693129 -2.633225 0.960161
-1.701861 -2.625527 0.962511
-1.718774 -2.624964 0.968264
-1.712988 -2.603951 0.964285
-1.685251 -2.563710 0.950950
-1.677621 -2.541417 0.946117
-1.705235 -2.549649 0.956135
-1.712740 -2.540254 0.957587
-1.709813 -2.521923 0.954600
-1.723075 -2.517238 0.958380
-1.725352 -2.503253 0.957507
-1.719094 -2.482258 0.953041
-1.721296 -2.468304 0.952093
-1.732400 -2.461551 0.954830
-1.750105 -2.459955 0.960272
-1.749783 -2.443908 0.958213
-1.734984 -2.416621 0.950174
-1.737467 -2.403033 0.949284
-1.753915 -2.400202 0.954133
-1.763411 -2.391932 0.956107
-1.763292 -2.376390 0.954139
-1.780871 -2.374106 0.959407
-1.789919 -2.365380 0.961182
-1.783604 -2.345431 0.956716
-1.791182 -2.335697 0.957912
-1.800505 -2.327202 0.959820
-1.796478 -2.309252 0.956346
-1.795480 -2.293586 0.954122
-1.815221 -2.292377 0.960254
-1.820756 -2.281272 0.960683
-1.827183 -2.270800 0.961484
-1.819458 -2.250866 0.956653
-1.819360 -2.236202 0.954900
-1.821861 -2.223348 0.954206
-1.842080 -2.222051 0.960564
-1.848773 -2.211900 0.961564
-1.837448 -2.190323 0.955462
-1.855944 -2.187723 0.961165
-1.847673 -2.168347 0.956333
-1.851884 -2.156848 0.956444
-1.827649 -2.128107 0.945423
-1.848334 -2.126771 0.952046
-1.862094 -2.121137 0.955961
-1.888193 -2.122663 0.964696
-1.870414 -2.098439 0.956339
-1.867555 -2.083107 0.953832
-1.884913 -2.079383 0.959199
-1.902437 -2.075613 0.964634
-1.889880 -2.054995 0.958437
-1.878429 -2.035225 0.952709
-1.878274 -2.021809 0.951374
-1.890093 -2.014894 0.954673
-1.895140 -2.004317 0.955378
-1.899417 -1.993347 0.955805
-1.905216 -1.983184 0.956834
-1.900797 -1.967792 0.953968
-1.905162 -1.956965 0.954486
-1.918770 -1.950769 0.958548
-1.906541 -1.931724 0.952770
-1.925018 -1.927861 0.958713
-1.946235 -1.925160 0.965698
-1.931049 -1.904956 0.958865
-1.920923 -1.887368 0.953982
-1.912523 -1.870761 0.949784
-1.912890 -1.858325 0.948926
-1.929758 -1.853402 0.954320
-1.938501 -1.844712 0.956651
-1.936522 -1.831253 0.954952
-1.918706 -1.810984 0.947309
-1.938931 -1.807293 0.954002
-1.936939 -1.794018 0.952351
-1.946157 -1.785497 0.954923
-1.948969 -1.774282 0.955103
-1.938285 -1.757599 0.950243
-1.937885 -1.745206 0.949253
-1.938142 -1.733123 0.948524
-1.939957 -1.721689 0.948391
-1.962346 -1.718180 0.955943
-1.975510 -1.710974 0.960056
-1.974176 -1.698261 0.958779
-1.968556 -1.684030 0.955922
-1.973873 -1.673861 0.957146
-1.978016 -1.663257 0.957944
-1.974651 -1.650011 0.955968
-1.986488 -1.642096 0.959641
-1.971380 -1.624924 0.953343
-1.983593 -1.617101 0.957173
-1.990950 -1.607584 0.959214
-1.980340 -1.592202 0.954628
-1.976432 -1.579106 0.952533
-1.991018 -1.571882 0.957271
-1.993810 -1.560905 0.957668
-1.996049 -1.549764 0.957872
-1.994189 -1.537413 0.956578
-2.004170 -1.528575 0.959650
-1.992873 -1.513558 0.954912
-1.980175 -1.498296 0.949678
-1.981811 -1.487162 0.949720
-1.986362 -1.476830 0.950840
-1.988981 -1.465967 0.951262
-1.984239 -1.453185 0.948999
-1.985256 -1.441953 0.948857
-1.987246 -1.430981 0.949081
-1.995253 -1.421493 0.951515
-2.000108 -1.411192 0.952805
-2.008607 -1.401724 0.955435
-2.002052 -1.388730 0.952582
-1.997216 -1.376215 0.950369
-2.001675 -1.365817 0.951556
-2.013016 -1.356875 0.955260
-2.010501 -1.344935 0.953927
-1.997756 -1.330950 0.948886
-2.003629 -1.320830 0.950631
-2.016815 -1.312095 0.955044
-2.022232 -1.301776 0.956642
-2.025618 -1.291046 0.957512
-2.013535 -1.277526 0.952780
-2.004365 -1.264652 0.949119
-2.011311 -1.254620 0.951320
-2.011994 -1.243505 0.951260
-2.014840 -1.232744 0.951996
-2.017545 -1.221949 0.952694
-2.022274 -1.211444 0.954137
-2.018742 -1.199712 0.952601
-2.018449 -1.188480 0.952251
-2.014462 -1.176767 0.950579
-2.018198 -1.166106 0.951714
-2.029525 -1.156367 0.955608
-2.021195 -1.144170 0.952406
-2.016456 -1.132478 0.950518
-2.022315 -1.122007 0.952475
-2.026439 -1.111303 0.953820
-2.026038 -1.100113 0.953543
-2.027448 -1.089105 0.953935
-2.025657 -1.077799 0.953187
-2.021988 -1.066355 0.951774
-2.020975 -1.055165 0.951337
-2.020981 -1.044064 0.951283
-2.020615 -1.032939 0.951111
-2.027056 -1.022265 0.953412
-2.027031 -1.011136 0.953394
-2.041759 -1.000829 0.958720
-2.027876 -0.988919 0.953730
-2.030796 -0.977916 0.954824
-2.025310 -0.966535 0.952898
-2.029730 -0.955563 0.954567
-2.017047 -0.944007 0.950074
-2.044773 -0.933634 0.960196
-2.015743 -0.921766 0.949828
-2.022526 -0.910767 0.952417
-2.028424 -0.899683 0.954703
-2.035760 -0.888541 0.957525
-2.038046 -0.877309 0.958539
-2.033224 -0.866067 0.956998
-2.033258 -0.854822 0.957229
-2.022508 -0.843707 0.953572
-2.018712 -0.832562 0.952445
-2.044492 -0.820759 0.962043
-2.023828 -0.809992 0.954835
-2.010925 -0.799162 0.950449
-2.006362 -0.788131 0.949095
-2.003215 -0.777073 0.948265
-2.023835 -0.764894 0.956068
-2.027424 -0.753402 0.957705
-2.030212 -0.741910 0.959062
-2.028334 -0.730674 0.958731
-2.022348 -0.719729 0.956914
-2.001992 -0.709888 0.949875
-1.992176 -0.699423 0.946667
-1.996149 -0.687908 0.948474
-2.018044 -0.674774 0.956807
-2.020291 -0.663252 0.957988
-1.984926 -0.655403 0.945460
-1.999845 -0.642730 0.951244
-2.001890 -0.631312 0.952327
-2.007009 -0.619541 0.954521
-2.010195 -0.607968 0.955995
-1.991999 -0.599019 0.949644
-2.003248 -0.586509 0.954022
-1.991910 -0.576926 0.950127
-2.020354 -0.562007 0.960739
-2.013005 -0.551968 0.958243
-1.997150 -0.543309 0.952602
-1.994732 -0.532811 0.951835
-1.993055 -0.522284 0.951298
-2.005984 -0.509473 0.956059
-2.000715 -0.499654 0.954119
-2.009818 -0.487500 0.957386
-2.012324 -0.476512 0.958187
-2.012068 -0.466098 0.957924
-2.003243 -0.457377 0.954474
-1.994524 -0.448824 0.951006
-1.985314 -0.440556 0.947301
-1.987564 -0.430203 0.947721
-2.006840 -0.416485 0.954287
-2.022824 -0.403406 0.959583
-2.029672 -0.392260 0.961477
-2.037505 -0.380974 0.963663
-2.032252 -0.372647 0.961020
-2.045153 -0.360422 0.964911
-2.039693 -0.352434 0.962066
-2.013958 -0.349352 0.951812
-2.009282 -0.332961 0.948111
-2.009427 -0.324399 0.947072
-1.926897 -0.336489 0.916163
-1.677922 -2.865725 0.951851
-1.725539 -2.859200 0.971885
-1.700037 -2.819159 0.960729
-1.694739 -2.740551 0.955627
-1.688959 -2.719948 0.952334
-1.685428 -2.701457 0.949912
-1.707945 -2.707469 0.958426
-1.705901 -2.690068 0.956458
-1.683022 -2.637850 0.944381
-1.707572 -2.644684 0.953386
-1.742540 -2.660467 0.966660
-1.729567 -2.632763 0.959733
-1.721556 -2.609635 0.954841
-1.735822 -2.606177 0.959205
-1.728479 -2.583678 0.954494
-1.733128 -2.571635 0.954735
-1.733193 -2.555615 0.953026
-1.742514 -2.547441 0.955113
-1.772486 -2.556438 0.965680
-1.771755 -2.539532 0.963516
-1.743963 -2.500471 0.950209
-1.747086 -2.487049 0.949616
-1.764832 -2.485415 0.954990
-1.781771 -2.482926 0.959992
-1.778926 -2.464637 0.956900
-1.759471 -2.433502 0.947065
-1.759536 -2.417858 0.945182
-1.784836 -2.421623 0.953511
-1.798816 -2.416513 0.957233
-1.791131 -2.395040 0.952220
-1.790003 -2.378656 0.949869
-1.811745 -2.379198 0.956700
-1.830256 -2.377167 0.962216
-1.840649 -2.369127 0.964482
-1.833732 -2.348713 0.959862
-1.824130 -2.326622 0.954211
-1.823413 -2.310979 0.952121
-1.830675 -2.300964 0.953211
-1.850800 -2.299737 0.959388
-1.843367 -2.279709 0.954711
-1.868075 -2.281386 0.962697
-1.864508 -2.264116 0.959588
-1.845053 -2.236605 0.950297
-1.860983 -2.232384 0.954878
-1.861739 -2.218326 0.953551
-1.885224 -2.218764 0.961089
-1.881648 -2.202018 0.958117
-1.877126 -2.184834 0.954812
-1.899856 -2.184525 0.962079
-1.898321 -2.169287 0.959976
-1.904813 -2.158982 0.960996
-1.899312 -2.141567 0.957422
-1.929426 -2.145217 0.967555
-1.906227 -2.117625 0.957243
-1.888912 -2.093798 0.949239
-1.910978 -2.092627 0.956325
-1.924495 -2.086460 0.960149
-1.922396 -2.071542 0.958036
-1.888907 -2.039521 0.944018
-1.899058 -2.031654 0.946627
-1.908335 -2.023269 0.948917
-1.926810 -2.019714 0.954700
-1.956577 -2.021914 0.964753
-1.935945 -1.997753 0.955779
-1.933418 -1.983169 0.953670
-1.940928 -1.973756 0.955364
-1.948095 -1.964148 0.956942
-1.956387 -1.955076 0.958956
-1.964362 -1.945814 0.960863
-1.964736 -1.932867 0.959938
-1.967500 -1.921112 0.959925
-1.972835 -1.910593 0.960889
-1.965758 -1.894321 0.957239
-1.969565 -1.883170 0.957667
-1.963175 -1.867427 0.954317
-1.977040 -1.860844 0.958516
-1.980477 -1.849568 0.958851
-1.972400 -1.833306 0.954931
-1.984917 -1.826016 0.958660
-1.965241 -1.805021 0.950487
-1.955700 -1.788530 0.946092
-1.955226 -1.775927 0.945065
-1.942992 -1.758604 0.939718
-1.942326 -1.746097 0.938656
-1.948903 -1.736502 0.940275
-1.954845 -1.726632 0.941670
-1.949551 -1.712431 0.938948
-1.992850 -1.716702 0.954074
-1.987787 -1.702522 0.951455
-1.994047 -1.692597 0.952999
-1.991244 -1.679368 0.951237
-2.005506 -1.672287 0.955728
-2.016560 -1.663967 0.959051
-2.017535 -1.652087 0.958702
-2.010298 -1.637444 0.955369
-2.019075 -1.628275 0.957889
-2.010314 -1.613276 0.954031
-2.000640 -1.598113 0.949857
-2.009755 -1.589072 0.952531
-2.019039 -1.580022 0.955273
-2.022520 -1.569123 0.955916
-2.023014 -1.557317 0.955484
-2.030790 -1.547704 0.957704
-2.036270 -1.537372 0.959099
-2.027256 -1.522859 0.955257
-2.001341 -1.503715 0.945320
-2.002139 -1.492252 0.945060
-2.013948 -1.483796 0.948788
-2.022837 -1.474471 0.951467
-2.019087 -1.461788 0.949595
-2.027779 -1.452351 0.952221
-2.033782 -1.442180 0.953884
-2.030437 -1.429682 0.952192
-2.028452 -1.417571 0.951001
-2.035295 -1.407582 0.952996
-2.028752 -1.394471 0.950189
-2.016192 -1.380099 0.945235
-2.017659 -1.368961 0.945332
-2.035012 -1.361241 0.951141
-2.047379 -1.352324 0.955167
-2.033548 -1.337947 0.949808
-2.072050 -1.334169 0.963217
-2.040896 -1.316482 0.951678
-2.037493 -1.304385 0.950096
-2.049291 -1.295145 0.953965
-2.052347 -1.284238 0.954717
-2.039643 -1.270571 0.949844
-2.024151 -1.256577 0.943991
-2.022163 -1.244974 0.942979
-2.028640 -1.234757 0.945004
-2.042658 -1.225657 0.949731
-2.051921 -1.215721 0.952771
-2.060418 -1.205596 0.955548
-2.055738 -1.193563 0.953637
-2.051786 -1.181686 0.951999
-2.049692 -1.170102 0.951039
-2.053128 -1.159239 0.952062
-2.047430 -1.147259 0.949845
-2.061067 -1.137566 0.954530
-2.068488 -1.127064 0.957014
-2.070251 -1.115902 0.957496
-2.045653 -1.102092 0.948606
-2.053749 -1.091642 0.951373
-2.056884 -1.080670 0.952388
-2.041352 -1.068079 0.946774
-2.037538 -1.056586 0.945346
-2.045484 -1.046023 0.948119
-2.050646 -1.035187 0.949917
-2.065520 -1.024940 0.955185
-2.074347 -1.014179 0.958318
-2.066442 -1.002395 0.955512
-2.080784 -0.991822 0.960640
-2.063636 -0.979653 0.954578
-2.059558 -0.968188 0.953183
-2.046092 -0.956418 0.948462
-2.062399 -0.945710 0.954356
-2.070644 -0.934622 0.957397
-2.073851 -0.923338 0.958661
-2.050409 -0.911570 0.950452
-2.053465 -0.900336 0.951695
-2.055645 -0.889057 0.952643
-2.061066 -0.877752 0.954762
-2.060936 -0.866400 0.954920
-2.056983 -0.855069 0.953730
-2.055044 -0.843740 0.953273
-2.063351 -0.832233 0.956487
-2.064435 -0.820798 0.957140
-2.066960 -0.809299 0.958322
-2.058095 -0.798136 0.955450
-2.039504 -0.787416 0.949115
-2.051026 -0.775580 0.953550
-2.057537 -0.763856 0.956208
-2.056721 -0.752442 0.956258
-2.046435 -0.741572 0.952928
-2.044602 -0.730264 0.952631
-2.044019 -0.718880 0.952787
-2.038658 -0.707842 0.951237
-2.009761 -0.698681 0.941253
-2.056711 -0.683526 0.958464
-2.065187 -0.671276 0.961886
-2.054126 -0.660755 0.958297
-2.047871 -0.649877 0.956426
-2.044557 -0.638766 0.955604
-2.044189 -0.627379 0.955832
-2.041152 -0.616310 0.955089
-2.029649 -0.606286 0.951286
-2.039742 -0.593747 0.955236
-2.055519 -0.580406 0.961215
-2.034105 -0.571880 0.953781
-2.038464 -0.560053 0.955602
-2.043671 -0.548105 0.957700
-2.044541 -0.536795 0.958203
-2.031319 -0.527680 0.953590
-2.029981 -0.516886 0.953223
-2.032042 -0.505622 0.954038
-2.032456 -0.494687 0.954215
-2.031675 -0.484035 0.953913
-2.039215 -0.472010 0.956561
-2.035201 -0.462099 0.954989
-2.022320 -0.453972 0.950166
-2.021654 -0.443746 0.949689
-2.021938 -0.433451 0.949496
-2.043030 -0.419124 0.956733
-2.044520 -0.408724 0.956846
-2.050621 -0.397477 0.958553
-2.053840 -0.386920 0.959158
-2.065996 -0.374535 0.962905
-2.068094 -0.364406 0.962972
-2.063512 -0.355903 0.960576
-2.073797 -0.344176 0.963445
-2.102346 -0.328256 0.972776
-2.070994 -0.317486 0.959607
-2.055479 -0.312465 0.953010
-1.980113 -0.322576 0.925065
-1.756049 -2.889468 0.972011
-1.763030 -2.866744 0.974164
-1.744102 -2.832897 0.965704
-1.705209 -2.779601 0.948805
-1.727763 -2.786573 0.957537
-1.721439 -2.749812 0.953212
-1.729620 -2.742102 0.955650
-1.739770 -2.736011 0.958814
-1.717855 -2.699714 0.948555
-1.724609 -2.690229 0.950145
-1.719635 -2.669796 0.946790
-1.755536 -2.686566 0.960285
-1.755621 -2.670411 0.958868
-1.759431 -2.657542 0.958925
-1.744029 -2.627578 0.951012
-1.752784 -2.619036 0.952992
-1.769358 -2.617139 0.958115
-1.771744 -2.602766 0.957364
-1.773925 -2.588199 0.956488
-1.782502 -2.579023 0.958179
-1.785014 -2.564675 0.957363
-1.789936 -2.552329 0.957497
-1.796422 -2.541243 0.958236
-1.791452 -2.520815 0.954326
-1.792221 -2.505152 0.952727
-1.814349 -2.506554 0.959698
-1.809127 -2.486139 0.955668
-1.810403 -2.470965 0.954247
-1.797850 -2.445187 0.947314
-1.818451 -2.445045 0.953603
-1.825220 -2.434220 0.954374
-1.836264 -2.426597 0.956839
-1.823836 -2.401514 0.950026
-1.828271 -2.389101 0.949900
-1.852857 -2.391363 0.957710
-1.862413 -2.382567 0.959601
-1.871975 -2.373747 0.961498
-1.851311 -2.343627 0.951597
-1.844988 -2.323912 0.947345
-1.867685 -2.324401 0.954416
-1.881151 -2.318379 0.957893
-1.889278 -2.308673 0.959308
-1.893054 -2.296058 0.959055
-1.889091 -2.278386 0.955839
-1.894933 -2.267289 0.956431
-1.920094 -2.268709 0.964464
-1.920984 -2.254362 0.963183
-1.925735 -2.242551 0.963405
-1.915072 -2.221129 0.957763
-1.909297 -2.202981 0.954028
-1.918238 -2.194025 0.955928
-1.933904 -2.189120 0.960398
-1.940555 -2.178702 0.961456
-1.926633 -2.156099 0.954747
-1.932718 -2.145496 0.955641
-1.978157 -2.157714 0.971399
-1.939959 -2.121499 0.955631
-1.941373 -2.108311 0.954828
-1.947734 -2.097962 0.955906
-1.950300 -2.085512 0.955579
-1.951380 -2.072299 0.954718
-1.952450 -2.059146 0.953876
-1.940047 -2.038849 0.948030
-1.946855 -2.028943 0.949377
-1.982587 -2.034147 0.961499
-1.981833 -2.020136 0.960052
-1.976036 -2.003632 0.956758
-1.970697 -1.987499 0.953661
-1.977193 -1.977399 0.954968
-1.986239 -1.968544 0.957232
-1.989830 -1.956992 0.957494
-1.995465 -1.946445 0.958526
-2.014294 -1.942155 0.964429
-2.003462 -1.923804 0.959430
-1.997952 -1.908105 0.956414
-2.002881 -1.897299 0.957248
-2.000855 -1.883357 0.955549
-2.005919 -1.872652 0.956463
-2.019227 -1.865569 0.960403
-2.021320 -1.853521 0.960254
-2.010518 -1.835983 0.955419
-2.002692 -1.819878 0.951691
-1.959275 -1.789079 0.935035
-1.951847 -1.773617 0.931508
-1.950909 -1.760918 0.930359
-1.942883 -1.745442 0.926654
-1.954825 -1.737975 0.930205
-1.959750 -1.727693 0.931221
-1.963934 -1.717116 0.931979
-1.989348 -1.714554 0.940419
-2.035480 -1.719467 0.956337
-1.993939 -1.691767 0.940611
-2.006428 -1.684080 0.944398
-2.034494 -1.681840 0.953799
-2.042274 -1.672228 0.955896
-2.033642 -1.656911 0.952101
-2.053905 -1.651538 0.958703
-2.049442 -1.637722 0.956430
-2.032653 -1.619940 0.949752
-2.015338 -1.602205 0.942907
-2.037340 -1.597198 0.950161
-2.055594 -1.590820 0.956073
-2.060775 -1.580264 0.957313
-2.053469 -1.565913 0.954101
-2.061110 -1.556113 0.956239
-2.073662 -1.547698 0.960137
-2.079225 -1.537182 0.961549
-2.036856 -1.513160 0.945894
-2.028490 -1.498998 0.942375
-2.045399 -1.491798 0.947863
-2.050715 -1.481373 0.949232
-2.052175 -1.469918 0.949240
-2.056023 -1.459086 0.950106
-2.064024 -1.449283 0.952455
-2.070327 -1.439008 0.954209
-2.074142 -1.428100 0.955090
-2.067543 -1.414734 0.952291
-2.059083 -1.401034 0.948846
-2.040251 -1.385116 0.941746
-2.043329 -1.374223 0.942413
-2.058933 -1.366010 0.947518
-2.076030 -1.357975 0.953156
-2.089144 -1.348976 0.957393
-2.085723 -1.336572 0.955800
-2.085119 -1.324771 0.955214
-2.066519 -1.309591 0.948292
-2.066597 -1.298060 0.947972
-2.074164 -1.287890 0.950304
-2.055492 -1.273091 0.943401
-2.045454 -1.259958 0.939557
-2.056213 -1.250359 0.943047
-2.083414 -1.243290 0.952333
-2.083362 -1.231760 0.952038
-2.103440 -1.223253 0.958834
-2.091958 -1.210003 0.954544
-2.084782 -1.197482 0.951783
-2.081939 -1.185628 0.950559
-2.085515 -1.174646 0.951603
-2.063247 -1.160418 0.943584
-2.073795 -1.150351 0.947104
-2.078902 -1.139565 0.948726
-2.085772 -1.128933 0.950980
-2.097149 -1.118714 0.954829
-2.099155 -1.107453 0.955403
-2.094953 -1.095587 0.953814
-2.077704 -1.082591 0.947664
-2.055140 -1.069314 0.939667
-2.049106 -1.057593 0.937482
-2.065790 -1.047653 0.943278
-2.093824 -1.038354 0.953069
-2.086787 -1.026473 0.950578
-2.091908 -1.015402 0.952365
-2.105824 -1.004773 0.957253
-2.096499 -0.992818 0.954007
-2.093220 -0.981231 0.952898
-2.087457 -0.969571 0.950933
-2.089548 -0.958249 0.951739
-2.084723 -0.946683 0.950136
-2.087093 -0.935350 0.951074
-2.077209 -0.923721 0.947728
-2.077091 -0.912346 0.947825
-2.082312 -0.901026 0.949812
-2.089493 -0.889660 0.952505
-2.083622 -0.878186 0.950632
-2.085213 -0.866737 0.951395
-2.085315 -0.855273 0.951651
-2.081094 -0.843852 0.950404
-2.086951 -0.832281 0.952715
-2.092405 -0.820648 0.954900
-2.087239 -0.809241 0.953366
-2.083599 -0.797822 0.952381
-2.081445 -0.786371 0.951933
-2.087128 -0.774594 0.954257
-2.091109 -0.762827 0.955996
-2.083175 -0.751634 0.953547
-2.069022 -0.740865 0.948914
-2.066406 -0.729504 0.948356
-2.075020 -0.717402 0.951768
-2.075451 -0.705796 0.952301
-2.077663 -0.694041 0.953469
-2.090690 -0.681364 0.958463
-2.087965 -0.669932 0.957894
-2.084770 -0.658568 0.957157
-2.080294 -0.647361 0.955965
-2.075758 -0.636210 0.954745
-2.069828 -0.625261 0.953024
-2.069590 -0.613741 0.953309
-2.067920 -0.602407 0.953074
-2.069126 -0.590755 0.953844
-2.074358 -0.578603 0.956025
-2.076924 -0.566781 0.957240
-2.068442 -0.556487 0.954509
-2.081002 -0.543321 0.959223
-2.077658 -0.532421 0.958258
-2.079201 -0.520862 0.958996
-2.076214 -0.510060 0.958086
-2.064147 -0.500823 0.953907
-2.061257 -0.490244 0.952946
-2.070399 -0.477710 0.956217
-2.089408 -0.463435 0.962946
-2.069472 -0.456121 0.955777
-2.055338 -0.448015 0.950617
-2.063521 -0.435901 0.953332
-2.079177 -0.422368 0.958641
-2.080953 -0.411575 0.958957
-2.070396 -0.403401 0.954832
-2.067792 -0.393793 0.953468
-2.070854 -0.383136 0.954050
-2.083004 -0.370618 0.957786
-2.085568 -0.350586 0.957353
-2.082708 -0.341719 0.955574
-2.127998 -0.321794 0.970731
-2.117544 -0.314877 0.966132
-2.080028 -0.314718 0.951946
-2.067339 -0.308919 0.946465
-2.107205 -0.290293 0.959402
-1.798826 -2.961885 0.977257
-1.779191 -2.927065 0.968953
-1.749846 -2.822340 0.954485
-1.767481 -2.824072 0.960996
-1.768475 -2.809337 0.960559
-1.745771 -2.771779 0.950297
-1.776215 -2.768799 0.960663
-1.766723 -2.743737 0.955586
-1.762199 -2.723339 0.952473
-1.767756 -2.712188 0.953404
-1.791625 -2.700935 0.960222
-1.783223 -2.676810 0.955263
-1.780512 -2.657833 0.952565
-1.784234 -2.644523 0.952421
-1.793363 -2.635847 0.954405
-1.801351 -2.626051 0.955874
-1.813866 -2.620004 0.959112
-1.827190 -2.614468 0.962622
-1.804096 -2.578349 0.951529
-1.814932 -2.570716 0.953986
-1.819267 -2.557646 0.953821
-1.829463 -2.549328 0.955964
-1.840757 -2.541805 0.958515
-1.846197 -2.529533 0.958729
-1.854206 -2.519287 0.959947
-1.868998 -2.514292 0.963820
-1.866038 -2.495477 0.960710
-1.842463 -2.461079 0.949549
-1.868126 -2.464352 0.957665
-1.871487 -2.450663 0.957064
-1.873278 -2.435871 0.955864
-1.870175 -2.417581 0.952782
-1.868070 -2.400176 0.950113
-1.888419 -2.399030 0.956136
-1.882292 -2.378895 0.951951
-1.894534 -2.371876 0.954859
-1.899746 -2.359905 0.955078
-1.910954 -2.352100 0.957607
-1.907715 -2.334410 0.954631
-1.925927 -2.331335 0.959859
-1.920943 -2.312650 0.956268
-1.951530 -2.317612 0.966208
-1.960914 -2.308419 0.968102
-1.952482 -2.287702 0.963279
-1.959212 -2.276895 0.964215
-1.945970 -2.253483 0.957652
-1.942618 -2.236538 0.954852
-1.940897 -2.220749 0.952697
-1.935340 -2.202739 0.949136
-1.951207 -2.197863 0.953617
-1.970673 -2.195028 0.959447
-1.978755 -2.185294 0.961039
-1.987910 -2.176176 0.963047
-1.997952 -2.167545 0.965400
-1.995986 -2.152000 0.963316
-1.983403 -2.130561 0.957333
-1.987650 -2.118788 0.957608
-2.004540 -2.114040 0.962565
-1.987838 -2.090787 0.955157
-2.023093 -2.095920 0.966896
-2.015992 -2.078053 0.963069
-1.995252 -2.053147 0.954273
-2.006107 -2.045069 0.957088
-1.998147 -2.027223 0.953035
-2.002591 -2.015872 0.953541
-2.016099 -2.009106 0.957369
-2.017438 -1.996186 0.956773
-2.014828 -1.981376 0.954760
-2.017118 -1.969045 0.954550
-2.027688 -1.960726 0.957360
-2.035256 -1.950921 0.959092
-2.029320 -1.934768 0.955950
-2.025277 -1.919622 0.953516
-2.024761 -1.906191 0.952376
-2.042636 -1.901114 0.957886
-2.040422 -1.886949 0.956162
-2.047426 -1.876914 0.957774
-2.048255 -1.864178 0.957177
-2.044323 -1.849449 0.954887
-2.033398 -1.831867 0.950107
-1.977607 -1.795781 0.929276
-1.950592 -1.772193 0.918801
-1.947704 -1.758730 0.916986
-1.946362 -1.745964 0.915739
-1.946750 -1.733940 0.915124
-1.959099 -1.726601 0.918786
-1.972608 -1.719614 0.922866
-2.007090 -1.720434 0.934414
-2.063505 -1.729073 0.953750
-2.020844 -1.700840 0.937870
-2.041275 -1.695885 0.944421
-2.068455 -1.693148 0.953365
-2.075677 -1.683170 0.955234
-2.061592 -1.665812 0.949567
-2.067732 -1.655507 0.951075
-2.071698 -1.644449 0.951823
-2.078173 -1.634211 0.953467
-2.080625 -1.622641 0.953698
-2.084921 -1.611667 0.954591
-2.091051 -1.601258 0.956138
-2.077655 -1.584820 0.950819
-2.083113 -1.574252 0.952151
-2.080366 -1.561227 0.950607
-2.090012 -1.551875 0.953429
-2.096532 -1.541561 0.955160
-2.102434 -1.531038 0.956682
-2.067911 -1.509336 0.944037
-2.072082 -1.498495 0.944977
-2.074469 -1.487168 0.945302
-2.076935 -1.475866 0.945664
-2.086821 -1.466461 0.948631
-2.092360 -1.455896 0.950084
-2.098979 -1.445567 0.951924
-2.099166 -1.433656 0.951525
-2.094771 -1.420694 0.949539
-2.092882 -1.408380 0.948439
-2.085742 -1.394931 0.945519
-2.086622 -1.383340 0.945408
-2.096661 -1.373727 0.948497
-2.102865 -1.363234 0.950258
-2.105095 -1.351890 0.950646
-2.118520 -1.342776 0.954937
-2.112558 -1.329785 0.952496
-2.088252 -1.313406 0.943696
-2.095629 -1.303124 0.945917
-2.093634 -1.291111 0.944894
-2.096143 -1.279920 0.945446
-2.072972 -1.264379 0.937101
-2.092577 -1.256110 0.943608
-2.107381 -1.246900 0.948456
-2.109717 -1.235635 0.948994
-2.112948 -1.224496 0.949853
-2.128364 -1.215100 0.954943
-2.127780 -1.203335 0.954504
-2.123833 -1.191136 0.952914
-2.124694 -1.179613 0.953002
-2.121959 -1.167645 0.951859
-2.096070 -1.152942 0.942722
-2.093910 -1.141230 0.941807
-2.116321 -1.132248 0.949401
-2.112591 -1.120310 0.947971
-2.128482 -1.110381 0.953335
-2.125540 -1.098510 0.952205
-2.111049 -1.085630 0.947100
-2.128616 -1.075637 0.953085
-2.103611 -1.062047 0.944378
-2.125442 -1.052248 0.951866
-2.134244 -1.041316 0.954868
-2.113611 -1.028360 0.947718
-2.118029 -1.017135 0.949237
-2.124699 -1.005992 0.951549
-2.115530 -0.993971 0.948407
-2.116141 -0.982491 0.948658
-2.127480 -0.971446 0.952632
-2.119803 -0.959591 0.950053
-2.112852 -0.947829 0.947741
-2.101239 -0.936005 0.943834
-2.137427 -0.925331 0.956463
-2.125868 -0.913486 0.952608
-2.131928 -0.901958 0.954860
-2.129926 -0.890303 0.954341
-2.117792 -0.878636 0.950334
-2.118641 -0.867041 0.950833
-2.118741 -0.855432 0.951090
-2.113150 -0.843881 0.949392
-2.125255 -0.832063 0.953837
-2.122614 -0.820442 0.953193
-2.103394 -0.809289 0.946818
-2.105225 -0.797630 0.947750
-2.123554 -0.785323 0.954418
-2.122009 -0.773661 0.954210
-2.122464 -0.761905 0.954709
-2.119510 -0.750308 0.954036
-2.106761 -0.739288 0.949972
-2.107491 -0.727544 0.950598
-2.105076 -0.715991 0.950139
-2.107703 -0.704088 0.951442
-2.104832 -0.692573 0.950839
-2.117695 -0.679785 0.955718
-2.118632 -0.667903 0.956450
-2.106519 -0.657212 0.952635
-2.114606 -0.644675 0.955860
-2.113075 -0.633043 0.955729
-2.106077 -0.622017 0.953684
-2.103006 -0.610629 0.953001
-2.095712 -0.599779 0.950830
-2.098718 -0.587759 0.952245
-2.096178 -0.576436 0.951706
-2.104177 -0.563771 0.954833
-2.109771 -0.551389 0.957099
-2.107459 -0.540112 0.956573
-2.108616 -0.528393 0.957232
-2.101105 -0.518030 0.954824
-2.104633 -0.506065 0.956246
-2.101356 -0.495230 0.955245
-2.090166 -0.485816 0.951429
-2.099685 -0.473037 0.954825
-2.102403 -0.461450 0.955789
-2.094292 -0.451886 0.952906
-2.089578 -0.441866 0.951161
-2.099828 -0.429149 0.954604
-2.110820 -0.416304 0.958246
-2.109962 -0.405837 0.957675
-2.101943 -0.396959 0.954536
-2.095005 -0.388055 0.951715
-2.095899 -0.377679 0.951570
-2.107089 -0.365200 0.954958
-2.097315 -0.357399 0.950955
-2.095382 -0.348058 0.949627
-2.140982 -0.327977 0.964806
-2.124898 -0.322072 0.958407
-2.109826 -0.316206 0.952307
-2.089914 -0.311780 0.944473
-2.111551 -0.297472 0.951015
-2.023339 -0.310503 0.919399
-1.778994 -2.911274 0.955506
-1.795383 -2.881585 0.960628
-1.825537 -2.895405 0.972151
-1.810285 -2.864467 0.965165
-1.805676 -2.843895 0.962406
-1.783447 -2.790266 0.951385
-1.803211 -2.742850 0.954297
-1.817364 -2.738989 0.958519
-1.817872 -2.722579 0.957203
-1.808246 -2.697098 0.951785
-1.810589 -2.682327 0.951095
-1.814383 -2.668784 0.950929
-1.818789 -2.655715 0.950958
-1.837835 -2.655160 0.956734
-1.862020 -2.658692 0.964474
-1.864400 -2.643507 0.963555
-1.862550 -2.624807 0.960946
-1.851332 -2.598461 0.954650
-1.843050 -2.574766 0.949510
-1.854555 -2.567300 0.952097
-1.878442 -2.569657 0.959481
-1.881498 -2.555191 0.958727
-1.884685 -2.540874 0.958022
-1.890313 -2.528506 0.958261
-1.898137 -2.517845 0.959345
-1.903759 -2.505493 0.959580
-1.904673 -2.489613 0.958012
-1.908154 -2.475751 0.957442
-1.911024 -2.461500 0.956650
-1.909817 -2.444341 0.954320
-1.915204 -2.432092 0.954522
-1.909743 -2.412108 0.950621
-1.915688 -2.400414 0.951073
-1.922340 -2.389246 0.951807
-1.935804 -2.382829 0.955126
-1.949119 -2.376233 0.958393
-1.964272 -2.370814 0.962358
-1.961683 -2.353356 0.959678
-1.963345 -2.338882 0.958622
-1.953827 -2.317133 0.953419
-1.966236 -2.309923 0.956425
-1.978189 -2.302357 0.959273
-1.982666 -2.289966 0.959358
-1.970602 -2.267182 0.953341
-1.965284 -2.248881 0.949863
-1.991471 -2.250212 0.958043
-1.991917 -2.235568 0.956737
-1.986476 -2.217462 0.953293
-1.991402 -2.205722 0.953689
-2.011538 -2.203005 0.959679
-2.010837 -2.187937 0.958048
-2.011954 -2.174022 0.957109
-2.024582 -2.166765 0.960392
-2.024640 -2.152329 0.959109
-2.030628 -2.141295 0.960007
-2.039349 -2.131780 0.961915
-2.041760 -2.118792 0.961552
-2.041328 -2.104320 0.960181
-2.040820 -2.089893 0.958806
-2.042743 -2.076834 0.958332
-2.008719 -2.045079 0.944928
-2.024678 -2.039578 0.949562
-2.032198 -2.029656 0.951170
-2.055909 -2.027864 0.958601
-2.058850 -2.015527 0.958588
-2.044972 -1.994960 0.952572
-2.044768 -1.981262 0.951477
-2.059884 -1.974977 0.955870
-2.055391 -1.959291 0.953277
-2.054185 -1.945259 0.951877
-2.063980 -1.936382 0.954409
-2.070953 -1.926164 0.955948
-2.069554 -1.912155 0.954527
-2.071602 -1.899752 0.954347
-2.072644 -1.886940 0.953825
-2.073309 -1.874009 0.953185
-2.080953 -1.864106 0.955027
-2.046290 -1.836333 0.941942
-1.987870 -1.799124 0.920518
-1.964092 -1.776836 0.911356
-1.953760 -1.760304 0.906958
-1.946056 -1.744983 0.903503
-1.945848 -1.732743 0.902701
-1.951450 -1.722805 0.903951
-1.984664 -1.723408 0.914893
-2.037310 -1.731013 0.932634
-2.076578 -1.733113 0.945671
-2.105643 -1.731092 0.955129
-2.093019 -1.713766 0.950014
-2.101933 -1.704269 0.952440
-2.102644 -1.691847 0.952010
-2.098813 -1.677895 0.950008
-2.087455 -1.661472 0.945399
-2.099939 -1.653164 0.949105
-2.108635 -1.643517 0.951499
-2.116966 -1.633697 0.953772
-2.121889 -1.622744 0.954869
-2.122780 -1.610516 0.954575
-2.110629 -1.594311 0.949770
-2.104205 -1.579998 0.946967
-2.109499 -1.569261 0.948234
-2.109675 -1.557011 0.947738
-2.125870 -1.549374 0.952792
-2.126976 -1.537364 0.952635
-2.147413 -1.530703 0.959164
-2.112643 -1.508934 0.946643
-2.105427 -1.494863 0.943650
-2.115932 -1.485506 0.946778
-2.120201 -1.474480 0.947764
-2.123252 -1.463135 0.948339
-2.122711 -1.450909 0.947688
-2.118978 -1.437952 0.945950
-2.120170 -1.426215 0.945917
-2.117562 -1.413620 0.944587
-2.136018 -1.405802 0.950501
-2.139020 -1.394435 0.951117
-2.135005 -1.381560 0.949335
-2.142429 -1.371142 0.951487
-2.155909 -1.361909 0.955723
-2.138621 -1.346439 0.949428
-2.142660 -1.335303 0.950450
-2.132647 -1.321493 0.946673
-2.113877 -1.306192 0.939916
-2.117942 -1.295187 0.940981
-2.115721 -1.283067 0.939910
-2.124897 -1.272915 0.942743
-2.133721 -1.262632 0.945466
-2.130161 -1.250309 0.943971
-2.131068 -1.238726 0.944014
-2.130933 -1.226995 0.943712
-2.161287 -1.219681 0.953822
-2.161751 -1.207915 0.953747
-2.151369 -1.194701 0.949987
-2.155629 -1.183499 0.951232
-2.144453 -1.170344 0.947230
-2.134220 -1.157422 0.943564
-2.124687 -1.144693 0.940152
-2.150437 -1.135944 0.948768
-2.154789 -1.124705 0.950110
-2.150956 -1.112612 0.948679
-2.148908 -1.100734 0.947871
-2.150671 -1.089226 0.948374
-2.149953 -1.077495 0.948047
-2.151501 -1.065957 0.948507
-2.167453 -1.055499 0.953881
-2.162199 -1.043385 0.952056
-2.159898 -1.031520 0.951251
-2.147758 -1.019076 0.947115
-2.143785 -1.007210 0.945772
-2.153198 -0.996068 0.949000
-2.155640 -0.984509 0.949872
-2.153458 -0.972730 0.949187
-2.153049 -0.961033 0.949121
-2.158960 -0.949536 0.951223
-2.150121 -0.937579 0.948321
-2.157348 -0.926055 0.950905
-2.161110 -0.914392 0.952326
-2.154028 -0.902553 0.950072
-2.156607 -0.890843 0.951123
-2.154743 -0.879086 0.950678
-2.156859 -0.867327 0.951606
-2.173553 -0.855426 0.957521
-2.159940 -0.843723 0.953120
-2.156643 -0.831963 0.952252
-2.132355 -0.820688 0.944237
-2.151045 -0.808470 0.950901
-2.133401 -0.797220 0.945179
-2.185041 -0.783559 0.963132
-2.174688 -0.771979 0.959930
-2.146964 -0.761304 0.950800
-2.153599 -0.749102 0.953426
-2.150960 -0.737348 0.952892
-2.126842 -0.726937 0.945016
-2.157396 -0.713093 0.955867
-2.146861 -0.701888 0.952657
-2.149710 -0.689747 0.954039
-2.151227 -0.677676 0.954972
-2.137709 -0.666891 0.950750
-2.139146 -0.654859 0.951660
-2.140879 -0.642781 0.952674
-2.152076 -0.629720 0.956939
-2.134395 -0.619639 0.951274
-2.119233 -0.609459 0.946464
-2.120801 -0.597482 0.947399
-2.119478 -0.585857 0.947327
-2.120380 -0.573981 0.948007
-2.127011 -0.561364 0.950646
-2.139837 -0.547861 0.955401
-2.135573 -0.536691 0.954242
-2.123915 -0.526691 0.950503
-2.133154 -0.513681 0.953944
-2.132465 -0.502190 0.953926
-2.141846 -0.489141 0.957348
-2.130723 -0.479480 0.953648
-2.127817 -0.468594 0.952743
-2.119523 -0.458767 0.949928
-2.114610 -0.448497 0.948232
-2.115455 -0.437302 0.948473
-2.119574 -0.425580 0.949790
-2.125361 -0.413604 0.951625
-2.128036 -0.402311 0.952325
-2.133874 -0.390472 0.954054
-2.131292 -0.380461 0.952814
-2.139052 -0.368408 0.955077
-2.133377 -0.359338 0.952641
-2.116592 -0.352916 0.946317
-2.119755 -0.342285 0.946800
-2.168372 -0.321344 0.962843
-2.134017 -0.319535 0.950290
-2.154937 -0.295556 0.955786
-2.161340 -0.284672 0.957038
-2.226910 -0.259147 0.978457
-1.864659 -2.981135 0.976204
-1.854061 -2.954542 0.971404
-1.844618 -2.912877 0.966224
-1.848059 -2.899862 0.966750
-1.874543 -2.892007 0.975314
-1.835029 -2.820833 0.957310
-1.836578 -2.805430 0.956656
-1.838266 -2.790055 0.955980
-1.847998 -2.781948 0.958405
-1.842812 -2.742964 0.953331
-1.842283 -2.725332 0.951524
-1.841622 -2.707580 0.949615
-1.846069 -2.694303 0.949658
-1.850758 -2.681176 0.949748
-1.868023 -2.678778 0.954687
-1.884385 -2.675365 0.959216
-1.900194 -2.671266 0.963478
-1.893473 -2.648202 0.958986
-1.895125 -2.632220 0.957720
-1.895198 -2.614996 0.955832
-1.899472 -2.601248 0.955549
-1.910051 -2.592569 0.957670
-1.916123 -2.580243 0.958052
-1.915131 -2.562380 0.955736
-1.919053 -2.548455 0.955297
-1.922797 -2.534440 0.954795
-1.929395 -2.522652 0.955379
-1.933155 -2.508740 0.954897
-1.936812 -2.494811 0.954387
-1.943430 -2.483131 0.955002
