ply
format ascii 1.0
comment ---
element vertex 1712
property float x
property float y
property float z
element face 0
property list uchar uint vertex_indices
end_header
-0.958070 2.555809 0.213205
-0.942015 2.471342 0.190199
-0.927452 2.458135 0.186000
-0.913065 2.454586 0.184337
-0.898713 2.452002 0.182916
-0.884374 2.452453 0.182280
-0.870074 2.448238 0.180403
-0.855724 2.450404 0.180188
-0.841299 2.455441 0.180708
-0.827180 2.445307 0.177239
-0.813174 2.434471 0.173575
-0.798743 2.439538 0.174057
-0.784498 2.438268 0.172865
-0.770968 2.420288 0.167301
-0.757096 2.413058 0.164530
-0.742347 2.423907 0.166448
-0.728730 2.412806 0.162640
-0.714096 2.419840 0.163526
-0.700270 2.413476 0.160917
-0.685816 2.416687 0.160772
-0.671159 2.422008 0.161152
-0.657185 2.418042 0.159111
-0.642814 2.419015 0.158326
-0.629315 2.410012 0.154953
-0.615221 2.408019 0.153368
-0.600960 2.407732 0.152203
-0.587927 2.395509 0.147957
-0.573973 2.392636 0.146092
-0.558986 2.398897 0.146544
-0.544913 2.396764 0.144826
-0.530949 2.393729 0.142860
-0.516934 2.391140 0.140988
-0.503095 2.387232 0.138761
-0.488534 2.388652 0.137867
-0.474253 2.387824 0.136381
-0.458737 2.395233 0.136955
-0.443546 2.399852 0.136797
-0.432978 2.374637 0.129102
-0.418956 2.372039 0.127093
-0.405307 2.367188 0.124500
-0.389996 2.372092 0.124334
-0.376612 2.365665 0.121311
-0.362323 2.364392 0.119561
-0.347988 2.363269 0.117831
-0.332842 2.366264 0.117106
-0.319352 2.360548 0.114202
-0.305597 2.356272 0.111645
-0.290078 2.360595 0.111200
-0.263243 2.418017 0.123819
-0.233042 2.488194 0.139501
-0.212135 2.513175 0.144012
-0.191252 2.536835 0.148166
-0.182428 2.507349 0.139308
-0.159937 2.536737 0.144826
-0.138715 2.559581 0.148721
-0.119808 2.572065 0.150080
-0.105979 2.563854 0.146421
-0.091364 2.559003 0.143591
-0.077048 2.553195 0.140549
-0.062177 2.549703 0.138087
-0.047042 2.547350 0.135923
-0.032120 2.544372 0.133638
-0.016033 2.545716 0.132419
-0.001390 2.542094 0.130049
0.014057 2.541479 0.128439
0.027001 2.532620 0.124914
0.043757 2.536845 0.124551
0.057970 2.532863 0.122296
0.072652 2.530734 0.120542
0.079029 2.502730 0.112747
0.041540 2.296263 0.062025
0.052675 2.288121 0.059219
0.068303 2.293883 0.059756
0.085709 2.305033 0.061632
0.104558 2.320402 0.064572
0.119085 2.323386 0.064691
0.131127 2.319675 0.063331
0.132057 2.285532 0.054948
0.149486 2.297961 0.057541
0.177474 2.304708 0.058764
0.199199 2.329076 0.064412
0.270364 2.385490 0.078333
-3.363742 2.654402 0.221820
-3.373576 2.714557 0.234421
-3.337503 2.715599 0.232154
-3.333012 2.734982 0.236024
-3.281373 2.690243 0.223556
-3.255001 2.706615 0.226104
-3.090499 2.639621 0.206696
-3.070335 2.639203 0.206569
-3.047238 2.634552 0.205457
-3.040693 2.654947 0.210827
-3.034390 2.676227 0.216512
-3.016397 2.680039 0.217821
-2.990193 2.671259 0.215992
-2.962086 2.659391 0.213443
-2.936910 2.651988 0.212098
-2.913049 2.646578 0.211322
-2.896448 2.652820 0.213583
-2.877859 2.655945 0.215098
-2.855263 2.652499 0.214971
-2.835131 2.653060 0.215910
-2.820719 2.663233 0.219354
-2.802606 2.667249 0.221246
-2.784200 2.670768 0.223035
-2.764758 2.672467 0.224375
-2.734758 2.655496 0.220907
-2.711444 2.649940 0.220391
-2.690006 2.647508 0.220686
-2.661397 2.631822 0.217546
-2.640295 2.629458 0.217852
-2.635798 2.657829 0.226134
-2.612061 2.650428 0.225124
-2.581056 2.628825 0.220404
-2.561206 2.628062 0.221089
-2.542369 2.629077 0.222223
-2.525180 2.633188 0.224150
-2.503811 2.628857 0.223855
-2.479672 2.618631 0.221997
-2.462415 2.622050 0.223686
-2.442739 2.620346 0.224012
-2.418205 2.608218 0.221582
-2.400032 2.609098 0.222537
-2.380034 2.605882 0.222394
-2.356584 2.594874 0.220175
-2.340992 2.600714 0.222362
-2.327137 2.610381 0.225534
-2.309828 2.612296 0.226642
-2.288445 2.604730 0.225225
-2.270809 2.605467 0.225971
-2.250068 2.598733 0.224720
-2.228417 2.589457 0.222769
-2.207315 2.581068 0.221025
-2.189367 2.579982 0.221186
-2.166969 2.567643 0.218344
-2.153456 2.577119 0.221252
-2.135511 2.575380 0.221166
-2.118218 2.575095 0.221443
-2.099889 2.571905 0.220925
-2.079532 2.563049 0.218881
-2.063945 2.566635 0.220114
-2.047736 2.568451 0.220856
-2.030041 2.566018 0.220447
-2.010136 2.557108 0.218298
-1.994756 2.560716 0.219451
-1.978662 2.562191 0.220017
-1.960382 2.557095 0.218817
-1.940713 2.547506 0.216402
-1.924346 2.547513 0.216517
-1.910104 2.553943 0.218321
-1.892963 2.551297 0.217694
-1.875996 2.548967 0.217132
-1.862289 2.557005 0.219309
-1.860948 2.606085 0.232381
-1.904771 2.808742 0.286269
-1.893613 2.830034 0.291918
-1.841357 2.829735 0.291692
-1.825420 2.834756 0.292944
-1.737875 2.828552 0.290636
-1.726000 2.850018 0.296159
-1.715931 2.879871 0.303891
-1.698305 2.878204 0.303238
-1.678329 2.865928 0.299756
-1.662820 2.873114 0.301424
-1.648678 2.886792 0.304799
-1.630720 2.882917 0.303505
-1.611757 2.873835 0.300816
-1.595757 2.878850 0.301852
-1.582343 2.897100 0.306380
-1.563714 2.888947 0.303899
-1.545737 2.883702 0.302177
-1.526238 2.869667 0.298117
-1.508738 2.865975 0.296783
-1.493147 2.873001 0.298272
-1.474017 2.859151 0.294229
-1.457296 2.859127 0.293830
-1.440210 2.856628 0.292765
-1.422072 2.846942 0.289793
-1.405779 2.848918 0.289887
-1.389001 2.847487 0.289069
-1.373109 2.852201 0.289861
-1.356041 2.848285 0.288366
-1.338264 2.838411 0.285291
-1.320156 2.824940 0.281262
-1.304076 2.827242 0.281372
-1.286727 2.818467 0.278558
-1.270820 2.821926 0.278949
-1.255184 2.828114 0.280044
-1.238567 2.824916 0.278662
-1.221105 2.812351 0.274812
-1.204032 2.802586 0.271688
-1.188005 2.803759 0.271420
-1.172322 2.809151 0.272244
-1.156585 2.814335 0.272998
-1.140244 2.811554 0.271657
-1.123688 2.804956 0.269307
-1.107282 2.799591 0.267268
-1.091224 2.799212 0.266518
-1.074644 2.788617 0.263093
-1.058373 2.782186 0.260744
-1.042565 2.784923 0.260768
-1.026437 2.779716 0.258712
-1.010126 2.767364 0.254789
-0.994264 2.766323 0.253792
-0.978068 2.750715 0.249004
-0.960613 2.661855 0.225227
-0.942984 2.503119 0.183388
-0.928047 2.465249 0.172870
-0.913616 2.455669 0.169665
-0.899280 2.455117 0.168781
-0.884990 2.445395 0.165517
-0.870741 2.441463 0.163735
-0.856435 2.444201 0.163657
-0.842104 2.446870 0.163544
-0.827583 2.456538 0.165212
-0.813586 2.444096 0.161185
-0.798974 2.453927 0.162857
-0.784617 2.454357 0.162099
-0.771581 2.423172 0.153240
-0.757168 2.427529 0.153460
-0.743432 2.417834 0.150075
-0.729184 2.418696 0.149368
-0.715133 2.416044 0.147748
-0.701146 2.412661 0.145925
-0.686095 2.424638 0.147984
-0.672106 2.420831 0.146015
-0.658429 2.413419 0.143116
-0.644326 2.411684 0.141637
-0.630019 2.412240 0.140719
-0.616232 2.407060 0.138333
-0.601785 2.408854 0.137686
-0.588252 2.401509 0.134720
-0.575404 2.388341 0.130276
-0.560832 2.391284 0.129859
-0.545681 2.398696 0.130537
-0.533021 2.385121 0.125944
-0.518943 2.383466 0.124313
-0.503885 2.389128 0.124484
-0.489472 2.389526 0.123320
-0.474590 2.393000 0.122897
-0.460094 2.393440 0.121698
-0.446016 2.390933 0.119748
-0.432320 2.385962 0.117172
-0.419658 2.374727 0.113036
-0.404640 2.378092 0.112478
-0.391159 2.372148 0.109614
-0.377970 2.364713 0.106370
-0.363461 2.364779 0.104948
-0.348680 2.366143 0.103824
-0.333672 2.368469 0.102916
-0.319620 2.365654 0.100740
-0.306622 2.357604 0.097283
-0.288827 2.373053 0.099504
-0.268803 2.398199 0.104038
-0.223042 2.541057 0.136883
-0.200071 2.574363 0.143243
-0.186826 2.563115 0.138879
-0.173936 2.550729 0.134250
-0.158584 2.549206 0.132225
-0.139495 2.563171 0.133892
-0.122896 2.566416 0.133001
-0.106526 2.568594 0.131862
-0.090447 2.569538 0.130440
-0.075925 2.564505 0.127621
-0.061238 2.560308 0.125024
-0.047125 2.554207 0.122008
-0.032373 2.550711 0.119638
-0.016976 2.549731 0.117893
-0.001760 2.548275 0.116076
0.011979 2.541943 0.113166
0.026632 2.539078 0.111116
0.041793 2.538185 0.109580
0.054753 2.530353 0.106493
0.069140 2.527596 0.104649
0.080344 2.515121 0.100628
0.052539 2.338017 0.057764
0.052547 2.295865 0.047206
0.065797 2.294724 0.046178
0.085298 2.312334 0.049538
0.101569 2.320453 0.050795
0.139353 2.390315 0.066291
0.139318 2.351876 0.057039
0.144703 2.329930 0.051665
0.143475 2.256172 0.034364
0.205829 2.356580 0.057290
0.223144 2.305890 0.046281
0.263042 2.377451 0.063054
-3.325100 2.707208 0.212386
-3.306640 2.707291 0.211256
-3.311635 2.739902 0.218399
-3.279024 2.721155 0.212761
-3.241092 2.694923 0.205371
-3.186563 2.699984 0.204858
-3.095762 2.653953 0.192564
-3.071033 2.646662 0.190684
-3.053113 2.649604 0.191456
-3.049599 2.674542 0.197814
-3.036440 2.685361 0.200737
-3.014486 2.682947 0.200441
-2.990317 2.677137 0.199377
-2.963020 2.666379 0.197149
-2.934853 2.654089 0.194604
-2.916450 2.657256 0.195989
-2.899012 2.662080 0.197849
-2.875805 2.657569 0.197423
-2.850085 2.648802 0.195972
-2.832251 2.653005 0.197819
-2.818223 2.663689 0.201335
-2.802522 2.671688 0.204211
-2.783896 2.674742 0.205870
-2.761645 2.671451 0.205951
-2.738349 2.666147 0.205537
-2.715333 2.661114 0.205201
-2.689676 2.651080 0.203603
-2.669455 2.650606 0.204428
-2.646717 2.645334 0.204034
-2.620636 2.633559 0.201982
-2.605574 2.642145 0.205099
-2.576627 2.624263 0.201469
-2.562626 2.634657 0.205030
-2.544862 2.637770 0.206724
-2.523002 2.632677 0.206307
-2.505068 2.635134 0.207803
-2.482868 2.628825 0.207037
-2.462921 2.626791 0.207344
-2.439420 2.617145 0.205675
-2.413757 2.602531 0.202704
-2.401974 2.616862 0.207145
-2.385590 2.621457 0.209064
-2.357960 2.601463 0.204629
-2.344873 2.612859 0.208251
-2.325922 2.611250 0.208498
-2.301051 2.595998 0.205198
-2.282082 2.593693 0.205212
-2.261918 2.588357 0.204416
-2.244901 2.590098 0.205424
-2.226079 2.587388 0.205255
-2.204845 2.578586 0.203482
-2.179496 2.559279 0.198958
-2.165374 2.567135 0.201449
-2.151941 2.576762 0.204378
-2.134898 2.577259 0.204914
-2.117637 2.577023 0.205236
-2.100296 2.576394 0.205432
-2.081346 2.571280 0.204439
-2.065080 2.573094 0.205223
-2.046643 2.568835 0.204406
-2.027736 2.562970 0.203147
-2.008961 2.557132 0.201872
-1.993472 2.560365 0.202938
-1.978299 2.564454 0.204205
-1.960174 2.559773 0.203168
-1.941054 2.551796 0.201251
-1.923812 2.549134 0.200698
-1.910004 2.556867 0.202834
-1.893893 2.557441 0.203086
-1.876834 2.554837 0.202491
-1.863429 2.563890 0.204916
-1.916569 2.851866 0.280080
-1.908362 2.883966 0.288463
-1.881669 2.852531 0.280261
-1.853174 2.813390 0.270031
-1.850228 2.865089 0.283469
-1.741256 2.845284 0.277698
-1.728401 2.862937 0.282139
-1.718218 2.892490 0.289663
-1.694748 2.865694 0.282495
-1.677355 2.864423 0.281960
-1.663562 2.879210 0.285590
-1.649766 2.894506 0.289336
-1.628050 2.872900 0.283466
-1.610972 2.872563 0.283117
-1.598370 2.894270 0.288485
-1.578927 2.882111 0.285034
-1.561716 2.880823 0.284396
-1.543200 2.872323 0.281873
-1.525888 2.869829 0.280896
-1.510868 2.879988 0.283191
-1.491706 2.866513 0.279340
-1.473712 2.859081 0.277046
-1.456562 2.856243 0.275933
-1.438295 2.845988 0.272885
-1.420950 2.840959 0.271181
-1.403460 2.834468 0.269087
-1.388680 2.846308 0.271725
-1.372751 2.850511 0.272373
-1.356191 2.850130 0.271823
-1.338860 2.843571 0.269665
-1.320936 2.831557 0.266088
-1.303727 2.824416 0.263759
-1.287204 2.822511 0.262771
-1.271767 2.830180 0.264239
-1.255993 2.835174 0.265003
-1.239644 2.834722 0.264351
-1.221977 2.820214 0.260071
-1.204431 2.805344 0.255689
-1.187867 2.800107 0.253775
-1.172267 2.805984 0.254704
-1.156885 2.815268 0.256492
-1.140378 2.809861 0.254497
-1.123228 2.793875 0.249780
-1.108369 2.812200 0.253841
-1.092058 2.808012 0.252121
-1.075309 2.794534 0.248014
-1.059207 2.791726 0.246624
-1.042988 2.785366 0.244314
-1.026574 2.772151 0.240245
-1.010627 2.768880 0.238701
-0.994801 2.768517 0.237884
-0.978592 2.751923 0.232923
-0.959432 2.575202 0.187252
-0.943228 2.485670 0.163790
-0.928660 2.474988 0.160360
-0.914150 2.455630 0.154722
-0.899833 2.451766 0.153001
-0.885532 2.453033 0.152566
-0.871387 2.435262 0.147303
-0.857197 2.433159 0.145990
-0.842689 2.449425 0.149294
-0.828214 2.457529 0.150518
-0.813701 2.464087 0.151331
-0.799775 2.450535 0.147068
-0.785161 2.458781 0.148270
-0.771091 2.452058 0.145694
-0.757667 2.432670 0.139932
-0.743796 2.425420 0.137201
-0.729738 2.422578 0.135557
-0.714957 2.431907 0.136935
-0.701728 2.416036 0.132006
-0.685557 2.444013 0.137982
-0.672510 2.426646 0.132649
-0.658871 2.418585 0.129618
-0.644537 2.419490 0.128795
-0.631182 2.409152 0.125167
-0.617561 2.402513 0.122441
-0.603293 2.402886 0.121429
-0.590259 2.391128 0.117407
-0.576030 2.391258 0.116297
-0.561116 2.397249 0.116606
-0.547511 2.391470 0.114002
-0.534980 2.377216 0.109305
-0.519918 2.383690 0.109666
-0.503638 2.398714 0.112085
-0.489469 2.397110 0.110420
-0.475680 2.392759 0.108066
-0.461322 2.392387 0.106660
-0.447446 2.388680 0.104425
-0.433457 2.385745 0.102359
-0.418116 2.391186 0.102296
-0.404157 2.387825 0.100088
-0.392548 2.370770 0.094571
-0.379398 2.363242 0.091337
-0.363770 2.369639 0.091426
-0.349336 2.369124 0.089839
-0.333688 2.374841 0.089722
-0.320066 2.369789 0.087022
-0.306262 2.365748 0.084552
-0.292538 2.361389 0.081999
-0.269555 2.401025 0.089838
-0.224278 2.542013 0.121528
-0.202029 2.572246 0.127001
-0.185820 2.574301 0.125822
-0.171877 2.566366 0.122298
-0.156363 2.565365 0.120402
-0.141056 2.563495 0.118308
-0.125293 2.563522 0.116665
-0.108034 2.569495 0.116412
-0.090842 2.574977 0.116052
-0.075773 2.572130 0.113781
-0.061277 2.567280 0.111072
-0.046903 2.562227 0.108349
-0.032728 2.556721 0.105558
-0.017189 2.556378 0.103992
-0.002295 2.553925 0.101984
0.013682 2.555442 0.100930
0.026755 2.547268 0.097719
0.040774 2.542717 0.095394
0.053428 2.534075 0.092204
0.065333 2.523542 0.088657
0.075383 2.507727 0.083992
0.038562 2.303185 0.035897
0.045106 2.281529 0.030224
0.058213 2.280441 0.029271
0.078612 2.301235 0.033322
0.113982 2.365395 0.047194
0.139760 2.362382 0.045667
0.145476 2.341445 0.040681
0.145833 2.272038 0.024817
0.227017 2.389716 0.051448
-3.303835 2.686779 0.189886
-3.300683 2.733019 0.198965
-3.133388 2.687005 0.183174
-3.106078 2.675841 0.180242
-3.081314 2.668452 0.178335
-3.057741 2.662884 0.176973
-3.039851 2.665983 0.177823
-3.024228 2.672750 0.179660
-3.007876 2.678645 0.181374
-2.987048 2.677781 0.181520
-2.962508 2.671145 0.180333
-2.940998 2.669268 0.180380
-2.916883 2.663224 0.179475
-2.900919 2.670322 0.181850
-2.877451 2.665282 0.181306
-2.850523 2.654407 0.179379
-2.831386 2.656330 0.180636
-2.819323 2.670230 0.184881
-2.798816 2.669942 0.185672
-2.774754 2.663443 0.184961
-2.760270 2.673456 0.188346
-2.736762 2.667663 0.187851
-2.701855 2.641281 0.182272
-2.686822 2.650083 0.185403
-2.669908 2.655524 0.187714
-2.649244 2.654028 0.188307
-2.624618 2.644955 0.187014
-2.603638 2.642408 0.187338
-2.589337 2.652409 0.190779
-2.561417 2.636146 0.187665
-2.542233 2.636420 0.188660
-2.526434 2.643225 0.191274
-2.505042 2.638807 0.191068
-2.484159 2.635134 0.191028
-2.465285 2.635308 0.191932
-2.449455 2.641614 0.194356
-2.423035 2.625627 0.191157
-2.408940 2.635278 0.194381
-2.383149 2.619777 0.191250
-2.367316 2.625418 0.193418
-2.345185 2.617092 0.192041
-2.326140 2.615263 0.192276
-2.300817 2.598966 0.188828
-2.272740 2.575733 0.183594
-2.257768 2.582174 0.185838
-2.240887 2.584099 0.186916
-2.223568 2.584842 0.187669
-2.202158 2.575514 0.185842
-2.180094 2.564144 0.183468
-2.163998 2.567113 0.184709
-2.146567 2.566615 0.185045
-2.132136 2.573589 0.187256
-2.118032 2.581426 0.189665
-2.101790 2.583685 0.190631
-2.081974 2.576306 0.189120
-2.062659 2.569886 0.187828
-2.044767 2.567010 0.187415
-2.025569 2.560241 0.185986
-2.008019 2.557754 0.185626
-1.992320 2.560334 0.186536
-1.976194 2.561582 0.187086
-1.960767 2.564772 0.188110
-1.943254 2.561628 0.187496
-1.927062 2.562256 0.187825
-1.911770 2.565534 0.188811
-1.893737 2.560114 0.187555
-1.878114 2.562083 0.188167
-1.863109 2.565975 0.189252
-1.925912 2.886739 0.271367
-1.909166 2.890086 0.272262
-1.892300 2.892967 0.273019
-1.870959 2.879867 0.269672
-1.867171 2.929694 0.282391
-1.747972 2.875557 0.268080
-1.727974 2.864097 0.265015
-1.714713 2.880543 0.269063
-1.696930 2.877961 0.268235
-1.680075 2.879221 0.268372
-1.666914 2.897082 0.272731
-1.647344 2.885958 0.269677
-1.629959 2.884504 0.269076
-1.615118 2.895154 0.271548
-1.593277 2.871414 0.265236
-1.576876 2.874018 0.265629
-1.560727 2.877917 0.266337
-1.543058 2.873723 0.264969
-1.524873 2.866312 0.262769
-1.507964 2.865546 0.262248
-1.491300 2.866006 0.262027
-1.472877 2.855824 0.259085
-1.455511 2.851388 0.257593
-1.440056 2.858642 0.259060
-1.419084 2.830094 0.251419
-1.402946 2.832194 0.251553
-1.386375 2.831259 0.250903
-1.371514 2.842462 0.253320
-1.355882 2.848535 0.254421
-1.339583 2.849718 0.254268
-1.322119 2.841438 0.251705
-1.304140 2.828004 0.247828
-1.287232 2.822638 0.245983
-1.271566 2.827987 0.246836
-1.255010 2.825160 0.245609
-1.239799 2.835344 0.247655
-1.222948 2.829158 0.245554
-1.205489 2.815435 0.241541
-1.188433 2.804714 0.238276
-1.171929 2.799381 0.236359
-1.156208 2.803464 0.236800
-1.139243 2.790530 0.232946
-1.123589 2.795208 0.233510
-1.107680 2.796298 0.233157
-1.091864 2.798993 0.233193
-1.075650 2.794435 0.231395
-1.059886 2.798154 0.231658
-1.043741 2.793669 0.229851
-1.027173 2.776902 0.224960
-1.011360 2.777587 0.224422
-0.995635 2.781315 0.224628
-0.979344 2.762935 0.219302
-0.943826 2.493123 0.150588
-0.929107 2.469149 0.143902
-0.914578 2.438333 0.135512
-0.900370 2.444787 0.136377
-0.886100 2.451505 0.137289
-0.871898 2.443090 0.134431
-0.857777 2.434407 0.131496
-0.843446 2.441827 0.132531
-0.828693 2.464576 0.137332
-0.814942 2.442952 0.131155
-0.800843 2.438330 0.129163
-0.786235 2.448526 0.130804
-0.771532 2.458550 0.132379
-0.758170 2.437458 0.126288
-0.744251 2.430994 0.123780
-0.730159 2.428590 0.122251
-0.715956 2.428212 0.121201
-0.700556 2.446078 0.124589
-0.687302 2.430696 0.119833
-0.673717 2.421514 0.116579
-0.659063 2.426710 0.116808
-0.645253 2.421127 0.114395
-0.632402 2.405189 0.109453
-0.618631 2.400496 0.107226
-0.604028 2.404529 0.107092
-0.587273 2.428831 0.111828
-0.577066 2.390227 0.101357
-0.561504 2.402151 0.103057
-0.547820 2.396969 0.100616
-0.534925 2.385564 0.096664
-0.521826 2.376434 0.093244
-0.503016 2.411027 0.100262
-0.491710 2.388198 0.093527
-0.477667 2.386044 0.091715
-0.462342 2.392600 0.091954
-0.448508 2.388716 0.089688
-0.434338 2.387046 0.087929
-0.419548 2.389147 0.087043
-0.406118 2.382766 0.084134
-0.393788 2.370145 0.079742
-0.380300 2.364654 0.077019
-0.364562 2.371745 0.077233
-0.348130 2.382052 0.078176
-0.333498 2.382236 0.076729
-0.320238 2.375252 0.073598
-0.307585 2.365453 0.069807
-0.293526 2.362847 0.067681
-0.274837 2.382259 0.070644
-0.223398 2.552733 0.108452
-0.205498 2.563203 0.109221
-0.186828 2.576545 0.110636
-0.170629 2.578506 0.109427
-0.155177 2.577156 0.107460
-0.141208 2.569653 0.104096
-0.126469 2.565567 0.101526
-0.109984 2.568620 0.100596
-0.092119 2.576973 0.100881
-0.077088 2.574153 0.098650
-0.062812 2.568649 0.095842
-0.047863 2.565918 0.093693
-0.033103 2.562702 0.091473
-0.017323 2.563364 0.090164
-0.002098 2.562207 0.088492
0.012488 2.559057 0.086424
0.026512 2.554306 0.084056
0.040296 2.549127 0.081656
0.052663 2.539705 0.078380
0.065811 2.533370 0.075864
0.077570 2.523093 0.072551
0.073828 2.464870 0.058716
0.040148 2.316266 0.025029
0.041181 2.277874 0.015817
0.051955 2.270121 0.013457
0.066091 2.272877 0.013497
0.085109 2.290164 0.016819
0.105728 2.311983 0.021217
0.156429 2.310656 0.020217
0.166483 2.304240 0.018857
-3.379756 2.725401 0.186403
-3.350589 2.734154 0.185463
-3.281747 2.715108 0.177099
-3.232893 2.672991 0.165956
-3.123193 2.679055 0.163600
-3.105804 2.682222 0.164103
-3.084202 2.679356 0.163271
-3.057071 2.668294 0.160584
-3.034905 2.664729 0.159784
-3.012302 2.660573 0.158939
-2.994453 2.663826 0.159951
-2.972297 2.660525 0.159485
-2.963576 2.678454 0.164173
-2.941037 2.674803 0.163781
-2.916510 2.667943 0.162690
-2.896957 2.669074 0.163576
-2.871875 2.661178 0.162358
-2.844481 2.649293 0.160233
-2.832572 2.663115 0.164326
-2.816324 2.669854 0.166766
-2.792564 2.663837 0.166176
-2.774801 2.668013 0.168071
-2.748680 2.657593 0.166474
-2.718350 2.639418 0.163020
-2.703172 2.647839 0.166005
-2.685578 2.651976 0.167971
-2.670627 2.660920 0.171114
-2.649686 2.658862 0.171597
-2.624888 2.649407 0.170281
-2.604468 2.647871 0.170886
-2.583185 2.644494 0.171035
-2.558573 2.634436 0.169546
-2.534646 2.625314 0.168268
-2.519441 2.633092 0.171106
-2.501417 2.635229 0.172553
-2.476215 2.622669 0.170382
-2.462828 2.633889 0.174023
-2.450703 2.647821 0.178316
-2.432514 2.649148 0.179496
-2.401011 2.621949 0.173631
-2.378763 2.613846 0.172436
-2.360058 2.613084 0.173026
-2.344542 2.619164 0.175280
-2.320851 2.606895 0.172978
-2.296846 2.593405 0.170344
-2.277154 2.589288 0.169999
-2.256254 2.582057 0.168856
-2.240290 2.586089 0.170479
-2.221056 2.582225 0.170118
-2.200023 2.573711 0.168575
-2.181670 2.571358 0.168535
-2.160291 2.561228 0.166536
-2.144885 2.565703 0.168143
-2.130008 2.571474 0.170049
-2.118624 2.586287 0.174186
-2.102857 2.589811 0.175488
-2.081438 2.578175 0.172985
-2.062113 2.571691 0.171741
-2.043530 2.566881 0.170891
-2.026475 2.566015 0.171002
-2.008220 2.561554 0.170191
-1.991081 2.559995 0.170083
-1.974490 2.559819 0.170298
-1.961183 2.569198 0.172881
-1.946901 2.575777 0.174744
-1.929046 2.571477 0.173864
-1.911651 2.568307 0.173247
-1.894304 2.565020 0.172579
-1.877810 2.564204 0.172511
-1.865802 2.577840 0.176041
-1.917608 2.922399 0.262589
-1.890643 2.890455 0.254633
-1.866796 2.868289 0.249107
-1.749690 2.885498 0.253093
-1.730623 2.877988 0.251096
-1.714755 2.883568 0.252361
-1.700902 2.897959 0.255815
-1.685387 2.905470 0.257529
-1.664558 2.889107 0.253254
-1.645107 2.878214 0.250333
-1.629417 2.884478 0.251690
-1.613274 2.888687 0.252517
-1.597448 2.894521 0.253734
-1.578509 2.884640 0.251009
-1.561850 2.886004 0.251081
-1.544377 2.882923 0.250028
-1.523768 2.862265 0.244573
-1.503826 2.844088 0.239727
-1.488608 2.852193 0.241428
-1.473345 2.860338 0.243123
-1.457639 2.866085 0.244205
-1.438137 2.847936 0.239319
-1.420367 2.839826 0.236924
-1.402036 2.827234 0.233401
-1.385657 2.827281 0.233014
-1.370186 2.833744 0.234208
-1.355415 2.845753 0.236767
-1.339425 2.849032 0.237141
-1.321000 2.832746 0.232642
-1.303388 2.821815 0.229464
-1.287217 2.822414 0.229135
-1.270846 2.821076 0.228313
-1.253658 2.811656 0.225477
-1.237714 2.813612 0.225446
-1.223318 2.831829 0.229425
-1.206275 2.822561 0.226588
-1.189213 2.811870 0.223389
-1.172732 2.806926 0.221600
-1.156211 2.800673 0.219475
-1.139923 2.796673 0.217894
-1.123752 2.793676 0.216548
-1.107999 2.796760 0.216686
-1.091747 2.791473 0.214749
-1.076043 2.795463 0.215080
-1.060234 2.797856 0.215003
-1.044231 2.796074 0.213885
-1.027732 2.780805 0.209445
-1.011811 2.778169 0.208092
-0.996129 2.782644 0.208465
-0.979501 2.749964 0.199732
-0.944467 2.504048 0.138183
-0.929606 2.469748 0.129094
-0.915200 2.458521 0.125628
-0.900886 2.431115 0.118213
-0.886740 2.427269 0.116526
-0.872443 2.445639 0.120221
-0.858257 2.442312 0.118626
-0.844066 2.440899 0.117480
-0.829709 2.447334 0.118217
-0.815584 2.442912 0.116308
-0.801556 2.436587 0.113925
-0.787356 2.436447 0.113019
-0.773500 2.427862 0.110060
-0.759627 2.421261 0.107566
-0.745008 2.430387 0.108837
-0.730437 2.436920 0.109462
-0.716077 2.438783 0.108943
-0.701858 2.438025 0.107775
-0.687996 2.432087 0.105350
-0.674301 2.424487 0.102512
-0.660112 2.423854 0.101320
-0.647062 2.409549 0.096853
-0.633234 2.405359 0.094779
-0.618733 2.408627 0.094458
-0.603737 2.416429 0.095186
-0.590032 2.410800 0.092711
-0.576142 2.407194 0.090695
-0.562416 2.402258 0.088348
-0.548431 2.399750 0.086554
-0.534523 2.396626 0.084595
-0.519563 2.401839 0.084573
-0.508480 2.377067 0.077504
-0.493630 2.381446 0.077248
-0.477926 2.391378 0.078260
-0.463731 2.390161 0.076648
-0.448911 2.392986 0.075954
-0.435280 2.387829 0.073387
-0.421122 2.386095 0.071596
-0.408805 2.373185 0.067207
-0.395006 2.369533 0.064944
-0.380344 2.370850 0.063810
-0.365463 2.373157 0.062885
-0.348975 2.383871 0.063865
-0.334382 2.383924 0.062385
-0.322052 2.372239 0.058215
-0.309574 2.361752 0.054317
-0.295408 2.359884 0.052376
-0.276687 2.379698 0.055337
-0.222730 2.562452 0.095077
-0.205022 2.572008 0.095589
-0.186653 2.584011 0.096640
-0.169363 2.590737 0.096496
-0.155667 2.581829 0.092850
-0.142026 2.573032 0.089246
-0.128651 2.563493 0.085497
-0.112909 2.563824 0.083967
-0.096270 2.567693 0.083241
-0.078868 2.574399 0.083161
-0.063693 2.572508 0.081206
-0.047923 2.572988 0.079807
-0.033659 2.568082 0.077260
-0.018603 2.566322 0.075451
-0.003911 2.563507 0.073460
0.011948 2.565001 0.072464
0.026225 2.561283 0.070387
0.040570 2.558143 0.068501
0.053599 2.551030 0.065820
0.067507 2.547259 0.063940
0.079304 2.537170 0.060768
0.087796 2.517316 0.055567
0.057473 2.378214 0.024683
0.053160 2.322808 0.012022
0.055997 2.290810 0.004517
0.068143 2.287671 0.003329
0.080048 2.284271 0.002171
0.089590 2.274507 -0.000268
0.135409 2.332191 0.011735
0.120692 2.255831 -0.004760
0.159397 2.328628 0.010920
0.175929 2.339857 0.013448
-3.349623 2.694189 0.161883
-3.113072 2.671232 0.144272
-3.100975 2.681937 0.146468
-3.083776 2.685406 0.147080
-3.062896 2.683567 0.146558
-3.038044 2.675819 0.144758
-3.008881 2.661458 0.141511
-2.986106 2.656866 0.140636
-2.973776 2.668654 0.143672
-2.960849 2.679831 0.146652
-2.941799 2.681546 0.147503
-2.919108 2.677500 0.147081
-2.895305 2.671614 0.146296
-2.867319 2.658765 0.143940
-2.843930 2.653311 0.143370
-2.822799 2.651536 0.143713
-2.805772 2.656675 0.145726
-2.787595 2.659921 0.147336
-2.765335 2.656116 0.147324
-2.748579 2.661813 0.149580
-2.725070 2.655599 0.149053
-2.707674 2.660110 0.151077
-2.688556 2.661503 0.152382
-2.666637 2.657691 0.152467
-2.645593 2.655291 0.152892
-2.618858 2.642051 0.150743
-2.599113 2.641606 0.151631
-2.581493 2.645074 0.153447
-2.552354 2.626144 0.149918
-2.529586 2.619102 0.149208
-2.510639 2.619309 0.150215
-2.490432 2.616822 0.150565
-2.457409 2.588062 0.144601
-2.456037 2.623510 0.154013
-2.433988 2.616609 0.153251
-2.414185 2.614084 0.153519
-2.387734 2.597134 0.150291
-2.367721 2.593474 0.150236
-2.353955 2.603194 0.153385
-2.338618 2.609490 0.155689
-2.320324 2.609129 0.156362
-2.298985 2.601651 0.155287
-2.276614 2.591416 0.153517
-2.260464 2.595219 0.155122
-2.241035 2.591194 0.154802
-2.219511 2.581858 0.153166
-2.197922 2.571926 0.151356
-2.179415 2.569115 0.151250
-2.163746 2.573114 0.152774
-2.145915 2.571577 0.152927
-2.130484 2.575960 0.154497
-2.116153 2.583146 0.156727
-2.097439 2.578809 0.156123
-2.080378 2.578588 0.156498
-2.061656 2.573678 0.155704
-2.043373 2.569659 0.155102
-2.025898 2.567602 0.154956
-2.008704 2.566106 0.154923
-1.988442 2.555573 0.152656
-1.972070 2.555904 0.153024
-1.960513 2.570358 0.156830
-1.945518 2.574748 0.158150
-1.925786 2.564616 0.155891
-1.907691 2.559086 0.154737
-1.891364 2.558798 0.154848
-1.875952 2.561283 0.155619
-1.862976 2.571650 0.158303
-1.893572 2.726957 0.196526
-1.904672 2.821587 0.219852
-1.913254 2.910717 0.241815
-1.896355 2.913673 0.242613
-1.872591 2.892109 0.237374
-1.847274 2.863951 0.230496
-1.814098 2.936130 0.248196
-1.748918 2.885263 0.235535
-1.732293 2.887785 0.236059
-1.713934 2.882889 0.234747
-1.701498 2.903308 0.239628
-1.685120 2.906999 0.240388
-1.664781 2.892756 0.236735
-1.645191 2.881175 0.233719
-1.626517 2.873236 0.231582
-1.611037 2.880270 0.233099
-1.598114 2.900202 0.237759
-1.581069 2.899967 0.237463
-1.564054 2.899719 0.237149
-1.544267 2.884440 0.233142
-1.522621 2.857958 0.226381
-1.503148 2.842155 0.222222
-1.486034 2.839024 0.221150
-1.472486 2.856897 0.225198
-1.455544 2.854764 0.224342
-1.437318 2.844192 0.221411
-1.419187 2.833419 0.218419
-1.402215 2.829625 0.217119
-1.385781 2.829185 0.216624
-1.369975 2.833104 0.217179
-1.353972 2.835665 0.217388
-1.336213 2.824609 0.214267
-1.318049 2.809281 0.210096
-1.302524 2.814712 0.210964
-1.286967 2.820152 0.211820
-1.270446 2.817111 0.210600
-1.253140 2.806148 0.207444
-1.236855 2.804168 0.206458
-1.221584 2.812469 0.207952
-1.205258 2.809827 0.206777
-1.189843 2.817330 0.208046
-1.173259 2.811141 0.205985
-1.156877 2.806645 0.204322
-1.140298 2.798633 0.201795
-1.124729 2.804403 0.202586
-1.108466 2.799723 0.200838
-1.092128 2.792780 0.198531
-1.076011 2.788596 0.196877
-1.060513 2.796296 0.198071
-1.044390 2.791046 0.196131
-1.028267 2.784353 0.193830
-1.012417 2.783627 0.192950
-0.996342 2.774774 0.190104
-0.980830 2.785205 0.191868
-0.944332 2.464341 0.113578
-0.930058 2.466807 0.113454
-0.915731 2.463862 0.112021
-0.901407 2.436741 0.104807
-0.887245 2.435173 0.103678
-0.873036 2.441038 0.104304
-0.858814 2.443476 0.104095
-0.844686 2.439255 0.102286
-0.830257 2.450095 0.104035
-0.816225 2.442357 0.101359
-0.802401 2.430205 0.097624
-0.788254 2.429925 0.096684
-0.774231 2.426511 0.094986
-0.760280 2.422073 0.093031
-0.746091 2.422993 0.092321
-0.731862 2.424316 0.091685
-0.717375 2.429549 0.091947
-0.701760 2.451277 0.096054
-0.688882 2.430483 0.090170
-0.675209 2.422870 0.087360
-0.661100 2.421511 0.085996
-0.647069 2.419203 0.084391
-0.634490 2.400542 0.078960
-0.619391 2.410638 0.080204
-0.604582 2.416611 0.080462
-0.590687 2.412960 0.078465
-0.577140 2.406203 0.075731
-0.562993 2.405184 0.074305
-0.549495 2.398514 0.071556
-0.535660 2.394954 0.069506
-0.521425 2.394650 0.068185
-0.508109 2.387184 0.065201
-0.494202 2.384410 0.063275
-0.480009 2.383667 0.061794
-0.464065 2.394804 0.062998
-0.450905 2.386590 0.059773
-0.436684 2.385528 0.058157
-0.423518 2.377788 0.055011
-0.410078 2.372002 0.052294
-0.395390 2.373717 0.051256
-0.380325 2.377337 0.050628
-0.366712 2.372548 0.048092
-0.354219 2.361813 0.044213
-0.337888 2.371722 0.044945
-0.323779 2.369588 0.042970
-0.310423 2.363675 0.040144
-0.297026 2.358138 0.037400
-0.282094 2.360091 0.036313
-0.224112 2.562595 0.079525
-0.206011 2.574128 0.080434
-0.186965 2.589299 0.082131
-0.170429 2.592820 0.081259
-0.155899 2.587596 0.078477
-0.142291 2.578718 0.074913
-0.128883 2.569386 0.071273
-0.114350 2.564965 0.068728
-0.099010 2.563929 0.066943
-0.082510 2.567474 0.066176
-0.067305 2.566069 0.064368
-0.050223 2.571794 0.064133
-0.035575 2.568559 0.062007
-0.021945 2.561942 0.059204
-0.006516 2.562069 0.057900
0.009752 2.565297 0.057314
0.024444 2.563266 0.055663
0.038029 2.557838 0.053355
0.049949 2.547355 0.050045
0.064390 2.545671 0.048683
0.079647 2.546956 0.048029
0.091205 2.536873 0.045048
0.058329 2.389473 0.013122
0.062019 2.358535 0.005946
0.064757 2.325940 -0.001481
0.075126 2.317315 -0.003756
0.092492 2.329843 -0.001483
0.088967 2.281857 -0.011871
0.098250 2.272140 -0.014103
0.120247 2.264166 -0.015884
0.141894 2.290297 -0.010298
0.180685 2.362993 0.005189
0.187738 2.348849 0.002477
-3.306799 2.741190 0.149857
-3.256838 2.697159 0.138473
-3.177944 2.663368 0.127661
-3.169106 2.677264 0.130044
-3.110100 2.673946 0.127563
-3.098649 2.685421 0.129825
-3.077911 2.683394 0.129115
-3.059739 2.685390 0.129427
-3.032062 2.673102 0.126586
-3.009707 2.668934 0.125695
-2.991613 2.671448 0.126422
-2.971779 2.671409 0.126658
-2.949328 2.667337 0.126061
-2.936829 2.679193 0.129180
-2.915709 2.677444 0.129272
-2.892408 2.672166 0.128630
-2.861148 2.653717 0.125038
-2.837523 2.647623 0.124329
-2.819359 2.650596 0.125750
-2.797526 2.647393 0.125806
-2.781809 2.654605 0.128296
-2.764476 2.659132 0.130211
-2.747505 2.664341 0.132320
-2.732033 2.672257 0.135084
-2.705987 2.661311 0.133522
-2.682642 2.654930 0.133027
-2.662416 2.654018 0.133809
-2.638218 2.645611 0.132864
-2.618357 2.645020 0.133733
-2.596871 2.641203 0.133856
-2.573917 2.634342 0.133266
-2.551861 2.628915 0.133003
-2.523567 2.610961 0.129807
-2.503149 2.608065 0.130108
-2.492316 2.624201 0.134849
-2.478199 2.633873 0.138071
-2.462539 2.640429 0.140553
-2.430729 2.613317 0.135116
-2.399920 2.587469 0.129941
-2.392189 2.610073 0.136137
-2.372684 2.607605 0.136415
-2.349304 2.596408 0.134611
-2.336432 2.608031 0.138169
-2.319610 2.610893 0.139637
-2.293583 2.592716 0.136103
-2.276041 2.593415 0.137007
-2.261555 2.601078 0.139538
-2.242201 2.597247 0.139320
-2.220063 2.586454 0.137421
-2.195998 2.570511 0.134268
-2.179739 2.573153 0.135505
-2.166874 2.584147 0.138706
-2.152514 2.591483 0.141015
-2.132816 2.585157 0.140043
-2.113239 2.578784 0.139032
-2.094576 2.574461 0.138484
-2.078213 2.575985 0.139308
-2.060961 2.574965 0.139499
-2.043856 2.574145 0.139713
-2.026233 2.571679 0.139511
-2.005463 2.560044 0.137088
-1.985290 2.549603 0.134926
-1.971014 2.555910 0.136752
-1.958277 2.566812 0.139659
-1.942673 2.569249 0.140516
-1.922370 2.557205 0.137877
-1.905550 2.555451 0.137685
-1.890543 2.559212 0.138795
-1.875412 2.562539 0.139781
-1.860649 2.567024 0.141025
-1.906800 2.831953 0.204948
-1.849835 2.814104 0.200951
-1.744968 2.872028 0.214880
-1.730367 2.882591 0.217346
-1.713122 2.882205 0.217163
-1.697400 2.888256 0.218511
-1.682829 2.899513 0.221091
-1.666050 2.901108 0.221333
-1.645723 2.886171 0.217589
-1.627713 2.881373 0.216264
-1.611909 2.886898 0.217402
-1.593861 2.881377 0.215872
-1.581642 2.905147 0.221355
-1.563601 2.899527 0.219771
-1.543289 2.881277 0.215143
-1.522711 2.860428 0.209881
-1.503093 2.843716 0.205599
-1.487885 2.851566 0.207187
-1.469147 2.838582 0.203771
-1.452718 2.838904 0.203529
-1.436108 2.837941 0.202964
-1.418841 2.832455 0.201304
-1.402253 2.831056 0.200608
-1.385489 2.828173 0.199544
-1.368451 2.822961 0.197910
-1.351211 2.815691 0.195772
-1.334540 2.812156 0.194514
-1.318734 2.815166 0.194802
-1.303621 2.824078 0.196483
-1.287147 2.821669 0.195451
-1.270182 2.814409 0.193251
-1.253603 2.810018 0.191722
-1.237523 2.810028 0.191226
-1.221565 2.811152 0.190980
-1.205540 2.811490 0.190533
-1.188985 2.805532 0.188578
-1.173222 2.808452 0.188716
-1.156494 2.798958 0.185896
-1.141038 2.805764 0.186924
-1.125467 2.811644 0.187717
-1.109266 2.808124 0.186269
-1.092560 2.795098 0.182562
-1.076675 2.795079 0.181915
-1.060457 2.787971 0.179580
-1.044960 2.795706 0.180731
-1.029034 2.794079 0.179657
-1.013082 2.791053 0.178239
-0.997281 2.791975 0.177734
-0.980781 2.764792 0.170613
-0.963419 2.681637 0.150357
-0.944710 2.459499 0.097551
-0.930471 2.461319 0.097265
-0.916208 2.461640 0.096611
-0.901945 2.464401 0.096511
-0.887755 2.438598 0.089726
-0.873578 2.440827 0.089473
-0.859471 2.435899 0.087534
-0.845180 2.443969 0.088605
-0.830818 2.451658 0.089565
-0.817243 2.427257 0.083056
-0.803334 2.420521 0.080638
-0.789153 2.422863 0.080305
-0.774899 2.426296 0.080205
-0.760669 2.428322 0.079759
-0.746897 2.420722 0.077074
-0.732874 2.418781 0.075676
-0.718786 2.418075 0.074544
-0.703985 2.428356 0.075915
-0.689862 2.427253 0.074648
-0.676595 2.414546 0.070706
-0.662972 2.407705 0.068092
-0.648068 2.416812 0.069101
-0.634296 2.411924 0.066894
-0.620904 2.403261 0.063811
-0.605542 2.415429 0.065442
-0.590793 2.420302 0.065389
-0.577008 2.415567 0.063136
-0.563859 2.405363 0.059630
-0.550279 2.399503 0.057089
-0.537727 2.385473 0.052693
-0.524254 2.379604 0.050120
-0.508662 2.390160 0.051213
-0.495241 2.383815 0.048494
-0.480633 2.386158 0.047700
-0.466499 2.384917 0.046084
-0.452129 2.385158 0.044778
-0.438432 2.380883 0.042450
-0.424324 2.379266 0.040696
-0.410308 2.377031 0.038788
-0.394774 2.383705 0.038829
-0.381033 2.379597 0.036475
-0.370393 2.358303 0.030336
-0.355450 2.361331 0.029531
-0.339775 2.367939 0.029494
-0.324864 2.370159 0.028481
-0.311561 2.364089 0.025654
-0.298168 2.358656 0.022963
-0.284244 2.355929 0.020858
-0.227565 2.553019 0.061909
-0.208265 2.570442 0.064045
-0.190044 2.582219 0.064952
-0.173992 2.583975 0.063703
-0.159233 2.580107 0.061258
-0.143761 2.579380 0.059501
-0.129556 2.573499 0.056663
-0.113857 2.573896 0.055185
-0.100991 2.563159 0.051372
-0.086010 2.561093 0.049433
-0.069867 2.563614 0.048496
-0.053227 2.568011 0.047992
-0.038040 2.567079 0.046407
-0.023710 2.563263 0.044266
-0.009499 2.559348 0.042161
0.005946 2.560065 0.041084
0.020389 2.557566 0.039398
0.031525 2.544287 0.035538
0.049345 2.553818 0.036498
0.066262 2.560405 0.036917
0.081336 2.561202 0.036212
0.092265 2.549208 0.032942
0.055918 2.390708 -0.000527
0.055975 2.348814 -0.009759
0.072663 2.358786 -0.008184
0.089106 2.329139 -0.015002
0.107227 2.344260 -0.012100
0.104140 2.262982 -0.029003
0.144531 2.341932 -0.012679
0.168402 2.373662 -0.005989
0.210377 2.387686 -0.002093
0.201860 2.273445 -0.023948
-3.381478 2.778644 0.145831
-3.249115 2.720092 0.125488
-3.177072 2.696400 0.117263
-3.155617 2.692429 0.115630
-3.121897 2.670688 0.110148
-3.105747 2.674695 0.110523
-3.091691 2.682091 0.111761
-3.074328 2.684855 0.112074
-3.042326 2.665698 0.107616
-3.023424 2.666375 0.107676
-3.013927 2.681726 0.111102
-2.992764 2.679360 0.110683
-2.964819 2.666429 0.108006
-2.929468 2.641626 0.102771
-2.890615 2.610831 0.096281
-2.906442 2.667943 0.109462
-2.869004 2.639265 0.103593
-2.854459 2.647833 0.106100
-2.837724 2.652962 0.107906
-2.810308 2.640230 0.105777
-2.790231 2.639728 0.106434
-2.777211 2.651336 0.109853
-2.768742 2.671077 0.115147
-2.755560 2.682923 0.118714
-2.718042 2.651756 0.112638
-2.693367 2.642892 0.111597
-2.703294 2.696552 0.124683
-2.653184 2.641133 0.113169
-2.635379 2.644316 0.114896
-2.615524 2.643606 0.115751
-2.591364 2.634583 0.114725
-2.562634 2.616444 0.111622
-2.550152 2.629302 0.115560
-2.528999 2.625276 0.115654
-2.506105 2.617536 0.114891
-2.490626 2.624369 0.117443
-2.484554 2.650355 0.124369
-2.463128 2.645158 0.124152
-2.433657 2.622879 0.119998
-2.399672 2.590346 0.113457
-2.387710 2.603899 0.117478
-2.375914 2.617969 0.121605
-2.355042 2.612320 0.121172
-2.333147 2.604076 0.120116
-2.316187 2.606522 0.121501
-2.294867 2.598922 0.120541
-2.276466 2.597667 0.121022
-2.260329 2.601480 0.122652
-2.244512 2.605963 0.124415
-2.220212 2.590040 0.121415
-2.198330 2.579376 0.119606
-2.176643 2.568721 0.117769
-2.165106 2.582924 0.121690
-2.151624 2.592418 0.124494
-2.129486 2.579782 0.122115
-2.109259 2.571582 0.120741
-2.091391 2.569194 0.120698
-2.074733 2.569799 0.121328
-2.057368 2.568326 0.121448
-2.041418 2.570534 0.122404
-2.023635 2.567506 0.122111
-2.003995 2.558946 0.120498
-1.985211 2.552421 0.119337
-1.970146 2.556406 0.120615
-1.956110 2.563405 0.122578
-1.940241 2.564929 0.123235
-1.922269 2.559888 0.122330
-1.905749 2.559045 0.122387
-1.891209 2.564279 0.123851
-1.875483 2.565710 0.124401
-1.861605 2.573076 0.126325
-1.884278 2.817291 0.184218
-1.863563 2.805041 0.181460
-1.756947 2.854092 0.193306
-1.743586 2.869199 0.196829
-1.728835 2.878978 0.199079
-1.711972 2.880038 0.199261
-1.695021 2.880597 0.199307
-1.680830 2.893268 0.202184
-1.666705 2.906649 0.205210
-1.646846 2.893875 0.202069
-1.627956 2.884955 0.199817
-1.612171 2.890537 0.200959
-1.597167 2.900127 0.203026
-1.578481 2.891251 0.200737
-1.562063 2.893628 0.201077
-1.544008 2.887188 0.199331
-1.523969 2.869312 0.194885
-1.504956 2.856114 0.191525
-1.484676 2.834642 0.186211
-1.472434 2.859912 0.191845
-1.453345 2.844308 0.187880
-1.435495 2.835469 0.185489
-1.418041 2.828510 0.183524
-1.401087 2.824334 0.182198
-1.384068 2.819259 0.180648
-1.366580 2.810294 0.178174
-1.350442 2.810644 0.177866
-1.335697 2.821696 0.180044
-1.321129 2.834863 0.182700
-1.305557 2.840497 0.183579
-1.287326 2.823193 0.179091
-1.269911 2.811671 0.175942
-1.253757 2.810969 0.175302
-1.238012 2.814128 0.175547
-1.222409 2.818923 0.176158
-1.205483 2.809459 0.173436
-1.188766 2.801222 0.170987
-1.172064 2.792051 0.168310
-1.156494 2.796370 0.168751
-1.141348 2.806995 0.170637
-1.125544 2.809132 0.170538
-1.109249 2.803546 0.168634
-1.093142 2.800148 0.167223
-1.076989 2.795083 0.165412
-1.061213 2.796670 0.165123
-1.045585 2.801825 0.165642
-1.029658 2.800341 0.164610
-1.013718 2.797883 0.163338
-0.997573 2.787502 0.160228
-0.980925 2.752808 0.151514
-0.963629 2.669674 0.131673
-0.945134 2.458493 0.082470
-0.930928 2.461157 0.082368
-0.916659 2.457386 0.080775
-0.902420 2.449070 0.078127
-0.888333 2.417586 0.070173
-0.874039 2.449381 0.076660
-0.859829 2.450702 0.076167
-0.845702 2.446366 0.074366
-0.831251 2.458476 0.076291
-0.817384 2.444269 0.072212
-0.803997 2.418837 0.065576
-0.789650 2.426477 0.066430
-0.775411 2.429523 0.066221
-0.761533 2.423844 0.064018
-0.746354 2.444978 0.067851
-0.733315 2.423330 0.062009
-0.719062 2.425298 0.061475
-0.704951 2.424574 0.060315
-0.691203 2.418517 0.057938
-0.678590 2.397664 0.052230
-0.664632 2.396280 0.050870
-0.647801 2.429416 0.057198
-0.635271 2.409878 0.051738
-0.622019 2.399947 0.048409
-0.606984 2.409107 0.049307
-0.590811 2.428370 0.052418
-0.577321 2.420641 0.049515
-0.564426 2.408058 0.045524
-0.551122 2.399838 0.042484
-0.538233 2.388660 0.038778
-0.525738 2.375023 0.034519
-0.511350 2.376682 0.033605
-0.496476 2.381627 0.033388
-0.481338 2.387952 0.033447
-0.466648 2.390592 0.032676
-0.454009 2.379236 0.028840
-0.441198 2.369531 0.025353
-0.425330 2.379394 0.026094
-0.410499 2.382215 0.025286
-0.396030 2.382597 0.023933
-0.380564 2.388528 0.023757
-0.370250 2.365258 0.017294
-0.356021 2.364355 0.015631
-0.340149 2.372076 0.015798
-0.325653 2.372197 0.014328
-0.315004 2.352859 0.008713
-0.300629 2.352654 0.007170
-0.285322 2.356844 0.006553
-0.230077 2.547769 0.045340
-0.208128 2.577648 0.050027
-0.191890 2.580610 0.049035
-0.177762 2.574177 0.046080
-0.163778 2.567389 0.043068
-0.146513 2.574663 0.043010
-0.129693 2.579841 0.042529
-0.113156 2.583721 0.041797
-0.097753 2.583043 0.040145
-0.087265 2.563424 0.034614
-0.072147 2.562262 0.032942
-0.057761 2.558546 0.030787
-0.042334 2.558937 0.029524
-0.024665 2.567575 0.030002
-0.010880 2.562358 0.027697
0.003318 2.558981 0.025831
0.016491 2.552452 0.023391
0.033045 2.557792 0.023439
0.048684 2.560213 0.022965
0.064604 2.563787 0.022801
0.079718 2.564983 0.022236
0.089722 2.550297 0.018542
0.093597 2.517249 0.011231
0.048647 2.335170 -0.026073
0.058380 2.324543 -0.028634
0.078157 2.344664 -0.024904
0.095272 2.318982 -0.030470
0.124112 2.329496 -0.028376
0.213405 2.344024 -0.022706
-3.197119 2.680567 0.098729
-3.187793 2.693172 0.100460
-3.170348 2.694516 0.099837
-3.136395 2.672128 0.094154
-3.116039 2.669512 0.092896
-3.102286 2.676824 0.093912
-3.085458 2.679887 0.094112
-3.030715 2.654787 0.088052
-3.019538 2.666957 0.090552
-3.007262 2.677817 0.092869
-2.986458 2.675737 0.092475
-2.958033 2.661764 0.089594
-2.929848 2.648031 0.086853
-2.911779 2.650369 0.087692
-2.897192 2.658487 0.089872
-2.871696 2.648996 0.088297
-2.856173 2.655858 0.090356
-2.835834 2.654865 0.090771
-2.802989 2.632791 0.086646
-2.784181 2.634190 0.087697
-2.777701 2.656847 0.093450
-2.769443 2.676873 0.098684
-2.749365 2.676505 0.099497
-2.712144 2.645603 0.093639
-2.689534 2.640225 0.093406
-2.684115 2.665899 0.100033
-2.654289 2.647208 0.096913
-2.632877 2.643636 0.097136
-2.612667 2.642132 0.097826
-2.586560 2.629271 0.096007
-2.571469 2.637163 0.098787
-2.559597 2.651362 0.102973
-2.530797 2.632446 0.099801
-2.511224 2.631301 0.100569
-2.493938 2.634581 0.102315
-2.477121 2.638733 0.104248
-2.456481 2.634934 0.104391
-2.435825 2.630836 0.104451
-2.409164 2.613773 0.101583
-2.386880 2.605476 0.100657
-2.369713 2.607877 0.102112
-2.348607 2.601521 0.101576
-2.329265 2.598739 0.101821
-2.313059 2.602754 0.103575
-2.297492 2.608145 0.105620
-2.278955 2.606637 0.106083
-2.261021 2.606312 0.106788
-2.240123 2.598774 0.105834
-2.219677 2.591931 0.105009
-2.195954 2.576751 0.102261
-2.177501 2.573965 0.102300
-2.162760 2.580199 0.104365
-2.144413 2.577285 0.104323
-2.125778 2.573370 0.104027
-2.106479 2.567433 0.103242
-2.087760 2.562684 0.102702
-2.070859 2.562490 0.103175
-2.053778 2.561623 0.103470
-2.038776 2.566294 0.105007
-2.021546 2.564691 0.105085
-2.004869 2.564440 0.105448
-1.984938 2.554626 0.103597
-1.968787 2.555410 0.104148
-1.954195 2.560688 0.105709
-1.940094 2.567446 0.107587
-1.924214 2.568797 0.108202
-1.907433 2.567217 0.108123
-1.891623 2.568501 0.108679
-1.876130 2.570688 0.109421
-1.866480 2.591924 0.114523
-1.915987 2.810784 0.165055
-1.879488 2.803805 0.163811
-1.874349 2.845881 0.173642
-1.868987 2.888516 0.183584
-1.849110 2.879742 0.181673
-1.743267 2.870652 0.179813
-1.728414 2.879945 0.181925
-1.711728 2.881670 0.182276
-1.696154 2.888143 0.183701
-1.681879 2.900504 0.186464
-1.665959 2.905793 0.187580
-1.648000 2.901697 0.186519
-1.627597 2.885643 0.182690
-1.611436 2.889296 0.183379
-1.594699 2.890099 0.183395
-1.576089 2.881224 0.181169
-1.560675 2.888472 0.182634
-1.544449 2.891583 0.183132
-1.525908 2.881935 0.180681
-1.507411 2.871856 0.178118
-1.484716 2.836599 0.169758
-1.468713 2.839253 0.170091
-1.452755 2.842189 0.170473
-1.435442 2.836535 0.168869
-1.418238 2.831083 0.167297
-1.400711 2.822940 0.165095
-1.382684 2.810594 0.161917
-1.365953 2.806623 0.160643
-1.350565 2.812281 0.161560
-1.336423 2.827888 0.164737
-1.321618 2.839185 0.166909
-1.304959 2.835667 0.165679
-1.287515 2.824822 0.162761
-1.269882 2.811169 0.159190
-1.253697 2.809916 0.158437
-1.237859 2.811850 0.158395
-1.221827 2.811786 0.157883
-1.205604 2.809444 0.156837
-1.189325 2.806032 0.155533
-1.173472 2.807303 0.155279
-1.157393 2.805607 0.154335
-1.141141 2.801112 0.152742
-1.125013 2.797682 0.151375
-1.109234 2.799135 0.151101
-1.092681 2.787265 0.147792
-1.076937 2.788366 0.147407
-1.061551 2.796899 0.148685
-1.045829 2.799399 0.148581
-1.029914 2.797386 0.147440
-1.013861 2.790611 0.145209
-0.997441 2.769148 0.139656
-0.981023 2.739559 0.132265
-0.963902 2.661512 0.113976
-0.945711 2.468030 0.069781
-0.931346 2.458531 0.066935
-0.917091 2.452193 0.064785
-0.902899 2.447972 0.063095
-0.888711 2.455327 0.063978
-0.874414 2.467535 0.065924
-0.860119 2.470337 0.065747
-0.845985 2.461986 0.063065
-0.831854 2.456922 0.061101
-0.817823 2.449728 0.058648
-0.804078 2.435333 0.054581
-0.790013 2.433430 0.053274
-0.775877 2.433552 0.052395
-0.761746 2.433361 0.051428
-0.747648 2.432383 0.050268
-0.733105 2.439513 0.050876
-0.719427 2.430778 0.047966
-0.705523 2.426664 0.046057
-0.692226 2.414103 0.042276
-0.678618 2.407205 0.039723
-0.662994 2.426733 0.042935
-0.648937 2.424968 0.041461
-0.635289 2.418533 0.038949
-0.622014 2.408532 0.035644
-0.608061 2.406315 0.034016
-0.591691 2.427842 0.037516
-0.577829 2.423738 0.035430
-0.566055 2.401068 0.029314
-0.552106 2.398793 0.027593
-0.537949 2.398241 0.026223
-0.525174 2.386563 0.022442
-0.512414 2.375449 0.018771
-0.498587 2.372834 0.016907
-0.483137 2.381815 0.017500
-0.466387 2.399000 0.019813
-0.456204 2.371064 0.012501
-0.442324 2.368633 0.010604
-0.426894 2.375916 0.010748
-0.410500 2.388486 0.011984
-0.396522 2.385911 0.010002
-0.380800 2.393361 0.010114
-0.367952 2.384209 0.006725
-0.357696 2.361319 0.000459
-0.344182 2.356768 -0.001968
-0.330323 2.354128 -0.004000
-0.317526 2.346176 -0.007140
-0.303164 2.346219 -0.008620
-0.284431 2.367184 -0.005779
-0.234566 2.533194 0.026939
-0.208675 2.581731 0.035337
-0.193955 2.577996 0.032972
-0.180701 2.567975 0.029335
-0.165945 2.564835 0.027127
-0.148789 2.571943 0.027026
-0.131155 2.580771 0.027290
-0.112429 2.593730 0.028409
-0.097015 2.593146 0.026809
-0.083131 2.586747 0.024071
-0.074980 2.558850 0.017053
-0.060233 2.556817 0.015298
-0.044185 2.559806 0.014601
-0.027984 2.563435 0.014084
-0.013276 2.561859 0.012583
0.001324 2.560191 0.011129
0.017551 2.564424 0.010918
0.032651 2.564990 0.010048
0.046094 2.560326 0.008217
0.062708 2.566504 0.008616
0.076546 2.563877 0.007354
0.088042 2.554235 0.004793
0.087833 2.508567 -0.004790
0.061521 2.383936 -0.029849
0.082549 2.407316 -0.025595
0.063638 2.310417 -0.044966
0.079405 2.319300 -0.043387
0.112112 2.377941 -0.031914
0.098778 2.302382 -0.046793
0.120963 2.295762 -0.047811
0.118337 2.254897 -0.055595
0.132699 2.262197 -0.053795
-3.248027 2.685699 0.087061
-3.160331 2.687922 0.081574
-3.129794 2.670172 0.076934
-3.106965 2.663669 0.074806
-3.076213 2.673239 0.075681
-3.052174 2.665403 0.073604
-3.003735 2.649326 0.069692
-2.999094 2.671629 0.074323
-2.982333 2.675569 0.075163
-2.956366 2.665213 0.073071
-2.932295 2.657809 0.071699
-2.920006 2.669312 0.074425
-2.903948 2.675026 0.076010
-2.880227 2.668379 0.075053
-2.855555 2.660097 0.073823
-2.836522 2.661129 0.074642
-2.807494 2.645338 0.071944
-2.784037 2.638751 0.071262
-2.770593 2.649300 0.074288
-2.753181 2.653149 0.075936
-2.733900 2.653764 0.076939
