ply
format ascii 1.0
comment ---
element vertex 1649
property float x
property float y
property float z
element face 0
property list uchar uint vertex_indices
end_header
-4.684619 -4.135359 0.599086
-4.628881 -4.133693 0.590566
-4.584692 -4.129674 0.583919
-4.665264 -4.094440 0.597640
-4.648010 -4.083650 0.595411
-4.631201 -4.072878 0.593261
-4.589932 -4.068800 0.587109
-4.548545 -4.065129 0.580933
-4.560773 -4.046909 0.583562
-4.581811 -4.026031 0.587659
-4.601722 -4.005226 0.591594
-4.605233 -3.988988 0.592846
-4.566282 -3.939853 0.589236
-4.630285 -3.888539 0.601388
-4.565814 -3.878650 0.592232
-4.552443 -3.867718 0.590809
-4.597995 -3.836548 0.599264
-4.611569 -3.816036 0.602400
-4.597281 -3.805220 0.600881
-4.488361 -3.828612 0.583442
-4.324263 -3.829403 0.559267
-4.318045 -3.817053 0.559121
-4.322687 -3.800436 0.560841
-4.325334 -3.784493 0.562244
-4.325299 -3.769531 0.563210
-4.324623 -3.754757 0.564088
-4.323269 -3.740196 0.564870
-4.325483 -3.724072 0.566286
-4.320455 -3.710929 0.566476
-4.312537 -3.699007 0.566185
-4.310633 -3.684463 0.566950
-4.312609 -3.668140 0.568410
-4.305381 -3.655836 0.568290
-4.298979 -3.643154 0.568329
-4.293138 -3.630200 0.568482
-4.299498 -3.611543 0.570791
-4.304204 -3.593503 0.572835
-4.302576 -3.578343 0.573786
-4.293165 -3.566876 0.573379
-4.294468 -3.550188 0.574880
-4.299165 -3.531714 0.577003
-4.295171 -3.517454 0.577598
-4.289740 -3.503884 0.577947
-4.294784 -3.484917 0.580181
-4.289662 -3.471089 0.580606
-4.278345 -3.460500 0.579918
-4.272461 -3.447085 0.580209
-4.266355 -3.433792 0.580459
-4.265963 -3.417397 0.581744
-4.276700 -3.394823 0.585056
-4.280684 -3.375818 0.587143
-4.273707 -3.362887 0.587218
-4.268143 -3.349200 0.587536
-4.267408 -3.332775 0.588724
-4.265923 -3.316774 0.589755
-4.266504 -3.299567 0.591145
-4.266012 -3.282992 0.592310
-4.262003 -3.268548 0.592789
-4.264641 -3.250147 0.594468
-4.266180 -3.232425 0.595904
-4.267019 -3.215168 0.597166
-4.240980 -3.214786 0.593331
-4.259901 -3.186396 0.597883
-4.247741 -3.177696 0.596531
-4.244181 -3.163713 0.596733
-4.248919 -3.144498 0.598436
-4.243752 -3.131859 0.598198
-4.242767 -3.116657 0.598677
-4.235277 -3.105970 0.597846
-4.238648 -3.088219 0.598999
-4.239007 -3.072654 0.599502
-4.246999 -3.052037 0.601378
-4.230424 -3.048506 0.598494
-3.671346 -5.826784 0.428446
-3.695476 -5.828351 0.432629
-3.710722 -5.825564 0.435345
-3.729013 -5.823837 0.438500
-3.784311 -5.838043 0.447544
-3.802661 -5.835532 0.450613
-3.806677 -5.826547 0.451330
-3.819799 -5.821256 0.453458
-3.851489 -5.823500 0.458516
-3.865821 -5.818110 0.460737
-3.878990 -5.811985 0.462722
-3.900945 -5.809176 0.466070
-3.925047 -5.806902 0.469713
-3.959887 -5.808524 0.475031
-3.976605 -5.802658 0.477401
-3.999772 -5.799020 0.480762
-4.024326 -5.795605 0.484303
-4.047925 -5.791523 0.487655
-4.086687 -5.792727 0.493387
-4.116089 -5.790095 0.497591
-4.133423 -5.782816 0.499843
-4.165469 -5.780513 0.504406
-4.181450 -5.772297 0.506394
-4.235149 -5.776777 0.514334
-4.256698 -5.769897 0.517158
-4.297006 -5.769002 0.522928
-4.319438 -5.761887 0.525857
-4.374942 -5.765139 0.533981
-4.394953 -5.756669 0.536501
-4.431634 -5.753180 0.541631
-4.489342 -5.755737 0.550046
-4.520446 -5.749785 0.554277
-4.547760 -5.742443 0.557911
-4.560797 -5.730750 0.559313
-4.582163 -5.721333 0.562020
-4.596689 -5.709847 0.563665
-4.604488 -5.696434 0.564273
-4.586148 -5.676003 0.560831
-4.596641 -5.663384 0.561885
-4.616919 -5.653234 0.564466
-4.616149 -5.637625 0.563800
-4.605657 -5.619678 0.561647
-4.602100 -5.603573 0.560587
-4.599725 -5.587839 0.559727
-4.591860 -5.570910 0.558040
-4.593359 -5.556239 0.557814
-4.594757 -5.541582 0.557591
-4.599165 -5.527615 0.557847
-4.590669 -5.510917 0.556139
-4.577200 -5.493320 0.553688
-4.581088 -5.479414 0.553918
-4.582126 -5.464952 0.553728
-4.578229 -5.449574 0.552800
-4.577034 -5.434782 0.552304
-4.580743 -5.420938 0.552574
-4.576062 -5.405606 0.551578
-4.574312 -5.390862 0.551047
-4.575402 -5.376650 0.550966
-4.554955 -5.358941 0.547616
-4.544974 -5.343122 0.545880
-4.543696 -5.328768 0.545487
-4.544404 -5.314752 0.545411
-4.546540 -5.300964 0.545568
-4.551068 -5.287516 0.546102
-4.544778 -5.272593 0.545004
-4.538618 -5.257770 0.543941
-4.536916 -5.243586 0.543569
-4.541960 -5.230254 0.544236
-4.544207 -5.216570 0.544491
-4.544401 -5.202656 0.544446
-4.539929 -5.188261 0.543705
-4.540557 -5.174444 0.543751
-4.526599 -5.159220 0.541593
-4.526213 -5.145396 0.541508
-4.533650 -5.132274 0.542623
-4.575935 -5.121987 0.549042
-4.686357 -5.087682 0.565869
-4.682497 -5.072962 0.565322
-4.739116 -5.061893 0.573974
-4.755560 -5.048094 0.576534
-4.682947 -4.986390 0.565835
-4.779591 -4.960161 0.580760
-4.668516 -4.914116 0.564256
-4.700887 -4.885533 0.569491
-4.725256 -4.871004 0.573371
-4.743272 -4.856281 0.576291
-4.743836 -4.826850 0.576749
-4.721130 -4.812575 0.573479
-4.683976 -4.798859 0.568008
-4.696403 -4.784047 0.570113
-4.686170 -4.769874 0.568764
-4.680288 -4.755624 0.568085
-4.692677 -4.726116 0.570441
-4.714578 -4.710440 0.574036
-4.665066 -4.698624 0.566698
-4.696501 -4.682266 0.571768
-4.730119 -4.665460 0.577185
-4.773861 -4.632648 0.584447
-4.724574 -4.621647 0.577159
-4.698648 -4.609107 0.573460
-4.674469 -4.596642 0.570031
-4.665080 -4.582993 0.568881
-4.700519 -4.564966 0.574641
-4.618768 -4.558787 0.562350
-4.641764 -4.541972 0.566205
-4.643036 -4.512935 0.567041
-4.661720 -4.481590 0.570596
-4.677280 -4.435559 0.574062
-4.676774 -4.420918 0.574350
-4.614522 -4.386699 0.565812
-4.638397 -4.368249 0.569916
-4.586294 -4.362519 0.562198
-4.748532 -4.319656 0.587888
-4.653880 -4.321526 0.573548
-4.587556 -4.319041 0.563614
-4.605415 -4.301185 0.566828
-4.693857 -4.269388 0.581098
-4.631905 -4.266728 0.571852
-4.613607 -4.255721 0.569438
-4.663488 -4.185652 0.579187
-4.633852 -4.177395 0.575026
-4.636704 -4.161806 0.575988
-4.594269 -4.112502 0.571428
-4.578415 -4.101710 0.569474
-4.595707 -4.082313 0.572790
-4.609553 -4.063631 0.575578
-4.574640 -4.058099 0.570621
-4.652095 -4.021606 0.583574
-4.649741 -4.006908 0.583835
-4.642789 -3.993517 0.583373
-4.601013 -3.990371 0.577351
-4.570335 -3.984290 0.573103
-4.589072 -3.963476 0.576786
-4.602027 -3.944210 0.579563
-4.605910 -3.927609 0.580902
-4.616519 -3.908774 0.583343
-4.605257 -3.881311 0.583038
-4.567157 -3.878440 0.577649
-4.566429 -3.863220 0.578320
-4.562577 -3.849027 0.578501
-4.611759 -3.816254 0.587329
-4.590449 -3.807945 0.584711
-4.559620 -3.803227 0.580545
-4.329935 -3.827581 0.546387
-4.319424 -3.816877 0.545541
-4.318015 -3.802645 0.546212
-4.328709 -3.783540 0.548905
-4.332952 -3.766849 0.550555
-4.337448 -3.749934 0.552271
-4.331403 -3.737262 0.552254
-4.321826 -3.726064 0.551665
-4.311216 -3.715332 0.550916
-4.311263 -3.700042 0.551968
-4.314561 -3.683249 0.553588
-4.316121 -3.667104 0.554939
-4.309503 -3.654522 0.554930
-4.299127 -3.643635 0.554301
-4.294453 -3.630158 0.554652
-4.289568 -3.616746 0.554984
-4.306800 -3.592875 0.559106
-4.300212 -3.580081 0.559187
-4.294226 -3.566983 0.559385
-4.297293 -3.549439 0.561152
-4.302001 -3.530956 0.563224
-4.296958 -3.517213 0.563630
-4.290026 -3.504401 0.563718
-4.284036 -3.491104 0.563978
-4.278224 -3.477704 0.564276
-4.276672 -3.462055 0.565323
-4.273097 -3.447423 0.566022
-4.266304 -3.434492 0.566159
-4.269515 -3.416135 0.568056
-4.272152 -3.397990 0.569857
-4.274557 -3.379884 0.571618
-4.279126 -3.360480 0.573760
-4.277362 -3.344579 0.574770
-4.267110 -3.333549 0.574248
-4.265127 -3.317815 0.575182
-4.260158 -3.303847 0.575558
-4.251164 -3.292330 0.575180
-4.254002 -3.273830 0.576902
-4.257633 -3.254834 0.578738
-4.269201 -3.230961 0.581981
-4.262328 -3.218412 0.581835
-4.255900 -3.205731 0.581718
-4.252708 -3.191161 0.582135
-4.248202 -3.177559 0.582255
-4.233345 -3.170783 0.580413
-4.233715 -3.154403 0.581297
-4.230344 -3.140602 0.581426
-4.236067 -3.120962 0.583160
-4.248225 -3.097107 0.586011
-4.237082 -3.088983 0.584488
-4.237171 -3.073527 0.584961
-4.237042 -3.058405 0.585315
-4.232175 -3.046754 0.584712
-3.721190 -5.849890 0.426167
-3.696336 -5.828985 0.422608
-3.705266 -5.823308 0.424244
-3.736914 -5.827483 0.429364
-3.752821 -5.824301 0.431988
-3.799697 -5.834277 0.439383
-3.807430 -5.826849 0.440638
-3.821194 -5.821773 0.442781
-3.842413 -5.819562 0.446035
-3.864732 -5.817477 0.449412
-3.889999 -5.816262 0.453198
-3.911719 -5.813253 0.456386
-3.926499 -5.807155 0.458449
-3.940647 -5.800570 0.460372
-3.977946 -5.802762 0.465844
-4.006183 -5.801022 0.469868
-4.026015 -5.795748 0.472551
-4.045630 -5.790136 0.475166
-4.087492 -5.792456 0.481183
-4.109867 -5.787243 0.484157
-4.133618 -5.782262 0.487315
-4.154367 -5.775960 0.489984
-4.197199 -5.777079 0.496024
-4.232118 -5.775047 0.500821
-4.269463 -5.773468 0.505966
-4.298193 -5.768663 0.509772
-4.321034 -5.761664 0.512662
-4.361780 -5.760172 0.518272
-4.395163 -5.755970 0.522745
-4.427876 -5.751245 0.527104
-4.477654 -5.751401 0.534046
-4.497869 -5.742258 0.536490
-4.550296 -5.742396 0.543813
-4.559723 -5.729656 0.544621
-4.585952 -5.721623 0.547974
-4.601297 -5.710353 0.549688
-4.583665 -5.689996 0.546442
-4.603233 -5.679823 0.548814
-4.585638 -5.659763 0.545610
-4.610347 -5.650817 0.548776
-4.612380 -5.635962 0.548552
-4.602044 -5.618090 0.546491
-4.599268 -5.602207 0.545582
-4.605780 -5.588609 0.546078
-4.600900 -5.572357 0.544890
-4.586024 -5.553941 0.542230
-4.587360 -5.539322 0.542007
-4.592587 -5.525584 0.542380
-4.596389 -5.511542 0.542558
-4.580467 -5.493427 0.539821
-4.584862 -5.479621 0.540122
-4.584338 -5.464848 0.539709
-4.578114 -5.449026 0.538468
-4.573853 -5.433674 0.537535
-4.571946 -5.418835 0.536969
-4.565976 -5.403330 0.535818
-4.566150 -5.388982 0.535593
-4.564054 -5.374286 0.535048
-4.557628 -5.358938 0.533879
-4.551126 -5.343671 0.532715
-4.546317 -5.328758 0.531816
-4.552477 -5.315554 0.532551
-4.558242 -5.302262 0.533242
-4.558751 -5.288210 0.533170
-4.538928 -5.271439 0.530116
-4.534689 -5.256904 0.529374
-4.530980 -5.242499 0.528722
-4.537267 -5.229355 0.529556
-4.542506 -5.216050 0.530248
-4.541318 -5.202000 0.530006
-4.539510 -5.187912 0.529684
-4.533099 -5.173390 0.528697
-4.530690 -5.159332 0.528310
-4.526011 -5.145101 0.527601
-4.529732 -5.131662 0.528138
-4.573327 -5.121507 0.534555
-4.752060 -5.077188 0.560972
-4.725182 -5.046193 0.557132
-4.758418 -5.018462 0.562183
-4.680170 -4.986087 0.550847
-4.720954 -4.958385 0.557083
-4.722670 -4.929239 0.557596
-4.738107 -4.870828 0.560491
-4.763063 -4.856009 0.564352
-4.763427 -4.841208 0.564587
-4.705649 -4.798190 0.556623
-4.684168 -4.784264 0.553648
-4.637611 -4.771377 0.546962
-4.684336 -4.740869 0.554325
-4.710873 -4.725124 0.558491
-4.701877 -4.710984 0.557394
-4.688127 -4.697192 0.555595
-4.695518 -4.682213 0.556942
-4.761322 -4.648388 0.567247
-4.758790 -4.633684 0.567143
-4.736386 -4.605790 0.564367
-4.682827 -4.581220 0.556959
-4.657604 -4.554659 0.553788
-4.651490 -4.540830 0.553179
-4.653298 -4.526145 0.553759
-4.659156 -4.510950 0.554953
-4.677646 -4.435445 0.559411
-4.645758 -4.396236 0.555700
-4.646524 -4.381497 0.556190
-4.638157 -4.368247 0.555309
-4.595915 -4.360838 0.549318
-4.636209 -4.339332 0.555796
-4.634398 -4.325008 0.555924
-4.618496 -4.313288 0.553927
-4.634897 -4.295565 0.556826
-4.661374 -4.275698 0.561267
-4.677406 -4.257635 0.564138
-4.626761 -4.253026 0.556891
-4.607131 -4.242390 0.554356
-4.677268 -4.212696 0.565488
-4.664797 -4.200385 0.564063
-4.651284 -4.173430 0.562976
-4.635935 -4.147060 0.561638
-4.607994 -4.138878 0.557876
-4.608687 -4.123825 0.558508
-4.612141 -4.108032 0.559574
-4.613836 -4.092626 0.560383
-4.616489 -4.076915 0.561351
-4.644575 -4.039081 0.566842
-4.657361 -4.020245 0.569420
-4.667562 -4.001973 0.571617
-4.582856 -3.995829 0.559759
-4.571737 -3.968889 0.559332
-4.624013 -3.937590 0.568146
-4.619765 -3.923439 0.568182
-4.613665 -3.909872 0.567941
-4.615969 -3.893595 0.569028
-4.562142 -3.864910 0.562847
-4.577378 -3.844174 0.566028
-4.585795 -3.825605 0.568159
-4.588360 -3.808965 0.569388
-4.482899 -3.785033 0.556086
-4.325209 -3.829710 0.531820
-4.317413 -3.817994 0.531434
-4.334479 -3.796536 0.535044
-4.339217 -3.779729 0.536705
-4.338196 -3.765120 0.537464
-4.334517 -3.751535 0.537813
-4.326347 -3.739776 0.537455
-4.319349 -3.727537 0.537302
-4.312503 -3.715232 0.537189
-4.311733 -3.700303 0.538079
-4.314878 -3.683591 0.539628
-4.316105 -3.667608 0.540886
-4.309743 -3.654926 0.540924
-4.303273 -3.642279 0.540960
-4.294113 -3.630855 0.540568
-4.300118 -3.612390 0.542691
-4.302509 -3.595469 0.544242
-4.299518 -3.580997 0.544921
-4.296670 -3.566400 0.545641
-4.297694 -3.549854 0.547023
-4.295364 -3.534864 0.547862
-4.292430 -3.520114 0.548614
-4.288225 -3.505955 0.549166
-4.282801 -3.492384 0.549522
-4.277129 -3.478923 0.549845
-4.274922 -3.463629 0.550760
-4.267261 -3.451180 0.550756
-4.271352 -3.432434 0.552755
-4.271942 -3.415468 0.554164
-4.271193 -3.399166 0.555347
-4.261783 -3.387629 0.555039
-4.284968 -3.357824 0.560340
-4.279794 -3.343810 0.560752
-4.272255 -3.331183 0.560738
-4.261588 -3.320442 0.560159
-4.255888 -3.306899 0.560418
-4.248332 -3.294521 0.560325
-4.247845 -3.278001 0.561438
-4.253119 -3.258008 0.563533
-4.258573 -3.237869 0.565628
-4.265238 -3.216953 0.567903
-4.260539 -3.203119 0.568127
-4.244630 -3.196496 0.566311
-4.223341 -3.193590 0.563473
-4.238900 -3.167310 0.567126
-4.233058 -3.154866 0.566911
-4.234552 -3.137806 0.567939
-4.254354 -3.108741 0.572175
-4.249859 -3.095828 0.571998
-4.228119 -3.094761 0.568653
-4.227207 -3.079957 0.568965
-4.226450 -3.065241 0.569227
-4.263581 -3.024526 0.576223
-3.674256 -5.828683 0.408844
-3.684441 -5.823817 0.410647
-3.694009 -5.818429 0.412311
-3.734895 -5.826707 0.418645
-3.737938 -5.817833 0.419232
-3.781775 -5.826508 0.425919
-3.808771 -5.827386 0.430020
-3.822674 -5.822311 0.432098
-3.843042 -5.819685 0.435103
-3.862602 -5.816402 0.437938
-3.878098 -5.811149 0.440115
-3.892255 -5.805096 0.442045
-3.925500 -5.806423 0.446804
-3.939564 -5.799767 0.448635
-3.958415 -5.794754 0.451146
-4.003115 -5.799387 0.457498
-4.023376 -5.794255 0.460143
-4.070655 -5.798935 0.466799
-4.089821 -5.792749 0.469212
-4.104161 -5.784586 0.470875
-4.124517 -5.778399 0.473413
-4.163650 -5.778584 0.478723
-4.200530 -5.777568 0.483670
-4.233034 -5.774676 0.487943
-4.262221 -5.770338 0.491702
-4.285487 -5.763755 0.494568
-4.329175 -5.763581 0.500441
-4.357178 -5.757965 0.503980
-4.386360 -5.752459 0.507683
-4.433916 -5.752357 0.514081
-4.469845 -5.748270 0.518757
-4.501557 -5.742595 0.522806
-4.536602 -5.737617 0.527340
-4.569866 -5.731812 0.531609
-4.587463 -5.721292 0.533587
-4.594863 -5.707817 0.534083
-4.605361 -5.695167 0.535042
-4.610273 -5.680975 0.535198
-4.584445 -5.658740 0.530897
-4.592463 -5.645520 0.531537
-4.596263 -5.631215 0.531579
-4.600262 -5.616978 0.531665
-4.605961 -5.603168 0.532012
-4.609107 -5.588751 0.532006
-4.610710 -5.574001 0.531793
-4.585429 -5.553196 0.527718
-4.585453 -5.538304 0.527315
-4.592831 -5.525055 0.527988
-4.574027 -5.506239 0.524909
-4.559587 -5.488558 0.522478
-4.580299 -5.478164 0.525119
-4.587834 -5.465015 0.525879
-4.577292 -5.448361 0.524062
-4.564242 -5.431383 0.521903
-4.567886 -5.417617 0.522154
-4.570987 -5.403757 0.522343
-4.560063 -5.387480 0.520540
-4.563485 -5.373754 0.520805
-4.570856 -5.360673 0.521650
-4.569155 -5.346117 0.521213
-4.563999 -5.331077 0.520296
-4.548480 -5.314573 0.517915
-4.556276 -5.301603 0.518877
-4.548039 -5.286353 0.517564
-4.548850 -5.272422 0.517556
-4.527990 -5.255694 0.514471
-4.529569 -5.241993 0.514599
-4.535322 -5.228801 0.515334
-4.540452 -5.215501 0.515993
-4.540316 -5.201587 0.515912
-4.538874 -5.187552 0.515658
-4.537854 -5.173591 0.515474
-4.532400 -5.159224 0.514671
-4.534338 -5.145604 0.514931
-4.540232 -5.132324 0.515765
-4.563437 -5.120435 0.519076
-4.682029 -5.072458 0.536094
-4.754335 -5.032815 0.546598
-4.721888 -5.016589 0.542056
-4.694481 -5.000875 0.538240
-4.701634 -4.986669 0.539361
-4.731177 -4.973105 0.543686
-4.701946 -4.957688 0.539633
-4.711255 -4.943400 0.541087
-4.722906 -4.929067 0.542885
-4.722813 -4.914473 0.543013
-4.715395 -4.899818 0.542103
-4.717881 -4.885266 0.542614
-4.724428 -4.870683 0.543714
-4.716755 -4.856118 0.542787
-4.735679 -4.841344 0.545673
-4.725513 -4.826828 0.544403
-4.719623 -4.812316 0.543751
-4.701103 -4.798163 0.541294
-4.705610 -4.783507 0.542143
-4.691346 -4.769435 0.540306
-4.658267 -4.756213 0.535774
-4.693655 -4.740343 0.541073
-4.698076 -4.725613 0.541934
-4.698403 -4.711048 0.542214
-4.707686 -4.695959 0.543788
-4.678074 -4.683178 0.539773
-4.687598 -4.668063 0.541393
-4.683175 -4.653841 0.541011
-4.699790 -4.638053 0.543666
-4.707159 -4.622844 0.544997
-4.707125 -4.608185 0.545266
-4.701169 -4.594048 0.544685
-4.683386 -4.581074 0.542401
-4.675493 -4.567271 0.541549
-4.669371 -4.553347 0.540957
-4.666093 -4.539156 0.540782
-4.677152 -4.523355 0.542688
-4.655934 -4.511252 0.539924
-4.643293 -4.498282 0.538406
-4.630239 -4.485468 0.536830
-4.639544 -4.469800 0.538506
-4.661737 -4.452258 0.542064
-4.667121 -4.436875 0.543188
-4.667040 -4.422227 0.543523
-4.670421 -4.407038 0.544369
-4.656848 -4.394448 0.542750
-4.674534 -4.376933 0.545696
-4.656800 -4.365107 0.543480
-4.650421 -4.351492 0.542926
-4.647211 -4.337361 0.542842
-4.664154 -4.319608 0.545715
-4.635705 -4.310072 0.541947
-4.634583 -4.295598 0.542188
-4.657218 -4.276485 0.545926
-4.652470 -4.262596 0.545652
-4.638449 -4.250624 0.544021
-4.632757 -4.237020 0.543621
-4.659518 -4.216496 0.548012
-4.670107 -4.199226 0.550034
-4.624549 -4.194398 0.543774
-4.629527 -4.178424 0.544982
-4.652290 -4.158217 0.548834
-4.630109 -4.148480 0.546043
-4.628488 -4.133923 0.546305
-4.633610 -4.117676 0.547578
-4.634973 -4.102297 0.548306
-4.642838 -4.085191 0.550012
-4.630702 -4.073239 0.548751
-4.624701 -4.059725 0.548413
-4.622983 -4.045063 0.548725
-4.626225 -4.029000 0.549791
-4.604668 -4.019889 0.547155
-4.587475 -4.009696 0.545178
-4.581078 -3.996468 0.544829
-4.570792 -3.984421 0.543906
-4.560418 -3.972461 0.542979
-4.580180 -3.951264 0.546609
-4.615841 -3.924831 0.552664
-4.605529 -3.912638 0.551793
-4.585791 -3.903553 0.549505
-4.557927 -3.866559 0.547453
-4.566983 -3.847988 0.549591
-4.314615 -3.834058 0.516421
-4.317461 -3.818295 0.517693
-4.339386 -3.794947 0.521944
-4.342272 -3.778865 0.523269
-4.334628 -3.766926 0.522975
-4.322747 -3.756728 0.522035
-4.319826 -3.742873 0.522508
-4.317646 -3.728662 0.523115
-4.316853 -3.713808 0.523958
-4.315928 -3.698937 0.524801
-4.315651 -3.683712 0.525766
-4.317340 -3.667536 0.527062
-4.313193 -3.653869 0.527454
-4.306158 -3.641473 0.527405
-4.309033 -3.624517 0.528950
-4.304992 -3.610655 0.529412
-4.303468 -3.595565 0.530294
-4.303614 -3.579605 0.531463
-4.299769 -3.565478 0.532008
-4.296457 -3.551045 0.532654
-4.291186 -3.537529 0.532998
-4.285625 -3.524129 0.533307
-4.279754 -3.510864 0.533576
-4.279421 -3.494742 0.534759
-4.281698 -3.477183 0.536382
-4.274433 -3.464520 0.536452
-4.279492 -3.445321 0.538555
-4.276623 -3.430239 0.539361
-4.272142 -3.415995 0.539903
-4.263956 -3.403775 0.539828
-4.263089 -3.387525 0.540967
-4.273864 -3.364684 0.544047
-4.281074 -3.343685 0.546536
-4.269706 -3.333232 0.545900
-4.264584 -3.319262 0.546293
-4.255269 -3.307796 0.545957
-4.251980 -3.292859 0.546614
-4.247334 -3.278778 0.547013
-4.246130 -3.262682 0.547966
-4.258166 -3.238511 0.551146
-4.263059 -3.218651 0.553075
-4.254605 -3.207127 0.552677
-4.242907 -3.197826 0.551669
-4.239691 -3.183341 0.552062
-4.244743 -3.163665 0.553827
-4.245495 -3.146833 0.554793
-4.257798 -3.122533 0.557698
-4.256246 -3.107399 0.558141
-4.238032 -3.103569 0.555619
-4.230536 -3.092890 0.554883
-4.221287 -3.083666 0.553765
-4.227787 -3.063926 0.555315
-4.257875 -3.027987 0.560906
-3.703050 -5.842123 0.402981
-3.676080 -5.820230 0.399304
-3.703184 -5.822699 0.403454
-3.737919 -5.828153 0.408672
-3.752705 -5.824369 0.410936
-3.768387 -5.820692 0.413283
-3.801990 -5.824423 0.418198
-3.823820 -5.822695 0.421348
-3.845884 -5.820724 0.424484
-3.866224 -5.817702 0.427323
-3.877206 -5.810536 0.428752
-3.896720 -5.806607 0.431382
-3.924077 -5.805517 0.435111
-3.948250 -5.802809 0.438334
-3.980777 -5.803022 0.442731
-3.997078 -5.796616 0.444734
-4.016471 -5.791155 0.447152
-4.072204 -5.798983 0.454799
-4.090051 -5.792276 0.456926
-4.109976 -5.786108 0.459328
-4.125609 -5.778184 0.461086
-4.148901 -5.772775 0.463928
-4.205877 -5.778766 0.471592
-4.226673 -5.771841 0.474030
-4.257354 -5.768023 0.477870
-4.286625 -5.763434 0.481493
-4.335458 -5.764908 0.487897
-4.360689 -5.758366 0.490914
-4.398250 -5.755464 0.495680
-4.440560 -5.753671 0.501111
-4.469318 -5.747371 0.504605
-4.508060 -5.743792 0.509512
-4.544024 -5.739047 0.514020
-4.597602 -5.739045 0.521016
-4.582758 -5.719227 0.518336
-4.590074 -5.705762 0.518802
-4.599421 -5.692833 0.519565
-4.607965 -5.679653 0.520226
-4.601407 -5.662492 0.518777
-4.592363 -5.644819 0.516997
-4.596662 -5.630652 0.517107
-4.602318 -5.616836 0.517422
-4.608264 -5.603087 0.517792
-4.615213 -5.589573 0.518319
-4.602858 -5.571577 0.516164
-4.594646 -5.554695 0.514608
-4.589285 -5.538579 0.513468
-4.593551 -5.524652 0.513687
-4.585071 -5.508034 0.512148
-4.575789 -5.491381 0.510517
-4.581609 -5.477913 0.511002
-4.591610 -5.465256 0.512082
-4.582810 -5.448935 0.510569
-4.570625 -5.432106 0.508604
-4.570479 -5.417631 0.508324
-4.571287 -5.403364 0.508192
-4.564659 -5.387842 0.507047
-4.562860 -5.373230 0.506585
-4.573588 -5.360711 0.507869
-4.573321 -5.346380 0.507648
-4.566288 -5.331045 0.506506
-4.561512 -5.316141 0.505690
-4.549251 -5.300232 0.503856
-4.548851 -5.286117 0.503672
-4.545283 -5.271605 0.503064
-4.540567 -5.257001 0.502311
-4.532932 -5.242098 0.501168
-4.536719 -5.228662 0.501612
-4.542207 -5.215405 0.502302
-4.540479 -5.201316 0.502009
-4.539306 -5.187319 0.501804
-4.536766 -5.173209 0.501422
-4.532068 -5.158929 0.500753
-4.532039 -5.145137 0.500738
-4.544054 -5.132410 0.502392
-4.603990 -5.123548 0.510657
-4.696081 -5.058647 0.523540
-4.732404 -5.046154 0.528614
-4.738774 -5.031826 0.529570
-4.722393 -5.016411 0.527398
-4.723882 -5.001880 0.527697
-4.742704 -4.987964 0.530397
-4.726715 -4.972780 0.528302
-4.726783 -4.958176 0.528430
-4.719086 -4.943400 0.527494
-4.726840 -4.928966 0.528699
-4.725988 -4.914349 0.528723
-4.720595 -4.899700 0.528126
-4.722305 -4.885125 0.528518
-4.718467 -4.870537 0.528150
-4.712835 -4.855992 0.527540
-4.710898 -4.841457 0.527447
-4.714374 -4.826854 0.528110
-4.716996 -4.812230 0.528662
-4.717637 -4.797625 0.528945
-4.711148 -4.783215 0.528246
-4.704032 -4.768880 0.527466
-4.699509 -4.754505 0.527050
-4.700430 -4.739929 0.527395
-4.693311 -4.725722 0.526629
-4.694955 -4.711112 0.527086
-4.695264 -4.696555 0.527364
-4.699624 -4.681736 0.528210
-4.687835 -4.667939 0.526814
-4.683911 -4.653683 0.526518
-4.687038 -4.638917 0.527209
-4.698988 -4.623401 0.529137
-4.704197 -4.608336 0.530131
-4.696233 -4.594396 0.529292
-4.684939 -4.580833 0.527992
-4.678419 -4.566890 0.527363
-4.673201 -4.552859 0.526920
-4.670834 -4.538555 0.526881
-4.669631 -4.524126 0.527010
-4.669550 -4.509561 0.527302
-4.662530 -4.495837 0.526626
-4.660033 -4.481586 0.526589
-4.663113 -4.466604 0.527341
-4.668220 -4.451298 0.528384
-4.666660 -4.436874 0.528497
-4.667465 -4.422101 0.528948
-4.658822 -4.408735 0.528073
-4.670447 -4.392264 0.530063
-4.652474 -4.380434 0.527882
-4.658302 -4.364806 0.529067
-4.652349 -4.351115 0.528594
-4.657660 -4.335484 0.529720
-4.667209 -4.319017 0.531456
-4.639812 -4.309276 0.527962
-4.643639 -4.293847 0.528899
-4.646271 -4.278590 0.529676
-4.644370 -4.264190 0.529816
-4.633573 -4.251603 0.528698
-4.631678 -4.237233 0.528853
-4.625218 -4.223833 0.528364
-4.618642 -4.210495 0.527866
-4.618617 -4.195729 0.528311
-4.624959 -4.179478 0.529675
-4.635961 -4.162048 0.531718
-4.632719 -4.147878 0.531732
-4.618737 -4.136324 0.530213
-4.619136 -4.121305 0.530766
-4.619269 -4.106317 0.531291
-4.616978 -4.091919 0.531478
-4.617722 -4.076712 0.532112
-4.622297 -4.060433 0.533311
-4.611803 -4.048189 0.532345
-4.602413 -4.035705 0.531547
-4.608096 -4.019007 0.532942
-4.600687 -4.005984 0.532451
-4.591283 -3.993580 0.531680
-4.589572 -3.978933 0.532038
-4.577436 -3.967422 0.530890
-4.568480 -3.955008 0.530215
-4.600416 -3.929816 0.535526
-4.576475 -3.922055 0.532687
-4.563675 -3.910882 0.531485
-4.561694 -3.896230 0.531881
-4.553304 -3.883687 0.531350
-4.539958 -3.857514 0.530829
-4.529040 -3.845930 0.529961
-4.524052 -3.770153 0.533193
-4.322109 -3.831486 0.503858
-4.323159 -3.816391 0.504823
-4.335907 -3.796628 0.507563
-4.330721 -3.783791 0.507633
-4.320272 -3.773059 0.506925
-4.325414 -3.755997 0.508583
-4.317682 -3.744135 0.508317
-4.321860 -3.727283 0.509871
-4.318220 -3.713631 0.510259
-4.318538 -3.698232 0.511267
-4.319448 -3.682489 0.512387
-4.319862 -3.666872 0.513451
-4.315299 -3.653392 0.513772
-4.319064 -3.636101 0.515391
-4.312618 -3.623367 0.515459
-4.305658 -3.610856 0.515461
-4.302028 -3.596767 0.515994
-4.301214 -3.581287 0.516982
-4.298333 -3.566722 0.517665
-4.296361 -3.551655 0.518506
-4.294997 -3.536218 0.519459
-4.283202 -3.525926 0.518788
-4.277599 -3.512548 0.519099
-4.273561 -3.498346 0.519667
-4.269348 -3.484196 0.520217
-4.289718 -3.457113 0.524683
-4.288012 -3.441415 0.525659
-4.282456 -3.427725 0.526027
-4.273892 -3.415661 0.525913
-4.268740 -3.401758 0.526345
-4.270033 -3.384272 0.527814
-4.266909 -3.369192 0.528567
-4.262970 -3.354562 0.529182
-4.276835 -3.329707 0.532684
-4.264441 -3.319896 0.531902
-4.254963 -3.308502 0.531572
-4.252355 -3.293135 0.532342
-4.243087 -3.281794 0.531992
-4.244064 -3.264366 0.533298
-4.252699 -3.242255 0.535840
-4.256202 -3.223246 0.537504
-4.249104 -3.210868 0.537370
-4.243514 -3.197690 0.537437
-4.250355 -3.176731 0.539527
-4.247844 -3.161799 0.540006
-4.248720 -3.144803 0.540995
-4.249731 -3.127829 0.541947
-4.257740 -3.106339 0.544013
-4.241259 -3.101270 0.541893
-4.225004 -3.096404 0.539735
-4.222870 -3.082296 0.539883
-4.226267 -3.064597 0.540892
-4.165167 -3.091675 0.530923
-3.645971 -5.816216 0.384746
-3.687836 -5.825746 0.390864
-3.727876 -5.833915 0.396684
-3.743884 -5.830888 0.399076
-3.761917 -5.828452 0.401707
-3.774754 -5.823443 0.403558
-3.795141 -5.821418 0.406428
-3.814073 -5.818444 0.409047
-3.847067 -5.821059 0.413602
-3.869894 -5.819013 0.416678
-3.884549 -5.813286 0.418559
-3.902243 -5.808540 0.420827
-3.924835 -5.805478 0.423742
-3.959674 -5.806922 0.428338
-3.979058 -5.801934 0.430725
-4.004504 -5.799005 0.433926
-4.028646 -5.795265 0.436910
-4.052343 -5.791066 0.439801
-4.096181 -5.793975 0.445476
-4.128878 -5.792367 0.449562
-4.137481 -5.781817 0.450265
-4.154828 -5.774240 0.452169
-4.202948 -5.777113 0.458329
-4.228541 -5.771822 0.461340
-4.255798 -5.766833 0.464565
-4.293895 -5.765149 0.469275
-4.336347 -5.764502 0.474570
-4.367964 -5.759985 0.478355
-4.400494 -5.755458 0.482257
-4.443968 -5.754006 0.487655
-4.463836 -5.744992 0.489804
-4.499302 -5.740464 0.494090
-4.532808 -5.735045 0.498104
-4.582025 -5.733845 0.504262
-4.587113 -5.719744 0.504394
-4.581123 -5.702582 0.503027
-4.599086 -5.692050 0.504936
-4.602396 -5.677486 0.504862
-4.601364 -5.661814 0.504212
-4.598675 -5.645786 0.503354
-4.598510 -5.630477 0.502854
-4.603772 -5.616567 0.503105
-4.606310 -5.602003 0.503003
-4.604641 -5.586475 0.502348
-4.603769 -5.571203 0.501819
-4.602292 -5.555857 0.501224
-4.592858 -5.538817 0.499576
-4.587857 -5.522880 0.498543
-4.595917 -5.509803 0.499282
-4.588135 -5.493423 0.497908
-4.588293 -5.478765 0.497618
-4.591202 -5.464693 0.497712
-4.587043 -5.449278 0.496875
-4.573367 -5.432165 0.494781
-4.569050 -5.416930 0.493956
-4.568575 -5.402455 0.493660
-4.567930 -5.387991 0.493356
-4.560531 -5.372437 0.492166
-4.559301 -5.357991 0.491813
-4.558307 -5.343625 0.491507
-4.563014 -5.330174 0.491974
-4.559299 -5.315455 0.491332
-4.552342 -5.300333 0.490271
-4.543598 -5.285052 0.488985
-4.545691 -5.271336 0.489156
-4.545817 -5.257368 0.489077
-4.541074 -5.242812 0.488363
-4.541714 -5.228968 0.488376
-4.545178 -5.215463 0.488777
-4.542327 -5.201244 0.488349
-4.537107 -5.186817 0.487616
-4.533323 -5.172600 0.487085
-4.529273 -5.158407 0.486530
-4.523581 -5.144114 0.485766
-4.526176 -5.130611 0.486114
-4.568516 -5.120380 0.491760
-4.774537 -5.092796 0.519273
-4.746219 -5.076129 0.515557
-4.748085 -5.061524 0.515868
-4.736217 -5.031498 0.514438
-4.729027 -5.016519 0.513568
-4.731575 -5.002005 0.514003
-4.741970 -4.987754 0.515492
-4.745286 -4.973185 0.516046
-4.722035 -4.957876 0.513066
-4.732038 -4.943518 0.514527
-4.724360 -4.928759 0.513636
-4.724592 -4.914171 0.513808
-4.721679 -4.899554 0.513567
-4.720337 -4.884966 0.513542
-4.712555 -4.870397 0.512664
-4.712416 -4.855851 0.512812
-4.713184 -4.841293 0.513088
-4.713320 -4.826733 0.513286
-4.712811 -4.812179 0.513404
-4.712234 -4.797626 0.513518
-4.713759 -4.783011 0.513920
-4.708118 -4.768617 0.513368
-4.706010 -4.754133 0.513294
-4.696673 -4.739972 0.512255
-4.698362 -4.725364 0.512701
-4.688377 -4.711344 0.511585
-4.689717 -4.696761 0.511994
-4.697220 -4.681775 0.513237
-4.700448 -4.666993 0.513912
-4.694585 -4.652818 0.513369
-4.689693 -4.638614 0.512961
-4.694979 -4.623624 0.513929
-4.695221 -4.609004 0.514223
-4.692822 -4.594607 0.514166
-4.684387 -4.580792 0.513298
-4.682046 -4.566438 0.513258
-4.677080 -4.552367 0.512867
-4.677394 -4.537754 0.513195
-4.677820 -4.523111 0.513544
-4.677438 -4.508546 0.513789
-4.671349 -4.494672 0.513265
-4.671138 -4.480089 0.513543
-4.666505 -4.466079 0.513226
-4.660070 -4.452345 0.512669
-4.666665 -4.436804 0.513888
-4.656221 -4.423686 0.512795
-4.656866 -4.408967 0.513216
-4.652266 -4.395046 0.512929
-4.658748 -4.379364 0.514159
-4.655942 -4.365143 0.514128
-4.651133 -4.351271 0.513828
-4.643957 -4.337842 0.513211
-4.651954 -4.321723 0.514676
-4.662411 -4.305051 0.516487
-4.650915 -4.292427 0.515296
-4.642991 -4.279196 0.514600
-4.635124 -4.266007 0.513917
-4.634240 -4.251442 0.514200
-4.628565 -4.237865 0.513831
-4.626280 -4.223591 0.513936
-4.629748 -4.208054 0.514842
-4.629781 -4.193225 0.515283
-4.626680 -4.179085 0.515300
-4.631123 -4.163185 0.516368
-4.629420 -4.148677 0.516595
-4.621802 -4.135597 0.516011
-4.619395 -4.121265 0.516158
-4.621115 -4.105881 0.516888
-4.615386 -4.092370 0.516591
-4.611535 -4.078386 0.516565
-4.606559 -4.064707 0.516392
-4.604512 -4.050241 0.516637
-4.611414 -4.033269 0.518145
-4.608941 -4.018845 0.518353
-4.596908 -4.007159 0.517232
-4.581198 -3.996632 0.515602
-4.588266 -3.979426 0.517183
-4.590278 -3.963639 0.518067
-4.598042 -3.946012 0.519777
-4.594183 -3.931902 0.519862
-4.577949 -3.921728 0.518208
-4.571060 -3.908643 0.517886
-4.574142 -3.892300 0.518991
-4.578488 -3.875448 0.520292
-4.554455 -3.837252 0.519007
-4.540440 -3.826701 0.517744
-4.592698 -3.744614 0.528408
-4.333405 -3.827446 0.491793
-4.339262 -3.810446 0.493428
-4.332317 -3.798334 0.493227
-4.323220 -3.787084 0.492727
-4.318826 -3.773966 0.492925
-4.317811 -3.759443 0.493632
-4.325829 -3.741117 0.495679
-4.321882 -3.727643 0.495996
-4.318158 -3.714041 0.496362
-4.322063 -3.697113 0.497869
-4.322365 -3.681631 0.498867
-4.320972 -3.666811 0.499634
-4.317841 -3.652698 0.500161
-4.319211 -3.636494 0.501376
-4.309141 -3.625436 0.500906
-4.305389 -3.611468 0.501392
-4.303144 -3.596742 0.502121
-4.301183 -3.581816 0.502910
-4.300953 -3.565986 0.503977
-4.300596 -3.550127 0.505043
-4.294507 -3.537012 0.505257
-4.285123 -3.525525 0.504983
-4.277432 -3.513201 0.504976
-4.272063 -3.499691 0.505331
-4.276591 -3.481025 0.507212
-4.288417 -3.458389 0.510231
-4.285077 -3.443570 0.510934
-4.286431 -3.426190 0.512369
-4.282821 -3.411410 0.513044
-4.280824 -3.395715 0.513970
-4.272956 -3.383238 0.513983
-4.264420 -3.371172 0.513883
-4.261996 -3.355685 0.514732
-4.268580 -3.335007 0.516990
-4.266774 -3.319080 0.517922
-4.260274 -3.305900 0.518096
-4.245490 -3.297700 0.516933
-4.249842 -3.278202 0.518782
-4.242082 -3.265995 0.518678
-4.263163 -3.236238 0.523153
-4.249546 -3.227715 0.522048
-4.240018 -3.216852 0.521552
-4.247432 -3.195469 0.523737
-4.252362 -3.175651 0.525482
-4.243576 -3.164690 0.524960
-4.231702 -3.155948 0.523878
-4.247080 -3.129583 0.527159
-4.250008 -3.111408 0.528361
-4.242106 -3.100579 0.527737
-4.227177 -3.094743 0.525895
-4.226251 -3.079725 0.526266
-4.224607 -3.065389 0.526449
-4.231338 -3.045467 0.527929
-3.644554 -5.815783 0.374614
-3.710485 -5.836186 0.383780
-3.728344 -5.834248 0.386371
-3.751989 -5.834559 0.389705
-3.767278 -5.830830 0.391857
-3.778315 -5.824964 0.393384
-3.792767 -5.820324 0.395331
-3.808761 -5.816068 0.397443
-3.827637 -5.812741 0.399903
-3.869180 -5.818501 0.405402
-3.888367 -5.814588 0.407817
-3.903383 -5.808698 0.409625
-3.933380 -5.808541 0.413428
-3.953777 -5.804219 0.415888
-3.985116 -5.803865 0.419796
-4.010853 -5.800981 0.422908
-4.032146 -5.796102 0.425388
-4.063993 -5.794888 0.429262
-4.093261 -5.792361 0.432758
-4.121706 -5.789207 0.436117
-4.150580 -5.785893 0.439508
-4.149595 -5.771801 0.438872
-4.205024 -5.777205 0.445784
-4.231640 -5.772237 0.448815
-4.262502 -5.768425 0.452398
-4.292157 -5.763913 0.455805
-4.330041 -5.761784 0.460297
-4.373943 -5.761207 0.465576
-4.408336 -5.757226 0.469580
-4.440950 -5.752381 0.473339
-4.475094 -5.747705 0.477296
-4.501647 -5.740465 0.480245
-4.557971 -5.741703 0.487123
-4.575079 -5.731153 0.488824
-4.584501 -5.718319 0.489519
-4.582988 -5.702421 0.488787
-4.579876 -5.686165 0.487860
-4.596366 -5.675223 0.489517
-4.603534 -5.661736 0.489964
-4.602777 -5.646206 0.489388
-4.600804 -5.630437 0.488669
-4.599578 -5.614931 0.488064
-4.600631 -5.600043 0.487773
-4.599313 -5.584641 0.487189
-4.604228 -5.570747 0.487432
-4.600340 -5.554868 0.486546
-4.585715 -5.536705 0.484284
-4.582983 -5.521309 0.483584
-4.597079 -5.509543 0.485081
-4.595693 -5.494492 0.484587
-4.592603 -5.479156 0.483888
-4.587689 -5.463538 0.482970
-4.565570 -5.444711 0.479845
-4.560408 -5.429308 0.478928
-4.572257 -5.417090 0.480222
-4.568558 -5.402041 0.479524
-4.565234 -5.387128 0.478889
-4.576327 -5.374698 0.480125
-4.555500 -5.356997 0.477264
-4.552446 -5.342336 0.476707
-4.561483 -5.329587 0.477719
-4.561116 -5.315383 0.477533
-4.538759 -5.298049 0.474533
-4.535243 -5.283571 0.473969
-4.540166 -5.270284 0.474502
-4.534489 -5.255599 0.473684
-4.536565 -5.241958 0.473875
-4.537783 -5.228213 0.473966
-4.539949 -5.214586 0.474190
-4.538702 -5.200577 0.473986
-4.533028 -5.186127 0.473225
-4.529399 -5.171953 0.472737
-4.528919 -5.158132 0.472663
-4.522454 -5.143777 0.471831
-4.524700 -5.130256 0.472127
-4.610192 -5.123600 0.483116
-4.681190 -5.115025 0.492255
-4.731829 -5.031088 0.499110
-4.732794 -5.016503 0.499323
-4.725821 -5.001591 0.498524
-4.723087 -4.986897 0.498277
-4.725165 -4.972382 0.498656
-4.738906 -4.958160 0.500543
-4.726098 -4.943225 0.499021
-4.725020 -4.928613 0.499016
-4.713425 -4.913875 0.497663
-4.722427 -4.899410 0.498969
-4.715795 -4.884804 0.498268
-4.708999 -4.870258 0.497551
-4.712687 -4.855711 0.498192
-4.714776 -4.841140 0.498633
-4.711040 -4.826635 0.498328
-4.710587 -4.812093 0.498452
-4.709701 -4.797561 0.498527
-4.710718 -4.782975 0.498853
-4.714899 -4.768266 0.499593
-4.707521 -4.753955 0.498844
-4.704744 -4.739507 0.498695
-4.682262 -4.726020 0.495999
-4.680782 -4.711631 0.496026
-4.689223 -4.696680 0.497345
-4.698981 -4.681558 0.498841
-4.706685 -4.666471 0.500077
-4.700008 -4.652328 0.499451
-4.693570 -4.638218 0.498860
-4.687230 -4.624150 0.498286
-4.685184 -4.609763 0.498274
-4.679816 -4.595682 0.497835
-4.682974 -4.580832 0.498510
-4.681831 -4.566368 0.498631
-4.687710 -4.551170 0.499672
-4.683259 -4.537028 0.499370
-4.682255 -4.522521 0.499523
-4.681899 -4.507934 0.499766
-4.677847 -4.493791 0.499530
-4.676413 -4.479336 0.499642
-4.671171 -4.465384 0.499259
-4.657562 -4.452615 0.497784
-4.649439 -4.439180 0.497031
-4.654902 -4.423810 0.498067
-4.655371 -4.409128 0.498452
-4.658398 -4.394023 0.499181
-4.655754 -4.379786 0.499169
-4.659240 -4.364538 0.499970
-4.651839 -4.351096 0.499342
-4.642344 -4.338072 0.498443
-4.636365 -4.324485 0.498012
-4.647130 -4.307836 0.499800
-4.648825 -4.292783 0.500398
-4.640190 -4.279704 0.499634
-4.636304 -4.265738 0.499504
-4.634094 -4.251442 0.499604
-4.633904 -4.236722 0.499978
-4.632287 -4.222283 0.500171
-4.640152 -4.205759 0.501634
-4.637659 -4.191450 0.501726
-4.627195 -4.178961 0.500762
-4.627402 -4.164053 0.501230
-4.628787 -4.148833 0.501864
-4.625287 -4.134759 0.501853
-4.622598 -4.120486 0.501959
-4.629233 -4.103847 0.503325
-4.623400 -4.090329 0.503028
-4.604767 -4.080204 0.501018
-4.608005 -4.064363 0.501958
-4.603930 -4.050451 0.501923
-4.608422 -4.034160 0.503054
-4.610276 -4.018532 0.503842
-4.601543 -4.005897 0.503209
-4.586516 -3.995154 0.501731
-4.587196 -3.979836 0.502392
-4.599349 -3.960987 0.504626
-4.604141 -3.944240 0.505876
-4.597867 -3.930867 0.505631
-4.582695 -3.920344 0.504183
-4.576378 -3.907061 0.503954
-4.582208 -3.889796 0.505400
-4.613760 -3.863829 0.510393
-4.599041 -3.853173 0.509056
-4.540441 -3.857726 0.501686
-4.655220 -3.753911 0.520499
-4.344664 -3.823406 0.479634
-4.337930 -3.811227 0.479458
-4.331576 -3.798904 0.479350
-4.323760 -3.787161 0.479050
-4.318170 -3.774536 0.479076
-4.318939 -3.759301 0.480013
-4.316253 -3.745414 0.480482
-4.318014 -3.729613 0.481596
-4.317330 -3.714755 0.482384
-4.320765 -3.698049 0.483776
-4.319422 -3.683307 0.484509
-4.311832 -3.671256 0.484367
-4.321459 -3.651501 0.486706
-4.311666 -3.640349 0.486282
-4.302734 -3.628825 0.485995
-4.301503 -3.613737 0.486832
-4.304438 -3.596611 0.488290
-4.303480 -3.581213 0.489204
-4.300756 -3.566584 0.489879
-4.301778 -3.550066 0.491117
-4.294138 -3.537721 0.491106
-4.288234 -3.524506 0.491361
-4.279826 -3.512535 0.491258
-4.275708 -3.498378 0.491796
-4.273565 -3.483155 0.492638
-4.276597 -3.465157 0.494258
-4.282219 -3.445662 0.496278
-4.279879 -3.430285 0.497124
-4.282127 -3.412366 0.498663
-4.284097 -3.394496 0.500168
-4.279036 -3.380434 0.500619
-4.267024 -3.370273 0.500017
-4.262343 -3.356042 0.500514
-4.269760 -3.334872 0.502840
-4.267338 -3.319278 0.503666
-4.253867 -3.310166 0.502789
-4.265756 -3.286157 0.505774
-4.257046 -3.274336 0.505583
-4.250433 -3.261355 0.505686
-4.245674 -3.247336 0.506044
-4.258080 -3.222783 0.509027
-4.246387 -3.213175 0.508241
-4.235020 -3.203562 0.507458
-4.239084 -3.184322 0.509032
-4.239794 -3.167275 0.510037
-4.230066 -3.157102 0.509356
-4.242702 -3.132483 0.512126
-4.250012 -3.111365 0.514006
-4.238299 -3.103016 0.512832
-4.230120 -3.092580 0.512144
-4.252018 -3.061941 0.516140
-4.245930 -3.050429 0.515647
-4.262568 -3.023447 0.518679
-3.695869 -5.839495 0.371395
-3.682320 -5.823566 0.369806
-3.724476 -5.832619 0.375477
-3.751288 -5.834307 0.379093
-3.766422 -5.830464 0.381133
-3.778332 -5.824934 0.382705
-3.801517 -5.823996 0.385713
-3.814974 -5.818573 0.387401
-3.839399 -5.817495 0.390484
-3.865962 -5.816946 0.393806
-3.885323 -5.813078 0.396141
-3.915764 -5.813392 0.399888
-3.936649 -5.809499 0.402344
-3.961324 -5.806807 0.405259
-3.985636 -5.803650 0.408092
-4.008420 -5.799601 0.410693
-4.034805 -5.796626 0.413732
-4.064510 -5.794572 0.417173
-4.089177 -5.790330 0.419932
-4.115472 -5.786399 0.422878
-4.132751 -5.778974 0.424634
-4.169169 -5.778071 0.428849
-4.206776 -5.777198 0.433195
-4.243725 -5.775717 0.437436
-4.266811 -5.769229 0.439876
-4.290821 -5.762828 0.442425
-4.336289 -5.763151 0.447718
-4.387719 -5.764927 0.453759
-4.410530 -5.757243 0.456126
-4.449160 -5.754235 0.460509
-4.479081 -5.748237 0.463776
-4.503671 -5.740393 0.466362
-4.571571 -5.744995 0.474454
-4.580208 -5.731951 0.475011
-4.581931 -5.716930 0.474701
-4.584029 -5.702055 0.474451
-4.589094 -5.688025 0.474589
-4.602217 -5.676147 0.475757
-4.609910 -5.662780 0.476252
-4.606759 -5.646617 0.475393
-4.596327 -5.628719 0.473636
-4.588388 -5.611598 0.472210
-4.588800 -5.596626 0.471850
-4.597656 -5.583696 0.472565
-4.603598 -5.570061 0.472929
-4.593946 -5.552896 0.471356
-4.586956 -5.536469 0.470133
-4.580470 -5.520269 0.468991
-4.585931 -5.506704 0.469358
-4.595441 -5.493968 0.470243
-4.594457 -5.479072 0.469834
-4.574006 -5.460404 0.467017
-4.564426 -5.444062 0.465571
-4.564992 -5.429747 0.465403
-4.570955 -5.416448 0.465919
-4.575668 -5.402906 0.466294
-4.570026 -5.387572 0.465397
-4.561499 -5.371843 0.464156
-4.543525 -5.354692 0.461758
-4.556377 -5.342610 0.463197
-4.556657 -5.328510 0.463089
-4.560171 -5.314915 0.463395
-4.543360 -5.298395 0.461195
-4.538836 -5.283765 0.460530
-4.529728 -5.268588 0.459310
-4.528973 -5.254599 0.459136
-4.528266 -5.240645 0.458978
-4.536843 -5.227831 0.459980
-4.543382 -5.214720 0.460741
-4.537817 -5.200226 0.460014
-4.532808 -5.185859 0.459367
-4.528013 -5.171576 0.458757
-4.526638 -5.157681 0.458579
-4.532406 -5.144469 0.459294
-4.545693 -5.131869 0.460947
-4.581210 -5.120991 0.465359
-4.767156 -5.077055 0.488531
-4.769327 -5.062383 0.488866
-4.735126 -5.031069 0.484791
-4.744907 -5.016872 0.486092
-4.716761 -5.001049 0.482704
-4.716781 -4.986502 0.482811
-4.724216 -4.972188 0.483844
-4.723124 -4.957579 0.483828
-4.728659 -4.943125 0.484640
-4.720821 -4.928388 0.483801
-4.719432 -4.913803 0.483768
-4.713322 -4.899192 0.483155
-4.709414 -4.884642 0.482821
-4.705463 -4.870125 0.482487
-4.711999 -4.855579 0.483463
-4.711229 -4.841046 0.483536
-4.707664 -4.826557 0.483267
-4.708882 -4.812001 0.483599
-4.708878 -4.797457 0.483784
-4.709264 -4.782896 0.484024
-4.720646 -4.767952 0.485639
-4.714030 -4.753588 0.485016
-4.687514 -4.740138 0.481915
-4.694265 -4.725334 0.482968
-4.686471 -4.711223 0.482211
-4.689758 -4.696541 0.482842
-4.701721 -4.681282 0.484563
-4.712984 -4.665947 0.486203
-4.705852 -4.651809 0.485547
-4.690761 -4.638331 0.483897
-4.685637 -4.624180 0.483499
-4.681635 -4.609969 0.483246
-4.677926 -4.595757 0.483034
-4.677469 -4.581262 0.483234
-4.682487 -4.566211 0.484127
-4.678540 -4.552035 0.483898
-4.689082 -4.536305 0.485496
-4.670683 -4.523751 0.483457
-4.679070 -4.508185 0.484795
-4.681185 -4.493298 0.485348
-4.678934 -4.478933 0.485355
-4.673892 -4.464945 0.485015
-4.649254 -4.453681 0.482202
-4.653972 -4.438462 0.483103
-4.658716 -4.423178 0.484013
-4.663169 -4.407876 0.484893
-4.660061 -4.393696 0.484820
-4.664667 -4.378285 0.485732
-4.653483 -4.365432 0.484644
-4.649574 -4.351423 0.484485
-4.647094 -4.337183 0.484512
-4.637900 -4.324156 0.483690
-4.619340 -4.312932 0.481679
-4.633705 -4.295609 0.483870
-4.644234 -4.278873 0.485582
-4.639007 -4.265159 0.485289
-4.640124 -4.250174 0.485813
-4.638003 -4.235833 0.485930
-4.637857 -4.221064 0.486307
-4.634298 -4.207018 0.486254
-4.625649 -4.194120 0.485553
-4.628508 -4.178648 0.486338
-4.636265 -4.161973 0.487763
-4.628977 -4.148785 0.487260
-4.621229 -4.135749 0.486703
-4.621731 -4.120710 0.487219
-4.597336 -4.111941 0.484524
-4.619967 -4.091235 0.487922
-4.606696 -4.079722 0.486681
-4.599347 -4.066718 0.486214
-4.605045 -4.050187 0.487452
-4.605013 -4.035155 0.487956
-4.612349 -4.018000 0.489432
-4.606662 -4.004484 0.489222
-4.598439 -3.991729 0.488689
-4.598767 -3.976464 0.489285
-4.600365 -3.960767 0.490060
-4.608164 -3.943097 0.491662
-4.607844 -3.927846 0.492212
-4.600651 -3.914739 0.491871
-4.581041 -3.905676 0.489903
-4.584463 -3.889190 0.490983
-4.629589 -3.858690 0.497595
-4.585651 -3.826721 0.493801
-4.545446 -3.794228 0.490586
-4.354578 -3.819863 0.467203
-4.336248 -3.812125 0.465478
-4.327922 -3.800596 0.465110
-4.327842 -3.785812 0.465869
-4.327040 -3.771248 0.466549
-4.322114 -3.758305 0.466685
-4.318277 -3.744889 0.466985
-4.312768 -3.732140 0.467072
-4.312877 -3.716987 0.467943
-4.317703 -3.699723 0.469479
-4.303286 -3.690713 0.468392
-4.298532 -3.677513 0.468646
-4.304226 -3.659608 0.470359
-4.309069 -3.641938 0.471977
-4.299920 -3.630542 0.471675
-4.295407 -3.617007 0.472030
-4.299086 -3.599581 0.473544
-4.303632 -3.581607 0.475201
-4.301968 -3.566480 0.476008
-4.295418 -3.553662 0.476145
-4.294588 -3.538002 0.477101
-4.291540 -3.523367 0.477760
-4.287753 -3.509048 0.478327
-4.283036 -3.495157 0.478774
-4.277683 -3.481561 0.479141
-4.278498 -3.464707 0.480399
-4.279507 -3.447651 0.481698
-4.279263 -3.431170 0.482827
-4.279725 -3.414227 0.484067
-4.276718 -3.399103 0.484811
-4.278129 -3.381491 0.486199
-4.269471 -3.369445 0.486123
-4.264415 -3.355402 0.486565
-4.271861 -3.334193 0.488833
-4.263108 -3.322245 0.488718
-4.251924 -3.311797 0.488227
-4.264179 -3.287565 0.491182
-4.248385 -3.279973 0.489968
-4.265450 -3.252673 0.493610
-4.265515 -3.235571 0.494705
-4.260265 -3.221777 0.494976
-4.251583 -3.210231 0.494695
-4.239752 -3.200832 0.493897
-4.247958 -3.178874 0.496069
-4.242589 -3.165630 0.496152
-4.236656 -3.152915 0.496097
-4.229655 -3.141084 0.495824
-4.243680 -3.115534 0.498686
-4.236179 -3.104342 0.498219
-4.222739 -3.097399 0.496782
-4.240322 -3.069667 0.500009
-4.234340 -3.058079 0.499575
-4.176481 -3.082667 0.491135
-3.646024 -5.816837 0.354905
-3.676944 -5.821266 0.358974
-3.688824 -5.816707 0.360597
-3.740968 -5.829771 0.367266
-3.756190 -5.825970 0.369228
-3.789882 -5.829904 0.373480
-3.808016 -5.826692 0.375723
-3.830227 -5.824906 0.378439
-3.846236 -5.820179 0.380329
-3.863181 -5.815569 0.382297
-3.885868 -5.813034 0.384950
-3.916433 -5.813355 0.388557
-3.940971 -5.810877 0.391367
-3.967109 -5.808701 0.394342
-3.985196 -5.803067 0.396272
-4.015517 -5.801871 0.399706
-4.036533 -5.796805 0.401944
-4.054670 -5.790416 0.403795
-4.092722 -5.791107 0.408112
-4.110988 -5.784238 0.409933
-4.130933 -5.777768 0.411946
-4.174709 -5.779432 0.416905
-4.211833 -5.778347 0.421016
-4.235325 -5.772256 0.423418
-4.271592 -5.770207 0.427390
-4.298955 -5.764875 0.430248
-4.321826 -5.757836 0.432543
-4.381770 -5.762387 0.439400
-4.419286 -5.759333 0.443480
-4.449203 -5.753595 0.446620
-4.471187 -5.745196 0.448784
-4.488884 -5.735349 0.450424
-4.542847 -5.735955 0.456503
-4.575901 -5.730065 0.460021
-4.583237 -5.716657 0.460404
-4.588355 -5.702620 0.460529
-4.600502 -5.690497 0.461520
-4.611809 -5.678089 0.462420
-4.611699 -5.662646 0.461946
-4.602806 -5.645020 0.460424
-4.592955 -5.627303 0.458803
-4.586076 -5.610473 0.457560
-4.584092 -5.594949 0.456925
-4.595490 -5.582654 0.457920
-4.601258 -5.569001 0.458250
-4.600530 -5.553879 0.457812
-4.572327 -5.532749 0.454085
-4.572740 -5.518125 0.453819
-4.581463 -5.505298 0.454565
-4.587162 -5.491809 0.454961
-4.579650 -5.475653 0.453788
-4.581086 -5.461370 0.453703
-4.574879 -5.445652 0.452717
-4.571240 -5.430513 0.452053
-4.576030 -5.416981 0.452412
-4.567945 -5.401162 0.451246
-4.567581 -5.386785 0.451016
-4.559826 -5.371209 0.449918
-4.551564 -5.355657 0.448773
-4.538639 -5.339478 0.447085
-4.541639 -5.325889 0.447310
-4.541052 -5.311767 0.447119
-4.550465 -5.299113 0.448131
-4.546493 -5.284535 0.447560
-4.543247 -5.270117 0.447087
-4.528768 -5.254299 0.445288
-4.531405 -5.240770 0.445538
-4.538109 -5.227725 0.446283
-4.539519 -5.214024 0.446408
-4.539058 -5.200120 0.446320
-4.533627 -5.185711 0.445651
-4.531461 -5.171697 0.445380
-4.530587 -5.157842 0.445272
-4.533367 -5.144342 0.445608
-4.547207 -5.131793 0.447269
-4.584415 -5.121050 0.451719
-4.691350 -5.115395 0.464474
-4.724346 -5.059534 0.468620
-4.735021 -5.045524 0.469966
-4.735605 -5.030916 0.470119
-4.730953 -5.016070 0.469656
-4.705306 -5.000419 0.466698
-4.709298 -4.986072 0.467278
-4.724330 -4.972034 0.469182
-4.725490 -4.957488 0.469439
-4.716018 -4.942698 0.468434
-4.722966 -4.928278 0.469395
-4.720447 -4.913673 0.469233
-4.715581 -4.899070 0.468795
-4.707584 -4.884500 0.467990
-4.705656 -4.869992 0.467915
-4.703773 -4.855498 0.467851
-4.710026 -4.840930 0.468765
-4.707753 -4.826430 0.468665
-4.705744 -4.811941 0.468602
-4.704867 -4.797436 0.468680
-4.725146 -4.782313 0.471299
-4.713233 -4.768087 0.470064
-4.697122 -4.754126 0.468328
-4.699054 -4.739527 0.468763
-4.699677 -4.724965 0.469045
-4.696503 -4.710587 0.468875
-4.688859 -4.696486 0.468172
-4.703415 -4.681072 0.470144
-4.697265 -4.666892 0.469630
-4.705509 -4.651731 0.470853
-4.696584 -4.637789 0.470012
-4.690150 -4.623717 0.469475
-4.687015 -4.609413 0.469340
-4.683043 -4.595202 0.469108
-4.670234 -4.581854 0.467811
-4.672554 -4.567108 0.468347
-4.681906 -4.551594 0.469739
-4.674941 -4.537757 0.469160
-4.681279 -4.522459 0.470198
-4.687972 -4.507045 0.471284
-4.680526 -4.493295 0.470660
-4.676829 -4.479120 0.470495
-4.675426 -4.464661 0.470612
-4.674118 -4.450187 0.470746
