ply
format ascii 1.0
comment ---
element vertex 1708
property float x
property float y
property float z
element face 0
property list uchar uint vertex_indices
end_header
-3.540808 2.209138 0.633166
-3.535397 2.225219 0.634877
-3.535605 2.246213 0.637696
-3.535545 2.267154 0.640490
-3.535014 2.287863 0.643218
-3.533135 2.307554 0.645706
-3.530951 2.327130 0.648157
-3.526762 2.345056 0.650231
-3.523180 2.363656 0.652446
-3.518770 2.381632 0.654514
-3.527430 2.411837 0.659262
-3.521617 2.428867 0.661098
-3.523134 2.452921 0.664459
-3.520494 2.473254 0.666994
-3.511823 2.487957 0.668298
-3.513430 2.512698 0.671767
-3.518670 2.541252 0.676037
-3.513172 2.559509 0.678077
-3.511530 2.581744 0.680958
-3.505145 2.599405 0.682851
-3.512973 2.631643 0.687831
-3.505565 2.648628 0.689557
-3.500048 2.667677 0.691712
-3.489560 2.681667 0.692795
-3.484047 2.700961 0.694987
-3.476549 2.718286 0.696759
-3.467973 2.734563 0.698307
-3.454171 2.745251 0.698691
-3.434193 2.749149 0.697675
-3.435167 2.776110 0.701421
-3.417622 2.782662 0.700957
-3.396484 2.785064 0.699652
-3.374160 2.785946 0.698049
-3.362027 2.798352 0.698806
-3.330804 2.788607 0.695071
-3.319925 2.802317 0.696105
-3.268469 2.768034 0.687467
-3.241583 2.762249 0.684611
-3.217736 2.759810 0.682447
-3.195168 2.758676 0.680560
-3.178093 2.764070 0.679990
-3.153973 2.760609 0.677669
-3.127282 2.753651 0.674675
-3.097993 2.743061 0.670986
-3.072967 2.737515 0.668315
-3.054157 2.739685 0.667178
-3.035192 2.741496 0.665981
-3.007191 2.731243 0.662443
-2.980264 2.722018 0.659129
-2.959613 2.720842 0.657399
-2.941345 2.722679 0.656265
-2.924776 2.726685 0.655559
-2.902090 2.722115 0.653214
-2.878624 2.716171 0.650622
-2.857586 2.713340 0.648643
-2.838348 2.712830 0.647122
-2.820557 2.714200 0.645971
-2.796559 2.706385 0.643089
-2.779788 2.708841 0.642168
-2.764364 2.713158 0.641608
-2.738020 2.701009 0.637958
-2.713470 2.691144 0.634761
-2.696972 2.693212 0.633816
-2.680867 2.695751 0.632968
-2.662403 2.694476 0.631419
-2.644503 2.693888 0.630010
-2.625919 2.692019 0.628375
-2.596856 2.673054 0.623598
-2.571357 2.659317 0.619811
-2.550723 2.653120 0.617433
-2.541469 2.665544 0.618481
-2.519090 2.656009 0.615516
-2.498218 2.648663 0.612970
-2.474582 2.636249 0.609519
-2.460110 2.639302 0.608894
-2.453707 2.656416 0.610819
-2.434008 2.650167 0.608524
-2.411380 2.638371 0.605245
-2.392430 2.632825 0.603109
-2.374809 2.629436 0.601374
-2.355918 2.623466 0.599190
-2.335107 2.613613 0.596329
-2.319206 2.612695 0.595074
-2.305151 2.615147 0.594428
-2.289967 2.615326 0.593386
-2.271411 2.608754 0.591161
-2.253339 2.602850 0.589069
-2.233706 2.593538 0.586391
-2.219295 2.594477 0.585528
-2.204649 2.594824 0.584569
-2.188900 2.592758 0.583197
-2.168163 2.580017 0.579976
-2.152359 2.577352 0.578526
-2.133590 2.568105 0.575944
-2.118392 2.566307 0.574667
-2.102730 2.563325 0.573195
-2.088730 2.563873 0.572342
-2.076831 2.569088 0.572299
-2.063990 2.572169 0.571895
-2.046895 2.565334 0.569799
-2.026293 2.549957 0.566257
-2.008984 2.541936 0.563987
-1.997344 2.547318 0.564012
-1.982893 2.545861 0.562879
-1.975089 2.560793 0.564532
-1.958319 2.553466 0.562418
-1.945318 2.555477 0.561893
-1.930862 2.553696 0.560735
-1.917699 2.555183 0.560135
-1.899139 2.542251 0.557123
-1.885338 2.541738 0.556206
-1.871997 2.542403 0.555492
-1.854967 2.532741 0.553063
-1.843273 2.537808 0.553098
-1.849124 2.593357 0.561521
-1.758134 2.797619 0.586114
-1.768071 2.883775 0.599289
-1.747581 2.864003 0.595246
-1.731383 2.858979 0.593604
-1.704671 2.814429 0.585583
-1.682907 2.786694 0.580302
-1.670444 2.793618 0.580617
-1.627486 2.791416 0.577868
-1.611179 2.781532 0.575491
-1.597638 2.782660 0.574875
-1.561609 2.804173 0.575890
-1.538233 2.819908 0.576752
-1.523240 2.810897 0.574508
-1.489980 2.708806 0.557609
-3.934391 1.083820 0.512451
-3.902956 1.086510 0.510245
-3.884669 1.093953 0.509693
-3.853912 1.096900 0.507533
-3.849915 1.109775 0.508797
-3.849506 1.124211 0.510533
-3.883855 1.152189 0.516802
-3.866729 1.160766 0.516397
-3.861392 1.174015 0.517531
-3.856431 1.187557 0.518719
-3.851398 1.201205 0.519902
-3.851204 1.216957 0.521734
-3.856194 1.235023 0.524271
-3.852396 1.249602 0.525642
-3.847250 1.263705 0.526837
-3.833594 1.274205 0.526878
-3.842871 1.294712 0.530043
-3.856143 1.317211 0.533779
-3.842663 1.327948 0.533854
-3.857753 1.351632 0.537879
-3.843974 1.362274 0.537916
-3.853642 1.383788 0.541225
-3.793550 1.372512 0.534752
-3.850852 1.416804 0.544789
-3.842062 1.429815 0.545535
-3.840645 1.446406 0.547330
-3.846348 1.466584 0.550156
-3.854701 1.505786 0.555425
-3.856103 1.541817 0.559748
-3.866177 1.582752 0.565405
-3.862296 1.598595 0.566941
-3.664121 1.593086 0.549603
-3.609692 1.578464 0.543303
-3.635077 1.610277 0.549249
-3.612011 1.613607 0.547735
-3.620129 1.635499 0.551059
-3.613825 1.648788 0.552153
-3.630945 1.676485 0.556938
-3.627581 1.691745 0.558526
-3.621500 1.705335 0.559691
-3.615501 1.718983 0.560876
-3.605311 1.729949 0.561395
-3.594768 1.740640 0.561856
-3.586580 1.752823 0.562699
-3.596298 1.776833 0.566465
-3.602539 1.798746 0.569695
-3.604064 1.817660 0.572176
-3.586828 1.823908 0.571571
-3.566395 1.827824 0.570421
-3.602890 1.871152 0.578782
-3.597363 1.885583 0.580156
-3.582436 1.893382 0.579950
-3.578933 1.909272 0.581679
-3.590560 1.936175 0.586006
-3.575928 1.944184 0.585864
-3.592941 1.975449 0.591180
-3.583414 1.987321 0.591941
-3.578449 2.002617 0.593501
-3.580241 2.023104 0.596259
-3.575080 2.038424 0.597815
-3.569352 2.053370 0.599283
-3.570085 2.073421 0.601915
-3.568534 2.091828 0.604160
-3.558968 2.103975 0.604982
-3.557664 2.122773 0.607305
-3.554785 2.140428 0.609362
-3.555230 2.160920 0.612045
-3.554230 2.180385 0.614488
-3.551954 2.198933 0.616718
-3.547315 2.215620 0.618527
-3.542128 2.231937 0.620249
-3.538239 2.249461 0.622231
-3.535148 2.267790 0.624381
-3.532611 2.286735 0.626657
-3.532036 2.307556 0.629330
-3.528753 2.326137 0.631508
-3.525904 2.345246 0.633789
-3.520910 2.362549 0.635674
-3.526417 2.389603 0.639635
-3.520125 2.406021 0.641310
-3.523189 2.431284 0.644856
-3.524787 2.455425 0.648146
-3.516381 2.470274 0.649462
-3.513723 2.490717 0.651950
-3.510273 2.510562 0.654301
-3.509328 2.533023 0.657187
-3.512183 2.559453 0.660882
-3.511228 2.582362 0.663830
-3.507227 2.602417 0.666175
-3.502693 2.622093 0.668432
-3.510842 2.654954 0.673380
-3.502687 2.671314 0.674932
-3.491116 2.684189 0.675770
-3.482090 2.699780 0.677159
-3.482698 2.725728 0.680637
-3.474193 2.742136 0.682175
-3.459993 2.752447 0.682484
-3.443478 2.760194 0.682284
-3.428055 2.769082 0.682316
-3.412107 2.777334 0.682227
-3.391251 2.779986 0.681033
-3.372528 2.784904 0.680299
-3.351357 2.786883 0.678995
-3.333311 2.792315 0.678382
-3.302399 2.782545 0.674800
-3.281137 2.783803 0.673398
-3.247769 2.770399 0.669154
-3.220443 2.763818 0.666265
-3.195181 2.759418 0.663819
-3.168512 2.752995 0.661001
-3.144931 2.750077 0.658879
-3.121757 2.747409 0.656822
-3.094397 2.739182 0.653717
-3.069533 2.733783 0.651175
-3.050125 2.735128 0.649932
-3.028106 2.732893 0.648023
-3.007130 2.731788 0.646341
-2.985217 2.729216 0.644397
-2.958315 2.719696 0.641163
-2.941199 2.723067 0.640366
-2.923330 2.725278 0.639360
-2.899972 2.719745 0.636922
-2.876679 2.713999 0.634461
-2.860000 2.717281 0.633690
-2.844201 2.721693 0.633136
-2.821316 2.715801 0.630691
-2.802173 2.715044 0.629206
-2.782599 2.713450 0.627580
-2.747938 2.689247 0.621834
-2.732076 2.692548 0.621136
-2.709417 2.685440 0.618554
-2.697960 2.695145 0.619037
-2.682451 2.698607 0.618393
-2.660512 2.691916 0.615925
-2.640730 2.688312 0.614028
-2.617617 2.679144 0.611147
-2.592777 2.666825 0.607721
-2.570665 2.658516 0.605033
-2.556781 2.663398 0.604710
-2.539163 2.662004 0.603278
-2.513736 2.647290 0.599498
-2.491381 2.637313 0.596577
-2.473807 2.635161 0.595055
-2.455739 2.631945 0.593356
-2.439424 2.631572 0.592169
-2.426021 2.636197 0.591866
-2.407998 2.632483 0.590112
-2.393299 2.634554 0.589378
-2.375798 2.631384 0.587742
-2.357529 2.626567 0.585831
-2.339037 2.621075 0.583817
-2.320780 2.615754 0.581846
-2.302855 2.610802 0.579952
-2.286340 2.608329 0.578495
-2.271487 2.608915 0.577574
-2.253958 2.604069 0.575732
-2.236649 2.599413 0.573935
-2.218633 2.593079 0.571865
-2.204790 2.595037 0.571216
-2.187040 2.588789 0.569183
-2.167052 2.577555 0.566321
-2.152749 2.578033 0.565451
-2.138847 2.579264 0.564715
-2.120519 2.570750 0.562350
-2.107069 2.572686 0.561750
-2.094268 2.576010 0.561388
-2.079117 2.573985 0.560140
-2.065252 2.574755 0.559366
-2.047540 2.566492 0.557098
-2.027729 2.552973 0.553973
-2.013371 2.552008 0.552942
-1.999947 2.553182 0.552271
-1.990412 2.563827 0.553167
-1.972640 2.554213 0.550733
-1.962109 2.562481 0.551246
-1.943908 2.551311 0.548579
-1.927570 2.544569 0.546649
-1.912729 2.541490 0.545328
-1.898413 2.539644 0.544216
-1.886374 2.543830 0.544091
-1.874413 2.548283 0.544014
-1.860692 2.547898 0.543158
-1.847555 2.549086 0.542563
-1.862155 2.629875 0.554801
-1.794833 2.772740 0.571237
-1.771142 2.841001 0.579632
-1.758782 2.849514 0.580168
-1.747276 2.861255 0.581210
-1.726934 2.841042 0.577232
-1.710173 2.833175 0.575204
-1.643178 2.796155 0.566290
-1.626586 2.785790 0.563905
-1.614580 2.793871 0.564386
-1.601248 2.796178 0.563968
-1.553960 2.829092 0.565912
-1.510234 2.808506 0.560376
-3.862676 1.059594 0.489598
-3.880938 1.079780 0.493530
-3.870848 1.090111 0.494016
-3.853258 1.097847 0.493577
-3.843401 1.108551 0.494090
-3.873343 1.134454 0.499566
-3.901123 1.160068 0.504820
-3.882413 1.168129 0.504268
-3.865498 1.176913 0.503932
-3.858325 1.189606 0.504826
-3.848989 1.201534 0.505446
-3.850309 1.217905 0.507433
-3.849913 1.233741 0.509211
-3.849264 1.249618 0.510967
-3.847546 1.265172 0.512593
-3.845802 1.280826 0.514223
-3.847037 1.297888 0.516254
-3.860483 1.320499 0.519911
-3.868881 1.341099 0.522925
-3.854469 1.351503 0.522914
-3.859350 1.370732 0.525483
-3.848982 1.382977 0.526013
-3.846221 1.398780 0.527570
-3.824763 1.405666 0.526587
-3.831262 1.425932 0.529413
-3.836653 1.445801 0.532105
-3.828871 1.459249 0.532994
-3.843623 1.484009 0.537014
-3.854042 1.506803 0.540460
-3.842698 1.518569 0.540879
-3.850024 1.539992 0.543926
-3.854885 1.560266 0.546646
-3.856891 1.579137 0.548979
-3.784374 1.628179 0.548821
-3.737329 1.619054 0.543990
-3.632888 1.576265 0.530639
-3.620931 1.586206 0.530855
-3.621844 1.603657 0.532983
-3.614912 1.616510 0.533951
-3.609874 1.630488 0.535208
-3.610883 1.648159 0.537386
-3.618493 1.669983 0.540583
-3.619434 1.687835 0.542788
-3.613952 1.701741 0.544023
-3.619069 1.722393 0.546900
-3.608130 1.732891 0.547310
-3.595451 1.742206 0.547447
-3.610774 1.769788 0.551969
-3.596877 1.778331 0.551928
-3.600203 1.798296 0.554609
-3.603758 1.818561 0.557349
-3.596148 1.831360 0.558325
-3.574158 1.834254 0.556993
-3.593350 1.865607 0.562301
-3.572735 1.869362 0.561189
-3.587884 1.898324 0.565903
-3.585960 1.915377 0.567859
-3.586147 1.934050 0.570178
-3.591444 1.956582 0.573365
-3.588132 1.972962 0.575144
-3.586574 1.990729 0.577232
-3.577870 2.003228 0.578132
-3.574323 2.019651 0.579911
-3.576488 2.040541 0.582678
-3.569142 2.054238 0.583840
-3.563296 2.069140 0.585269
-3.563744 2.089069 0.587799
-3.558950 2.104976 0.589438
-3.556922 2.123187 0.591576
-3.560464 2.146047 0.594713
-3.556896 2.163289 0.596621
-3.553859 2.181077 0.598640
-3.548725 2.197228 0.600301
-3.542319 2.212394 0.601747
-3.537393 2.228887 0.603473
-3.537387 2.249706 0.606109
-3.533417 2.267262 0.608045
-3.530175 2.285569 0.610132
-3.529551 2.306324 0.612723
-3.528863 2.327197 0.615327
-3.523993 2.344481 0.617172
-3.522136 2.364616 0.619602
-3.519337 2.384052 0.621876
-3.519145 2.406057 0.624670
-3.522700 2.431769 0.628210
-3.523921 2.455547 0.631336
-3.517858 2.472615 0.633080
-3.502869 2.481201 0.633098
-3.509804 2.511031 0.637416
-3.503227 2.527961 0.639112
-3.502442 2.550730 0.641974
-3.507094 2.579147 0.645952
-3.507272 2.603373 0.649074
-3.503967 2.624296 0.651523
-3.511901 2.656948 0.656286
-3.503900 2.673471 0.657837
-3.485299 2.678988 0.657216
-3.469953 2.687833 0.657258
-3.477086 2.720619 0.661986
-3.481571 2.750958 0.666212
-3.465422 2.759217 0.666126
-3.446714 2.764604 0.665488
-3.427590 2.769414 0.664748
-3.407449 2.772962 0.663773
-3.389996 2.779395 0.663364
-3.372147 2.785286 0.662857
-3.353094 2.789687 0.662074
-3.325306 2.783806 0.659346
-3.302305 2.783216 0.657641
-3.275292 2.777648 0.655010
-3.249348 2.773041 0.652580
-3.221739 2.766124 0.649735
-3.189432 2.753137 0.645774
-3.164658 2.748965 0.643487
-3.144645 2.750423 0.642266
-3.121419 2.747674 0.640274
-3.093496 2.738715 0.637149
-3.067596 2.731968 0.634454
-3.044776 2.728868 0.632449
-3.024718 2.729110 0.631073
-3.005556 2.730340 0.629889
-2.984992 2.729531 0.628344
-2.959185 2.721464 0.625491
-2.938646 2.720190 0.623890
-2.920344 2.721763 0.622817
-2.895093 2.713555 0.619988
-2.876196 2.713871 0.618713
-2.860251 2.718173 0.618163
-2.836818 2.711690 0.615691
-2.817695 2.711097 0.614286
-2.799854 2.712168 0.613189
-2.780891 2.711424 0.611780
-2.747417 2.688940 0.606532
-2.719437 2.674050 0.602658
-2.710055 2.686846 0.603682
-2.696681 2.693616 0.603647
-2.679479 2.694425 0.602571
-2.658543 2.689238 0.600457
-2.639015 2.685988 0.598695
-2.618834 2.681453 0.596722
-2.598537 2.676458 0.594684
-2.574208 2.664620 0.591475
-2.559628 2.668404 0.590982
-2.544149 2.670601 0.590222
-2.509900 2.641132 0.584033
-2.491835 2.638353 0.582449
-2.474862 2.637226 0.581159
-2.455100 2.631073 0.579022
-2.438144 2.629547 0.577686
-2.422060 2.629375 0.576589
-2.413255 2.642092 0.577682
-2.395601 2.638894 0.576087
-2.376938 2.633621 0.574155
-2.357501 2.626645 0.571949
-2.339650 2.622333 0.570204
-2.319333 2.613102 0.567648
-2.300439 2.606243 0.565503
-2.286530 2.608748 0.564930
-2.270790 2.607580 0.563754
-2.255516 2.607169 0.562712
-2.237289 2.600686 0.560675
-2.218625 2.593029 0.558457
-2.203161 2.591633 0.557283
-2.188229 2.591182 0.556273
-2.169905 2.583457 0.554079
-2.156045 2.584926 0.553402
-2.142909 2.587871 0.552971
-2.121122 2.571892 0.549467
-2.107352 2.573111 0.548774
-2.094100 2.575409 0.548263
-2.079762 2.575196 0.547351
-2.064602 2.572982 0.546124
-2.045280 2.560933 0.543322
-2.029698 2.557273 0.541883
-2.016118 2.558197 0.541189
-2.003335 2.560978 0.540798
-1.986293 2.553307 0.538743
-1.975539 2.560955 0.539141
-1.956798 2.548615 0.536362
-1.944203 2.551540 0.536021
-1.925470 2.538578 0.533167
-1.910835 2.535926 0.531958
-1.899520 2.541969 0.532129
-1.887323 2.545731 0.531943
-1.874027 2.546521 0.531294
-1.854032 2.528616 0.527719
-1.846679 2.545828 0.529657
-1.850896 2.596715 0.536852
-1.883021 2.730479 0.556947
-1.876829 2.754957 0.559958
-1.821272 2.809747 0.564458
-1.777375 2.761647 0.555493
-1.767408 2.878305 0.571028
-1.743091 2.844709 0.565115
-1.728747 2.846047 0.564543
-1.713134 2.842533 0.563236
-1.697452 2.838418 0.561842
-1.682390 2.836297 0.560754
-1.668671 2.839123 0.560417
-1.645376 2.803205 0.554234
-1.629743 2.796939 0.552538
-1.614722 2.792598 0.551134
-1.602360 2.799044 0.551352
-1.571220 2.782539 0.547379
-1.515869 2.834782 0.551351
-1.477397 2.766961 0.539787
-3.841493 1.053210 0.473340
-3.860664 1.073651 0.477236
-3.868265 1.090336 0.479803
-3.873606 1.106525 0.482125
-3.876729 1.122195 0.484203
-3.901033 1.146161 0.488838
-3.904105 1.162462 0.490957
-3.872377 1.165482 0.488881
-3.863574 1.177418 0.489568
-3.853782 1.189064 0.490135
-3.854142 1.204903 0.491950
-3.854617 1.220967 0.493791
-3.856688 1.237862 0.495841
-3.856844 1.254124 0.497667
-3.853106 1.268864 0.499015
-3.849881 1.283913 0.500433
-3.850653 1.300800 0.502363
-3.867673 1.325030 0.506372
-3.876635 1.345934 0.509383
-3.873073 1.361326 0.510805
-3.844642 1.365278 0.509020
-3.850725 1.385129 0.511689
-3.841025 1.397654 0.512316
-3.828280 1.408677 0.512542
-3.830640 1.426956 0.514752
-3.842816 1.450157 0.518275
-3.842951 1.467577 0.520221
-3.838719 1.482862 0.521594
-3.842385 1.502185 0.524034
-3.840515 1.518758 0.525742
-3.836015 1.533996 0.527101
-3.833260 1.550160 0.528703
-3.674229 1.584219 0.520375
-3.629527 1.575499 0.515979
-3.632568 1.594170 0.518354
-3.631574 1.610564 0.520166
-3.620732 1.621138 0.520568
-3.611593 1.632672 0.521214
-3.610667 1.649170 0.523059
-3.610972 1.666490 0.525095
-3.609524 1.682800 0.526888
-3.606567 1.698224 0.528470
-3.623348 1.726238 0.533000
-3.617378 1.739949 0.534167
-3.602177 1.747678 0.533950
-3.604441 1.766745 0.536366
-3.597220 1.779656 0.537359
-3.588302 1.791430 0.538098
-3.598424 1.816049 0.541763
-3.595529 1.832022 0.543451
-3.589837 1.846133 0.544717
-3.596253 1.868702 0.547880
-3.598614 1.888619 0.550434
-3.604181 1.910959 0.553517
-3.594741 1.922732 0.554247
-3.586100 1.935071 0.555106
-3.587407 1.954683 0.557564
-3.587457 1.973511 0.559840
-3.577300 1.984858 0.560483
-3.575114 2.002189 0.562425
-3.572068 2.018969 0.564242
-3.572110 2.038209 0.566582
-3.570475 2.056292 0.568665
-3.559765 2.067392 0.569256
-3.557556 2.085194 0.571270
-3.558528 2.105646 0.573837
-3.559769 2.126480 0.576473
-3.559972 2.146646 0.578957
-3.557297 2.164613 0.580971
-3.550418 2.179216 0.582278
-3.544064 2.194316 0.583687
-3.535226 2.207386 0.584674
-3.532394 2.225602 0.586719
-3.531613 2.245711 0.589142
-3.534103 2.268823 0.592168
-3.529387 2.285840 0.593940
-3.524078 2.302439 0.595622
-3.527018 2.326503 0.598803
-3.525318 2.346624 0.601176
-3.519029 2.362734 0.602735
-3.523808 2.389101 0.606336
-3.528877 2.416019 0.610027
-3.528064 2.437726 0.612666
-3.529269 2.461534 0.615708
-3.515498 2.471294 0.615971
-3.505539 2.484692 0.616951
-3.503385 2.505713 0.619420
-3.503063 2.528715 0.622263
-3.495670 2.544936 0.623776
-3.495542 2.568510 0.626707
-3.505843 2.602838 0.631696
-3.505437 2.626694 0.634646
-3.500324 2.645948 0.636701
-3.496048 2.666219 0.638941
-3.489022 2.683774 0.640655
-3.478838 2.698107 0.641752
-3.471747 2.715796 0.643481
-3.470812 2.740238 0.646476
-3.464667 2.759261 0.648439
-3.448152 2.767038 0.648289
-3.430197 2.773149 0.647833
-3.412737 2.779715 0.647469
-3.387553 2.777460 0.645476
-3.372861 2.786915 0.645665
-3.353195 2.790609 0.644794
-3.326519 2.786008 0.642409
-3.296530 2.777217 0.639274
-3.268112 2.769907 0.636432
-3.243109 2.766331 0.634292
-3.223312 2.768764 0.633260
-3.193852 2.759254 0.630075
-3.165256 2.750413 0.627033
-3.145224 2.751845 0.625863
-3.123579 2.751075 0.624307
-3.090376 2.735435 0.620103
-3.066487 2.731211 0.617964
-3.042892 2.727083 0.615858
-3.020607 2.724383 0.614022
-3.002813 2.727353 0.613202
-2.980202 2.723772 0.611235
-2.961237 2.724824 0.610098
-2.940854 2.723777 0.608602
-2.923657 2.726882 0.607845
-2.899202 2.719807 0.605319
-2.877247 2.715893 0.603360
-2.858507 2.716249 0.602157
-2.836190 2.711322 0.600049
-2.814455 2.706943 0.598050
-2.793737 2.703769 0.596274
-2.775535 2.704041 0.595102
-2.763568 2.713390 0.595494
-2.733363 2.695390 0.591216
-2.712216 2.690564 0.589208
-2.694621 2.690894 0.588090
-2.676722 2.690580 0.586872
-2.657573 2.688126 0.585303
-2.637534 2.684039 0.583469
-2.620420 2.684356 0.582389
-2.600148 2.679415 0.580436
-2.579666 2.673853 0.578392
-2.560848 2.670741 0.576770
-2.546185 2.674302 0.576272
-2.521098 2.660248 0.572853
-2.492922 2.640479 0.568507
-2.477901 2.642708 0.567823
-2.462025 2.643339 0.566882
-2.440062 2.633141 0.564166
-2.431003 2.645449 0.565162
-2.412906 2.641664 0.563522
-2.395574 2.639025 0.562079
-2.375736 2.631582 0.559864
-2.356548 2.625024 0.557807
-2.337041 2.617570 0.555617
-2.317827 2.610355 0.553479
-2.299543 2.604614 0.551593
-2.284688 2.605246 0.550746
-2.270368 2.606801 0.550054
-2.252587 2.601388 0.548251
-2.237093 2.600302 0.547152
-2.220210 2.596235 0.545586
-2.203775 2.592861 0.544140
-2.187033 2.588639 0.542569
-2.170915 2.585504 0.541181
-2.157253 2.587396 0.540597
-2.141546 2.584809 0.539313
-2.116208 2.561019 0.534695
-2.102629 2.562503 0.534076
-2.091267 2.568871 0.534228
-2.076683 2.567994 0.533249
-2.063699 2.570658 0.532830
-2.043794 2.557202 0.529903
-2.028050 2.553091 0.528445
-2.013596 2.551849 0.527442
-2.002637 2.558931 0.527737
-1.989664 2.561177 0.527285
-1.969482 2.545493 0.524071
-1.954425 2.542191 0.522780
-1.940943 2.542737 0.522088
-1.923236 2.532283 0.519715
-1.912514 2.539789 0.520104
-1.900549 2.544129 0.520011
-1.886416 2.542665 0.519035
-1.874850 2.548125 0.519121
-1.860510 2.545961 0.518050
-1.845174 2.540852 0.516539
-1.869345 2.648869 0.532157
-1.826138 2.777358 0.546930
-1.814228 2.785946 0.547452
-1.790100 2.802740 0.548438
-1.782613 2.877723 0.558049
-1.759012 2.847383 0.552791
-1.741876 2.838893 0.550781
-1.728748 2.844530 0.550862
-1.714406 2.845695 0.550284
-1.697611 2.837410 0.548320
-1.686186 2.849312 0.549322
-1.676790 2.869438 0.551525
-1.654241 2.837161 0.546060
-1.633432 2.810345 0.541410
-1.619498 2.810853 0.540754
-1.606027 2.812942 0.540327
-1.568006 2.827534 0.540242
-1.555917 2.834320 0.540484
-1.542528 2.834466 0.539766
-1.516724 2.837120 0.538661
-1.499390 2.814397 0.534659
-1.485944 2.809980 0.533285
-1.487532 2.885127 0.543264
-3.953116 1.093906 0.472190
-3.863983 1.075976 0.463801
-3.859277 1.088216 0.464896
-3.905041 1.119301 0.471748
-3.893523 1.129668 0.472111
-3.880007 1.139407 0.472246
-3.876339 1.153027 0.473517
-3.879002 1.169297 0.475534
-3.860453 1.177430 0.475090
-3.855996 1.191202 0.476290
-3.855516 1.206722 0.477966
-3.859023 1.224050 0.480126
-3.866250 1.243126 0.482746
-3.869350 1.260692 0.484890
-3.864764 1.275144 0.486124
-3.853972 1.286983 0.486612
-3.845172 1.299695 0.487339
-3.847095 1.317187 0.489376
-3.875455 1.346720 0.494674
-3.849886 1.352059 0.493356
-3.858033 1.372777 0.496202
-3.850626 1.386393 0.497126
-3.829842 1.393655 0.496373
-3.834535 1.412979 0.498816
-3.834838 1.430294 0.500717
-3.838741 1.449453 0.503087
-3.845494 1.470142 0.505837
-3.836167 1.482870 0.506537
-3.832281 1.498322 0.507939
-3.837215 1.518342 0.510492
-3.833122 1.533767 0.511882
-3.834127 1.569559 0.515893
-3.742908 1.624677 0.515381
-3.653451 1.590487 0.505099
-3.636463 1.597597 0.504673
-3.625985 1.608407 0.505136
-3.622498 1.623328 0.506568
-3.613397 1.634889 0.507224
-3.610581 1.650240 0.508761
-3.613004 1.668861 0.511047
-3.610063 1.684249 0.512589
-3.613323 1.703585 0.515025
-3.610965 1.719472 0.516674
-3.623698 1.745114 0.520509
-3.612730 1.755622 0.520943
-3.601469 1.765885 0.521332
-3.597837 1.781147 0.522836
-3.590188 1.793767 0.523758
-3.583035 1.806719 0.524758
-3.601564 1.837213 0.529583
-3.600364 1.854457 0.531503
-3.598862 1.871581 0.533391
-3.604051 1.893503 0.536306
-3.605345 1.912843 0.538653
-3.596441 1.925002 0.539462
-3.579965 1.931668 0.539110
-3.583452 1.952829 0.541832
-3.580790 1.969621 0.543623
-3.576925 1.985605 0.545241
-3.569799 1.999209 0.546358
-3.575025 2.022235 0.549433
-3.570001 2.037605 0.550908
-3.560882 2.049865 0.551740
-3.565411 2.072815 0.554768
-3.560969 2.088889 0.556375
-3.560743 2.108409 0.558679
-3.563184 2.130225 0.561439
-3.557391 2.145539 0.562873
-3.552504 2.161664 0.564468
-3.546916 2.177296 0.565959
-3.541555 2.193193 0.567499
-3.534962 2.208132 0.568845
-3.530601 2.225038 0.570578
-3.530406 2.245633 0.573033
-3.532287 2.268205 0.575866
-3.526857 2.284577 0.577470
-3.524914 2.304129 0.579690
-3.524969 2.325621 0.582277
-3.528006 2.349993 0.585412
-3.528944 2.372700 0.588208
-3.516399 2.383230 0.588648
-3.533772 2.421497 0.594409
-3.532321 2.442646 0.596866
-3.522452 2.456023 0.597831
-3.515257 2.471987 0.599286
-3.511256 2.491115 0.601335
-3.517187 2.520044 0.605224
-3.512775 2.539156 0.607248
-3.505417 2.555496 0.608744
-3.510642 2.584510 0.612601
-3.505120 2.603011 0.614482
-3.505977 2.628145 0.617586
-3.488918 2.635113 0.617317
-3.492838 2.663775 0.621051
-3.491268 2.687013 0.623770
-3.481722 2.702035 0.624973
-3.468998 2.713733 0.625566
-3.463900 2.733657 0.627656
-3.459301 2.754284 0.629865
-3.450783 2.770783 0.631319
-3.439837 2.784684 0.632300
-3.418752 2.787283 0.631248
-3.395346 2.787091 0.629707
-3.375477 2.790714 0.628861
-3.356622 2.795360 0.628207
-3.331033 2.792048 0.626147
-3.296116 2.777508 0.622117
-3.265100 2.767100 0.618843
-3.243460 2.767503 0.617495
-3.221986 2.767904 0.616159
-3.197070 2.763906 0.614064
-3.169219 2.756008 0.611305
-3.139488 2.745414 0.608097
-3.109310 2.733849 0.604742
-3.091205 2.737163 0.603983
-3.070013 2.736388 0.602527
-3.042268 2.726927 0.599589
-3.020213 2.724508 0.597879
-3.000826 2.725361 0.596741
-2.979980 2.724091 0.595251
-2.957690 2.720660 0.593405
-2.941462 2.725194 0.592924
-2.924620 2.728783 0.592289
-2.904802 2.728127 0.590944
-2.876044 2.714766 0.587473
-2.853224 2.709331 0.585354
-2.834503 2.709444 0.584177
-2.813242 2.705713 0.582369
-2.789572 2.698210 0.579946
-2.776985 2.706663 0.580188
-2.765329 2.716485 0.580658
-2.750928 2.722203 0.580452
-2.715570 2.696097 0.575008
-2.696601 2.694362 0.573599
-2.677123 2.691623 0.572036
-2.659657 2.691792 0.570960
-2.641154 2.690150 0.569597
-2.618672 2.681948 0.567178
-2.598554 2.677212 0.565336
-2.575672 2.667699 0.562733
-2.560558 2.670600 0.562151
-2.543750 2.670574 0.561103
-2.518574 2.656313 0.557777
-2.494906 2.644139 0.554804
-2.478307 2.643680 0.553723
-2.463443 2.646057 0.553102
-2.447405 2.646269 0.552142
-2.429312 2.642677 0.550587
-2.406965 2.631221 0.547797
-2.391515 2.631861 0.546934
-2.376138 2.632495 0.546077
-2.352608 2.617880 0.542830
-2.335134 2.614135 0.541306
-2.319412 2.613481 0.540276
-2.300637 2.606814 0.538315
-2.283767 2.603544 0.536895
-2.266681 2.599636 0.535386
-2.251860 2.599992 0.534548
-2.217915 2.561838 0.527755
-2.222974 2.601853 0.533070
-2.206167 2.597762 0.531566
-2.186260 2.586998 0.529046
-2.168201 2.579736 0.527078
-2.153844 2.580059 0.526283
-2.138482 2.578102 0.525145
-2.116610 2.561773 0.521824
-2.099198 2.554775 0.519940
-2.088513 2.562541 0.520308
-2.075821 2.565847 0.520002
-2.056159 2.553138 0.517279
-2.045151 2.560111 0.517540
-2.028846 2.554694 0.515937
-2.015535 2.556177 0.515380
-2.002421 2.558083 0.514892
-1.986674 2.553497 0.513437
-1.969187 2.544379 0.511314
-1.951922 2.535481 0.509234
-1.937569 2.533686 0.508223
-1.926597 2.540511 0.508497
-1.914095 2.543438 0.508196
-1.900028 2.542206 0.507283
-1.886437 2.542151 0.506550
-1.873713 2.544404 0.506162
-1.860542 2.545412 0.505595
-1.844467 2.538180 0.503824
-1.869129 2.647509 0.519130
-1.881983 2.725791 0.529843
-1.879319 2.760561 0.534169
-1.865142 2.852158 0.545220
-1.842654 2.828490 0.541032
-1.821810 2.809220 0.537496
-1.808326 2.813250 0.537337
-1.794807 2.817214 0.537170
-1.776500 2.855350 0.541175
-1.757281 2.839967 0.538235
-1.739334 2.828421 0.535854
-1.726979 2.836652 0.536304
-1.712542 2.837291 0.535671
-1.696909 2.833228 0.534372
-1.686328 2.848288 0.535791
-1.674906 2.860386 0.536784
-1.659215 2.855521 0.535375
-1.640713 2.838570 0.532263
-1.625561 2.834567 0.530985
-1.611151 2.833147 0.530073
-1.596797 2.831433 0.529121
-1.582657 2.830063 0.528218
-1.568814 2.829397 0.527414
-1.554070 2.823826 0.525925
-1.542038 2.830254 0.526111
-1.529895 2.835629 0.526146
-1.516799 2.835614 0.525428
-1.502085 2.826346 0.523426
-1.489291 2.825693 0.522620
-1.477707 2.830414 0.522554
-3.958585 1.096989 0.458580
-3.885501 1.084842 0.452306
-3.868272 1.092635 0.452032
-3.892939 1.116003 0.456326
-3.901553 1.133858 0.458902
-3.876003 1.139081 0.457739
-3.874269 1.153436 0.459199
-3.872200 1.167863 0.460635
-3.875719 1.184686 0.462707
-3.863835 1.195573 0.463063
-3.865556 1.212039 0.464956
-3.867715 1.228876 0.466913
-3.867930 1.245088 0.468663
-3.865059 1.260147 0.470069
-3.862984 1.275653 0.471575
-3.859536 1.290670 0.472929
-3.849706 1.302960 0.473545
-3.850372 1.319922 0.475390
-3.852942 1.337853 0.477470
-3.867413 1.361349 0.480973
-3.857810 1.373959 0.481636
-3.847021 1.385984 0.482154
-3.835363 1.397548 0.482563
-3.823383 1.408892 0.482928
-3.833017 1.430680 0.485917
-3.838694 1.450700 0.488443
-3.841103 1.469225 0.490584
-3.837784 1.484952 0.492030
-3.834291 1.500609 0.493460
-3.832343 1.517085 0.495088
-3.833541 1.535241 0.497119
-3.831683 1.569499 0.500675
-3.824706 1.583429 0.501695
-3.749915 1.629872 0.501598
-3.653333 1.591560 0.490811
-3.630512 1.595247 0.489658
-3.622452 1.607440 0.490448
-3.608138 1.615862 0.490403
-3.609316 1.633532 0.492431
-3.611526 1.651920 0.494613
-3.612835 1.669857 0.496688
-3.618289 1.690473 0.499343
-3.616907 1.706935 0.501080
-3.610281 1.720124 0.502106
-3.609456 1.737043 0.503940
-3.611048 1.755611 0.506123
-3.604105 1.768687 0.507126
-3.601484 1.784632 0.508743
-3.593492 1.797040 0.509608
-3.578971 1.805023 0.509547
-3.586255 1.827809 0.512601
-3.601282 1.856143 0.516796
-3.590103 1.866525 0.517237
-3.603566 1.894209 0.521263
-3.603304 1.912437 0.523318
-3.578335 1.913041 0.521753
-3.572386 1.927201 0.522979
-3.575107 1.947746 0.525502
-3.578787 1.969162 0.528191
-3.574931 1.985133 0.529769
-3.580401 2.008209 0.532770
-3.580816 2.027651 0.535029
-3.569465 2.038198 0.535509
-3.562576 2.052177 0.536674
-3.562291 2.071368 0.538867
-3.564289 2.092505 0.541434
-3.560208 2.108970 0.543075
-3.557286 2.126459 0.544910
-3.551130 2.141427 0.546249
-3.544680 2.156216 0.547551
-3.546294 2.177751 0.550152
-3.543489 2.195777 0.552066
-3.541286 2.214436 0.554095
-3.537374 2.231772 0.555863
-3.534020 2.249699 0.557737
-3.530385 2.267505 0.559581
-3.528041 2.286563 0.561655
-3.521658 2.302189 0.563076
-3.527263 2.328613 0.566515
-3.525390 2.348572 0.568730
-3.523309 2.368505 0.570930
-3.525474 2.392503 0.573875
-3.524219 2.413566 0.576262
-3.520607 2.432604 0.578266
-3.515118 2.450013 0.579963
-3.511456 2.469279 0.581994
-3.516844 2.497414 0.585633
-3.524516 2.528086 0.589714
-3.523871 2.550959 0.592361
-3.521757 2.572592 0.594772
-3.518588 2.593361 0.597017
-3.509065 2.607893 0.598133
-3.495697 2.618564 0.598557
-3.498787 2.646153 0.601998
-3.496276 2.668233 0.604443
-3.487988 2.684457 0.605840
-3.479706 2.700778 0.607250
-3.468929 2.714528 0.608204
-3.462493 2.733003 0.609985
-3.460485 2.756432 0.612625
-3.458326 2.779925 0.615265
-3.444252 2.790429 0.615635
-3.401376 2.768661 0.610414
-3.392614 2.784827 0.611783
-3.378672 2.795175 0.612146
-3.358294 2.798090 0.611234
-3.332387 2.794416 0.609203
-3.299627 2.782408 0.605765
-3.269393 2.772953 0.602785
-3.242635 2.767267 0.600466
-3.223250 2.770171 0.599619
-3.203738 2.772770 0.598728
-3.174219 2.762883 0.595745
-3.141245 2.748300 0.591994
-3.114257 2.740749 0.589445
-3.094062 2.741462 0.588292
-3.074627 2.742962 0.587280
-3.047834 2.734776 0.584670
-3.023525 2.729472 0.582555
-3.005151 2.731692 0.581697
-2.983552 2.729465 0.580115
-2.957779 2.721385 0.577583
-2.937770 2.720775 0.576292
-2.922211 2.726062 0.575974
-2.899848 2.721839 0.574112
-2.869421 2.706059 0.570387
-2.851245 2.707079 0.569405
-2.835464 2.711349 0.568957
-2.814405 2.707907 0.567272
-2.795592 2.707479 0.566083
-2.781507 2.713807 0.565987
-2.765159 2.716716 0.565347
-2.740875 2.707594 0.562796
-2.720672 2.704285 0.561185
-2.696509 2.694664 0.558584
-2.682556 2.700457 0.558439
-2.660522 2.693560 0.556294
-2.641357 2.690873 0.554826
-2.621023 2.686088 0.553039
-2.600303 2.680405 0.551123
-2.576838 2.669957 0.548474
-2.558969 2.668329 0.547217
-2.542618 2.669021 0.546330
-2.513317 2.647788 0.542048
-2.490116 2.636298 0.539298
-2.476158 2.640272 0.538952
-2.462502 2.644695 0.538680
-2.448099 2.647740 0.538201
-2.421933 2.629826 0.534512
-2.404151 2.626397 0.533060
-2.394852 2.638116 0.533930
-2.375815 2.632091 0.532097
-2.353414 2.619543 0.529284
-2.336122 2.616141 0.527873
-2.322080 2.618675 0.527369
-2.304098 2.613568 0.525717
-2.285418 2.606846 0.523832
-2.265228 2.596869 0.521470
-2.246779 2.589976 0.519583
-2.235916 2.598011 0.519940
-2.219430 2.594684 0.518603
-2.205895 2.597209 0.518146
-2.186593 2.587675 0.515902
-2.166059 2.575193 0.513233
-2.152611 2.577377 0.512748
-2.137106 2.575060 0.511603
-2.120894 2.571023 0.510213
-2.104618 2.566632 0.508779
-2.088547 2.562474 0.507388
-2.072664 2.558528 0.506036
-2.056450 2.553617 0.504552
-2.041277 2.550893 0.503395
-2.030658 2.558720 0.503780
-2.014373 2.553142 0.502221
-2.001699 2.556046 0.501899
-1.984005 2.546644 0.499801
-1.968200 2.541584 0.498340
-1.954163 2.540750 0.497497
-1.946506 2.556092 0.498985
-1.929940 2.548732 0.497212
-1.918100 2.553487 0.497183
-1.901629 2.545978 0.495403
-1.887367 2.544139 0.494442
-1.873546 2.543391 0.493641
-1.855885 2.531866 0.491315
-1.842353 2.531590 0.490594
-1.868994 2.646439 0.506174
-1.878869 2.715979 0.515294
-1.878576 2.757571 0.520442
-1.869709 2.774660 0.522123
-1.860257 2.790452 0.523618
-1.856277 2.823684 0.527554
-1.843811 2.831162 0.527872
-1.824141 2.815688 0.524985
-1.808340 2.812232 0.523785
-1.770586 2.833764 0.524642
-1.757242 2.838578 0.524600
-1.742272 2.837623 0.523761
-1.728316 2.840176 0.523410
-1.715019 2.845097 0.523386
-1.701188 2.847995 0.523084
-1.686002 2.845547 0.522049
-1.674438 2.857010 0.522923
-1.658965 2.852944 0.521670
-1.642412 2.843943 0.519747
-1.628133 2.843710 0.519024
-1.613290 2.840636 0.517916
-1.598119 2.835515 0.516532
-1.583278 2.831115 0.515249
-1.568615 2.826737 0.513972
-1.554170 2.822527 0.512719
-1.540115 2.819263 0.511596
-1.526987 2.819599 0.510958
-1.514019 2.819880 0.510312
-1.501297 2.820492 0.509710
-1.488666 2.820599 0.509039
-1.476812 2.823788 0.508779
-3.841896 1.056650 0.432374
-3.858162 1.076119 0.435566
-3.891990 1.102423 0.440615
-3.876361 1.111027 0.440558
-3.879068 1.126603 0.442423
-3.885231 1.143763 0.444671
-3.877194 1.155749 0.445437
-3.868886 1.167767 0.446179
-3.860492 1.179871 0.446917
-3.872717 1.200347 0.449878
-3.881089 1.219574 0.452449
-3.872775 1.232191 0.453227
-3.867022 1.245946 0.454287
-3.860448 1.259439 0.455262
-3.860141 1.275681 0.456933
-3.856566 1.290628 0.458250
-3.854813 1.306455 0.459778
-3.854179 1.322870 0.461438
-3.856598 1.340758 0.463453
-3.848060 1.353757 0.464236
-3.858620 1.375592 0.467198
-3.843568 1.385616 0.467242
-3.832835 1.397593 0.467776
-3.826439 1.411602 0.468809
-3.817962 1.424591 0.469600
-3.843267 1.454199 0.474349
-3.849583 1.474700 0.476901
-3.851000 1.492865 0.478889
-3.827287 1.498265 0.477896
-3.829177 1.516678 0.479947
-3.832530 1.535940 0.482187
-3.828347 1.551313 0.483528
-3.786131 1.634046 0.489531
-3.769776 1.642412 0.489364
-3.650751 1.591186 0.476221
-3.609979 1.584333 0.472863
-3.606018 1.598816 0.474160
-3.605358 1.615291 0.475886
-3.603108 1.630867 0.477417
-3.611469 1.652970 0.480333
-3.610589 1.669552 0.482067
-3.614342 1.689092 0.484420
-3.607193 1.701888 0.485353
-3.606689 1.718907 0.487168
-3.603765 1.734447 0.488674
-3.603432 1.751723 0.490535
-3.602254 1.768529 0.492296
-3.600455 1.785002 0.493984
-3.604734 1.805620 0.496511
-3.604504 1.823343 0.498441
-3.604707 1.841461 0.500445
-3.591532 1.850450 0.500612
-3.594146 1.870376 0.502971
-3.599477 1.892363 0.505730
-3.593606 1.906569 0.506937
-3.573004 1.910230 0.506066
-3.578980 1.932997 0.508960
-3.578628 1.951335 0.510974
-3.574703 1.967149 0.512490
-3.577454 1.988022 0.514983
-3.576531 2.006294 0.516963
-3.576679 2.025502 0.519115
-3.573517 2.042305 0.520799
-3.564529 2.054680 0.521634
-3.559704 2.070327 0.523092
-3.564811 2.093902 0.526045
-3.561510 2.110989 0.527762
-3.555587 2.126065 0.529095
-3.550926 2.142231 0.530630
-3.548707 2.160490 0.532551
-3.545266 2.177861 0.534299
-3.546420 2.199191 0.536773
-3.541436 2.215518 0.538315
-3.538203 2.233431 0.540143
-3.533509 2.250207 0.541756
-3.529939 2.268061 0.543561
-3.526166 2.285859 0.545349
-3.522226 2.303630 0.547125
-3.517359 2.320693 0.548768
-3.515946 2.340981 0.550984
-3.507110 2.354676 0.552010
-3.526223 2.394121 0.557629
-3.518114 2.408824 0.558816
-3.518790 2.431823 0.561471
-3.514552 2.450395 0.563331
-3.510834 2.469598 0.565295
-3.518167 2.499602 0.569146
-3.529343 2.533695 0.573693
-3.522349 2.550374 0.575179
-3.514310 2.566117 0.576497
-3.516777 2.592453 0.579647
-3.510577 2.610318 0.581318
-3.494441 2.618174 0.581261
-3.499845 2.648131 0.585001
-3.496859 2.669722 0.587291
-3.487555 2.684882 0.588475
-3.476089 2.697823 0.589278
-3.471073 2.717687 0.591254
-3.464968 2.736534 0.593051
-3.462572 2.759563 0.595545
-3.456305 2.778557 0.597350
-3.443049 2.789940 0.597875
-3.408234 2.777171 0.594369
-3.384986 2.777023 0.592988
-3.374208 2.790892 0.593945
-3.354430 2.794441 0.593193
-3.332331 2.795142 0.591980
-3.308777 2.793934 0.590463
-3.264013 2.767336 0.584794
-3.244917 2.770749 0.584069
-3.225480 2.773608 0.583262
-3.201728 2.771047 0.581581
-3.181630 2.772732 0.580602
-3.149588 2.759383 0.577201
-3.117112 2.745024 0.573659
-3.096637 2.745406 0.572511
-3.075430 2.744658 0.571191
-3.051380 2.740016 0.569259
-3.028036 2.736006 0.567442
-3.007471 2.735383 0.566176
-2.984896 2.731874 0.564463
-2.960635 2.725832 0.562361
-2.938776 2.722736 0.560738
-2.920295 2.724020 0.559817
-2.896174 2.717322 0.557650
-2.867564 2.704020 0.554464
-2.850510 2.706587 0.553776
-2.836327 2.713115 0.553711
-2.814625 2.708747 0.551957
-2.796045 2.708650 0.550877
-2.778938 2.710529 0.550111
-2.767252 2.720314 0.550570
-2.736974 2.702215 0.546743
-2.703967 2.679424 0.542217
-2.709444 2.714920 0.546636
-2.678832 2.695130 0.542598
-2.654596 2.684720 0.540010
-2.634514 2.680475 0.538375
-2.619650 2.684291 0.537971
-2.602856 2.684901 0.537088
-2.580847 2.676856 0.534907
-2.558451 2.667829 0.532592
-2.541445 2.667409 0.531583
-2.523783 2.665709 0.530389
-2.490708 2.637611 0.525261
-2.473846 2.636595 0.524195
-2.462058 2.644202 0.524419
-2.438365 2.630921 0.521547
-2.423070 2.632090 0.520829
-2.412177 2.641023 0.521263
-2.392327 2.633756 0.519312
-2.380292 2.640501 0.519432
-2.359109 2.630286 0.517067
-2.337254 2.618431 0.514475
-2.320263 2.615382 0.513183
-2.304925 2.615288 0.512330
-2.284808 2.605782 0.510116
-2.269194 2.604747 0.509142
-2.250731 2.597899 0.507334
-2.235102 2.596442 0.506314
-2.220474 2.596848 0.505571
-2.204464 2.594296 0.504407
-2.181413 2.576913 0.501124
-2.168226 2.579742 0.500750
-2.154983 2.582397 0.500356
-2.140926 2.583241 0.499707
-2.123349 2.576308 0.497957
-2.106187 2.570004 0.496307
-2.088512 2.562280 0.494464
-2.073960 2.561327 0.493589
-2.058362 2.557844 0.492362
-2.042419 2.553365 0.491003
-2.028035 2.552338 0.490136
-2.015565 2.555753 0.489898
-1.997021 2.544486 0.487608
-1.981396 2.539972 0.486273
-1.965908 2.535588 0.484964
-1.952146 2.535342 0.484237
-1.940756 2.541059 0.484342
-1.931276 2.551799 0.485145
-1.917629 2.551832 0.484467
-1.904260 2.552533 0.483885
-1.888935 2.547898 0.482572
-1.873585 2.542989 0.481229
-1.857752 2.536523 0.479679
-1.843032 2.532937 0.478531
-1.879276 2.675285 0.497331
-1.880720 2.720686 0.502838
-1.882939 2.769746 0.508824
-1.877784 2.798154 0.511983
-1.866231 2.807878 0.512598
-1.854214 2.816414 0.513050
-1.840662 2.820313 0.512876
-1.825548 2.819260 0.512036
-1.813220 2.827181 0.512408
-1.755653 2.831833 0.510278
-1.739842 2.827727 0.509048
-1.728879 2.840963 0.510133
-1.717312 2.852299 0.510961
-1.702899 2.853115 0.510391
-1.687345 2.849334 0.509213
-1.671914 2.845637 0.508051
-1.657498 2.845570 0.507371
-1.643148 2.845446 0.506685
-1.628298 2.842851 0.505676
-1.614587 2.844601 0.505240
-1.599331 2.839202 0.503867
-1.584357 2.834294 0.502562
-1.570984 2.835893 0.502110
-1.556475 2.831606 0.500890
-1.541059 2.822067 0.498990
-1.527042 2.818140 0.497824
-1.512560 2.810838 0.496222
-1.501008 2.817263 0.496400
-1.489312 2.822228 0.496386
-1.475851 2.816865 0.495039
-3.842346 1.057894 0.418758
-3.858981 1.077518 0.421866
-3.876999 1.098075 0.425146
-3.882340 1.114377 0.427200
-3.879963 1.128088 0.428505
-3.882986 1.144072 0.430367
-3.880613 1.158238 0.431702
-3.872292 1.170274 0.432445
-3.868968 1.184409 0.433704
-3.859556 1.196261 0.434348
-3.866843 1.214985 0.436720
-3.874818 1.234243 0.439184
-3.871367 1.248975 0.440476
-3.868008 1.263855 0.441785
-3.859279 1.276530 0.442535
-3.853971 1.290721 0.443648
-3.850592 1.305819 0.444971
-3.858139 1.325861 0.447473
-3.854717 1.341134 0.448809
-3.836066 1.349489 0.448498
-3.829483 1.363309 0.449491
-3.840023 1.385175 0.452363
-3.840089 1.402261 0.454102
-3.831923 1.415457 0.454935
-3.845135 1.439046 0.458152
-3.839200 1.453411 0.459247
-3.847698 1.474977 0.461970
-3.844383 1.490738 0.463373
-3.829251 1.500474 0.463433
-3.811737 1.508855 0.463211
-3.827139 1.534318 0.466768
-3.833993 1.573154 0.471179
-3.792936 1.621356 0.473644
-3.779362 1.631369 0.473855
-3.751061 1.632835 0.472287
-3.632898 1.581938 0.459818
-3.609366 1.585053 0.458717
-3.606142 1.599962 0.460079
-3.605416 1.616395 0.461755
-3.604605 1.632838 0.463430
-3.599802 1.646904 0.464618
-3.612267 1.671651 0.467969
-3.603878 1.683620 0.468728
-3.602322 1.699870 0.470350
-3.595139 1.712597 0.471267
-3.606801 1.737449 0.474593
-3.600444 1.750822 0.475634
-3.594806 1.764675 0.476771
-3.601538 1.786757 0.479519
-3.622411 1.818509 0.484137
-3.610419 1.828381 0.484483
-3.600635 1.839705 0.485116
-3.595128 1.853956 0.486317
-3.588040 1.867135 0.487313
-3.597898 1.892269 0.490589
-3.598308 1.910929 0.492618
-3.596616 1.928201 0.494378
-3.590500 1.942359 0.495546
-3.580843 1.953957 0.496235
-3.578586 1.971019 0.497946
-3.576900 1.988602 0.499749
-3.572233 2.004043 0.501150
-3.570265 2.021606 0.502939
-3.573188 2.043037 0.505432
-3.569292 2.059358 0.506979
-3.564487 2.075051 0.508408
-3.565168 2.095159 0.510635
-3.560525 2.111173 0.512112
-3.556535 2.127795 0.513695
-3.553263 2.145096 0.515394
-3.551246 2.163536 0.517292
-3.548963 2.181885 0.519167
-3.543498 2.197697 0.520584
-3.539680 2.214983 0.522258
-3.535805 2.232331 0.523937
-3.534633 2.252118 0.526039
-3.529873 2.268942 0.527613
-3.527510 2.287974 0.529568
-3.519538 2.302179 0.530675
-3.515357 2.319829 0.532378
-3.508807 2.335460 0.533726
-3.502789 2.351657 0.535167
-3.501669 2.372453 0.537393
-3.520163 2.411646 0.542752
-3.520370 2.434221 0.545251
-3.519252 2.455754 0.547561
-3.516171 2.475605 0.549577
-3.513544 2.496054 0.551685
-3.520213 2.525721 0.555335
-3.517761 2.546774 0.557522
-3.512419 2.565142 0.559251
-3.510962 2.587532 0.561643
-3.503287 2.603847 0.563017
-3.498557 2.623258 0.564899
-3.492471 2.641425 0.566568
-3.492627 2.666207 0.569319
-3.485295 2.683387 0.570812
-3.477993 2.700709 0.572322
-3.469404 2.716767 0.573622
-3.465059 2.737493 0.575676
-3.458594 2.756087 0.577376
-3.455469 2.778489 0.579686
-3.436970 2.784035 0.579271
-3.418357 2.789343 0.578825
-3.384838 2.777673 0.575667
-3.361714 2.777436 0.574356
-3.346608 2.786224 0.574493
-3.334173 2.798076 0.575119
-3.313082 2.799772 0.574138
-3.265599 2.769978 0.568196
-3.245081 2.771697 0.567251
-3.220462 2.768281 0.565508
-3.196962 2.765957 0.563949
-3.174089 2.764157 0.562485
-3.143691 2.752748 0.559536
-3.118455 2.747402 0.557547
-3.091930 2.740115 0.555272
-3.072775 2.741925 0.554417
-3.051507 2.740837 0.553124
-3.027909 2.736484 0.551339
-3.007397 2.735919 0.550147
-2.986062 2.734049 0.548765
-2.964325 2.731405 0.547275
-2.941080 2.726464 0.545448
-2.919070 2.722925 0.543845
-2.896051 2.717725 0.542003
-2.868479 2.705859 0.539168
-2.852689 2.710215 0.538790
-2.833515 2.709640 0.537677
-2.811668 2.705012 0.535966
-2.791727 2.702877 0.534639
-2.784331 2.718964 0.536033
-2.767919 2.721798 0.535456
-2.751321 2.724225 0.534824
-2.714701 2.696160 0.529694
-2.692257 2.689051 0.527679
-2.683575 2.702910 0.528760
-2.646557 2.672579 0.523358
-2.633663 2.679544 0.523441
-2.626227 2.695189 0.524793
-2.602068 2.684021 0.522238
-2.577669 2.672050 0.519580
-2.558905 2.668936 0.518222
-2.545383 2.674308 0.518099
-2.529384 2.675459 0.517371
-2.494051 2.643608 0.511900
-2.481566 2.650158 0.511969
-2.460593 2.641947 0.509927
-2.442059 2.637678 0.508460
-2.426756 2.638889 0.507784
-2.409473 2.636418 0.506589
-2.384758 2.620259 0.503459
-2.373596 2.628440 0.503793
-2.357877 2.628200 0.502938
-2.336634 2.617453 0.500608
-2.319711 2.614502 0.499387
-2.301007 2.607926 0.497666
-2.284624 2.605558 0.496543
-2.267965 2.602453 0.495325
-2.257136 2.610705 0.495698
-2.233936 2.594182 0.492624
-2.218079 2.592050 0.491564
-2.202239 2.589771 0.490490
-2.184983 2.584363 0.488991
-2.171581 2.586812 0.488584
-2.158020 2.588855 0.488124
-2.141351 2.584130 0.486740
-2.117973 2.564528 0.483323
-2.103824 2.564714 0.482630
-2.089525 2.564457 0.481881
-2.073950 2.561194 0.480728
-2.060842 2.563400 0.480325
-2.042385 2.553132 0.478233
-2.026803 2.549263 0.477018
-2.010907 2.544446 0.475682
-1.995229 2.539934 0.474394
-1.982893 2.543392 0.474185
-1.968428 2.541575 0.473271
-1.952792 2.536673 0.471948
-1.939146 2.536631 0.471283
-1.926842 2.539981 0.471075
-1.916672 2.548946 0.471617
-1.903043 2.548890 0.470959
-1.889139 2.548019 0.470197
-1.875921 2.548929 0.469675
-1.859025 2.539573 0.467798
-1.847296 2.544456 0.467810
-1.894979 2.761569 0.495108
-1.897802 2.813024 0.501186
-1.890301 2.835044 0.503385
-1.876632 2.838878 0.503199
-1.862440 2.841147 0.502810
-1.845119 2.833544 0.501138
-1.829239 2.830230 0.500030
-1.816729 2.837720 0.500330
-1.800714 2.833738 0.499142
-1.772298 2.787597 0.492508
-1.772481 2.838115 0.498376
-1.754163 2.825525 0.496091
-1.740880 2.830310 0.496050
-1.731828 2.850521 0.497990
-1.718760 2.856449 0.498092
-1.703726 2.854978 0.497247
-1.687825 2.849885 0.495942
-1.673405 2.850158 0.495326
-1.659555 2.852448 0.494969
-1.642529 2.841486 0.492929
-1.628438 2.841977 0.492348
-1.613981 2.840510 0.491520
-1.599152 2.836890 0.490423
-1.585143 2.836247 0.489704
-1.572441 2.840959 0.489661
-1.558793 2.840813 0.489006
-1.544446 2.836609 0.487843
-1.526775 2.815184 0.484528
-1.516276 2.827752 0.485471
-1.502743 2.824456 0.484431
-1.490384 2.826141 0.484014
-1.484523 2.861689 0.487805
-3.886008 1.074521 0.409172
-3.875319 1.084508 0.409618
-3.878749 1.099828 0.411402
-3.884831 1.116425 0.413460
-3.884680 1.130994 0.414947
-3.886542 1.146571 0.416645
-3.883898 1.160659 0.417927
-3.873310 1.171832 0.418452
-3.869851 1.185925 0.419675
-3.862569 1.198640 0.420535
-3.859710 1.213258 0.421836
-3.865002 1.231379 0.423953
-3.872501 1.250639 0.426309
-3.869019 1.265476 0.427585
-3.861789 1.278801 0.428491
-3.853165 1.291564 0.429258
-3.850524 1.306983 0.430635
-3.852837 1.324693 0.432526
-3.856007 1.342917 0.434518
-3.829262 1.347563 0.433424
-3.840330 1.369533 0.436246
-3.846805 1.389556 0.438608
-3.852996 1.409597 0.440956
-3.850853 1.425768 0.442438
-3.836723 1.436134 0.442648
-3.833887 1.451976 0.444060
-3.836577 1.470609 0.446071
-3.834275 1.486812 0.447553
-3.825946 1.499962 0.448384
-3.821613 1.515140 0.449651
-3.840823 1.542664 0.453513
-3.851173 1.565784 0.456426
-3.816925 1.565170 0.454395
-3.729321 1.621485 0.455066
-3.648381 1.591987 0.447469
-3.617215 1.590712 0.445570
-3.607594 1.601876 0.446160
-3.609782 1.620060 0.448138
-3.605336 1.634328 0.449343
-3.594689 1.644819 0.449816
-3.584405 1.655472 0.450327
-3.617473 1.693151 0.456051
-3.600779 1.699932 0.455811
-3.589742 1.710185 0.456247
-3.600058 1.734136 0.459291
-3.599636 1.751323 0.461041
-3.591750 1.763687 0.461878
-3.590216 1.780259 0.463507
-3.613647 1.813655 0.468269
-3.601938 1.823654 0.468656
-3.597698 1.838709 0.469985
-3.589774 1.851263 0.470852
-3.592611 1.871330 0.473098
-3.608902 1.901033 0.477092
-3.600116 1.913219 0.477880
-3.593359 1.926859 0.478933
-3.590478 1.943338 0.480499
-3.580616 1.954780 0.481156
-3.572897 1.967793 0.482098
-3.576397 1.989209 0.484536
-3.575742 2.007671 0.486439
-3.572944 2.024623 0.488069
-3.573689 2.044397 0.490190
-3.570998 2.061654 0.491861
-3.566585 2.077663 0.493309
-3.565316 2.096241 0.495200
-3.562322 2.113570 0.496868
-3.558357 2.130223 0.498413
-3.555148 2.147586 0.500076
-3.553932 2.166697 0.502032
-3.549045 2.182902 0.503485
-3.543848 2.198935 0.504905
-3.541789 2.217709 0.506785
-3.539426 2.236361 0.508637
-3.535017 2.253384 0.510208
-3.533458 2.272994 0.512208
-3.528147 2.289462 0.513675
-3.522592 2.305811 0.515116
-3.517479 2.322649 0.516635
-3.512576 2.339781 0.518198
-3.512454 2.361382 0.520492
-3.512263 2.383114 0.522798
-3.518548 2.411060 0.526113
-3.519081 2.433925 0.528580
-3.516920 2.454457 0.530657
-3.514061 2.474496 0.532644
-3.516303 2.499619 0.535447
-3.520372 2.526780 0.538564
-3.514960 2.544922 0.540217
-3.520767 2.574320 0.543668
-3.507820 2.585280 0.544155
-3.496462 2.597838 0.544898
-3.493923 2.619416 0.547073
-3.491314 2.641115 0.549259
-3.482388 2.656442 0.550429
-3.482470 2.681296 0.553096
-3.475315 2.698740 0.554588
-3.467043 2.715106 0.555907
-3.462862 2.735980 0.557925
-3.460092 2.758572 0.560202
-3.450266 2.773616 0.561299
-3.439875 2.788102 0.562307
