ply
format ascii 1.0
comment ---
element vertex 1701
property float x
property float y
property float z
element face 0
property list uchar uint vertex_indices
end_header
-3.858743 1.339850 0.252195
-3.860649 1.359081 0.252732
-3.854760 1.374226 0.252957
-3.851149 1.390634 0.253274
-3.847769 1.407218 0.253600
-3.844805 1.424087 0.253945
-3.838590 1.439185 0.254157
-3.838532 1.457806 0.254621
-3.837468 1.475945 0.255046
-3.836522 1.494237 0.255476
-3.832505 1.510811 0.255781
-3.821501 1.523282 0.255796
-3.794279 1.525975 0.255131
-3.775532 1.533567 0.254815
-3.763799 1.641279 0.257146
-3.709716 1.625501 0.255295
-3.620402 1.585889 0.251905
-3.610122 1.597820 0.251915
-3.603665 1.612293 0.252090
-3.599153 1.628109 0.252349
-3.595037 1.644246 0.252625
-3.596337 1.664194 0.253140
-3.590514 1.679287 0.253341
-3.585549 1.695021 0.253581
-3.587485 1.715730 0.254127
-3.590147 1.737109 0.254707
-3.589100 1.755946 0.255123
-3.587826 1.774724 0.255531
-3.582799 1.790824 0.255769
-3.575471 1.805255 0.255902
-3.571595 1.822320 0.256191
-3.574441 1.844597 0.256787
-3.574329 1.864767 0.257250
-3.568857 1.880898 0.257466
-3.560288 1.894652 0.257539
-3.563340 1.917642 0.258149
-3.567154 1.941431 0.258796
-3.556736 1.953916 0.258781
-3.555924 1.974234 0.259213
-3.558458 1.997450 0.259804
-3.572096 2.030098 0.260920
-3.566893 2.047297 0.261149
-3.555986 2.059745 0.261106
-3.547556 2.074305 0.261178
-3.548784 2.097240 0.261710
-3.550761 2.121022 0.262279
-3.548595 2.141368 0.262650
-3.546857 2.162241 0.263042
-3.547484 2.185392 0.263548
-3.543024 2.204141 0.263807
-3.561481 2.243933 0.265187
-3.555648 2.261856 0.265380
-3.551157 2.281133 0.265638
-3.543656 2.297719 0.265745
-3.547032 2.324693 0.266391
-3.532895 2.335203 0.266165
-3.530582 2.357100 0.266526
-3.530220 2.381085 0.266985
-3.525873 2.401385 0.267243
-3.521137 2.421462 0.267480
-3.514327 2.439625 0.267610
-3.511015 2.461452 0.267917
-3.511815 2.487673 0.268432
-3.504417 2.505737 0.268528
-3.502465 2.529593 0.268901
-3.499646 2.552785 0.269230
-3.496220 2.575568 0.269526
-3.491494 2.597192 0.269754
-3.484839 2.616943 0.269879
-3.474233 2.632569 0.269797
-3.478811 2.664989 0.270507
-3.466996 2.679637 0.270357
-3.456571 2.695929 0.270276
-3.443314 2.709138 0.270042
-3.431275 2.723802 0.269869
-3.416982 2.735960 0.269572
-3.408054 2.754408 0.269558
-3.381874 2.752753 0.268615
-3.356675 2.752043 0.267717
-3.331237 2.750847 0.266798
-3.315261 2.760887 0.266384
-3.289747 2.759288 0.265448
-3.267686 2.761725 0.264693
-3.241707 2.759143 0.263717
-3.220841 2.762748 0.263015
-3.196471 2.761779 0.262115
-3.171531 2.759859 0.261177
-3.149594 2.761585 0.260401
-3.119450 2.752396 0.259162
-3.098735 2.755267 0.258444
-3.070683 2.748172 0.257311
-3.040436 2.737739 0.256048
-3.014858 2.733207 0.255043
-2.995934 2.737481 0.254412
-2.984905 2.752542 0.254229
-2.938705 2.718236 0.252040
-2.916672 2.717206 0.251225
-2.891147 2.710827 0.250209
-2.869463 2.709538 0.249413
-2.846715 2.706304 0.248555
-2.824878 2.703966 0.247752
-2.807038 2.707135 0.247182
-2.785993 2.705111 0.246429
-2.765721 2.703767 0.245723
-2.741061 2.695179 0.244760
-2.726407 2.701440 0.244394
-2.707922 2.701300 0.243805
-2.722044 2.752173 0.245178
-2.659706 2.681380 0.241963
-3.851385 -0.345564 0.185375
-3.839752 -0.332648 0.185515
-3.835356 -0.319759 0.185807
-3.849961 -0.306985 0.186468
-3.844193 -0.293695 0.186776
-3.863309 -0.280419 0.187566
-3.871042 -0.266798 0.188166
-3.843611 -0.253073 0.188118
-3.832989 -0.239327 0.188399
-3.834903 -0.225395 0.188933
-3.844269 -0.211204 0.189624
-3.856352 -0.196765 0.190383
-3.857774 -0.182406 0.190946
-3.850546 -0.168225 0.191345
-3.843259 -0.154045 0.191747
-3.849754 -0.139314 0.192434
-3.960470 -0.119712 0.195266
-4.017751 -0.101702 0.197037
-4.036691 -0.085223 0.198031
-4.026189 -0.070304 0.198414
-4.043205 -0.053677 0.199379
-4.042154 -0.038130 0.199963
-4.021999 -0.024008 0.200133
-4.036577 -0.007314 0.201053
-4.031209 0.007843 0.201537
-4.030643 0.023375 0.202123
-4.035306 0.039391 0.202824
-4.034535 0.054910 0.203400
-4.024431 0.069448 0.203760
-4.018710 0.084357 0.204214
-4.015124 0.099444 0.204710
-4.020617 0.115561 0.205413
-4.012502 0.130048 0.205793
-4.004076 0.144409 0.206159
-4.002180 0.159546 0.206673
-4.005886 0.175429 0.207316
-4.014817 0.192084 0.208082
-4.007463 0.206423 0.208449
-3.994734 0.219870 0.208678
-3.993944 0.235063 0.209192
-3.993319 0.250273 0.209705
-3.988820 0.264831 0.210117
-3.985036 0.279470 0.210540
-3.992497 0.296054 0.211242
-3.998115 0.312381 0.211896
-4.001452 0.328344 0.212488
-4.000637 0.343556 0.212970
-3.999978 0.358799 0.213451
-3.997901 0.373763 0.213891
-3.990081 0.387541 0.214175
-3.984633 0.401757 0.214516
-3.985091 0.417203 0.215008
-3.981487 0.431780 0.215388
-3.973974 0.445465 0.215659
-3.969636 0.459825 0.216009
-3.965716 0.474264 0.216366
-3.974330 0.491685 0.217062
-3.977623 0.507918 0.217610
-3.977922 0.523467 0.218074
-3.969666 0.536879 0.218298
-3.956078 0.548862 0.218368
-3.949146 0.562498 0.218618
-3.956849 0.580029 0.219276
-3.957865 0.595844 0.219744
-3.954624 0.610522 0.220089
-3.948883 0.624498 0.220360
-3.946862 0.639531 0.220734
-3.949322 0.655899 0.221235
-3.945874 0.670574 0.221563
-3.941457 0.684966 0.221861
-3.940531 0.700436 0.222258
-3.941525 0.716547 0.222709
-3.948965 0.734769 0.223350
-3.954865 0.752621 0.223946
-3.960590 0.770527 0.224538
-3.948009 0.782435 0.224581
-3.940849 0.796107 0.224783
-3.934618 0.810080 0.225011
-3.928892 0.824223 0.225251
-3.925524 0.839201 0.225561
-3.924789 0.855151 0.225951
-3.929242 0.873048 0.226499
-3.928665 0.889191 0.226892
-3.932250 0.906955 0.227414
-3.923457 0.920108 0.227552
-3.917849 0.934463 0.227786
-3.913645 0.949375 0.228063
-3.912773 0.965632 0.228444
-3.910806 0.981507 0.228791
-3.903993 0.995457 0.228983
-3.904052 1.012242 0.229392
-3.898710 1.026839 0.229629
-3.903028 1.045545 0.230176
-3.900792 1.061559 0.230513
-3.897566 1.077193 0.230817
-3.893472 1.092484 0.231093
-3.894519 1.110100 0.231536
-3.892967 1.126631 0.231896
-3.890606 1.142855 0.232228
-3.887788 1.158919 0.232546
-3.882759 1.173997 0.232791
-3.877878 1.189168 0.233039
-3.878109 1.206820 0.233459
-3.875412 1.223135 0.233782
-3.872009 1.239157 0.234081
-3.867426 1.254638 0.234340
-3.868905 1.273201 0.234805
-3.863717 1.288474 0.235044
-3.858315 1.303664 0.235275
-3.858697 1.321891 0.235705
-3.860461 1.340940 0.236185
-3.859421 1.358606 0.236569
-3.853040 1.373474 0.236767
-3.851261 1.390864 0.237126
-3.851002 1.409163 0.237540
-3.845502 1.424634 0.237769
-3.833049 1.436217 0.237752
-3.832798 1.454690 0.238167
-3.835593 1.475009 0.238692
-3.835681 1.493885 0.239122
-3.838772 1.514629 0.239662
-3.821125 1.523185 0.239453
-3.790013 1.523532 0.238752
-3.793885 1.660796 0.241904
-3.742209 1.646780 0.240403
-3.624907 1.588926 0.236419
-3.613818 1.600343 0.236412
-3.606657 1.614362 0.236553
-3.598618 1.627797 0.236659
-3.594144 1.643680 0.236900
-3.594923 1.663255 0.237342
-3.593836 1.681648 0.237713
-3.593105 1.700394 0.238099
-3.590468 1.717885 0.238411
-3.590571 1.737435 0.238830
-3.590010 1.756624 0.239224
-3.585387 1.772942 0.239459
-3.584163 1.791842 0.239828
-3.580881 1.809310 0.240115
-3.575651 1.825386 0.240325
-3.572248 1.842913 0.240606
-3.569791 1.861253 0.240925
-3.568851 1.880875 0.241304
-3.561620 1.895676 0.241430
-3.554949 1.910955 0.241577
-3.564190 1.939025 0.242368
-3.555586 1.952950 0.242435
-3.549797 1.969190 0.242615
-3.558525 1.997459 0.243390
-3.567817 2.026488 0.244190
-3.572598 2.052033 0.244807
-3.551246 2.055668 0.244340
-3.541526 2.069083 0.244351
-3.548419 2.096857 0.245054
-3.551902 2.121944 0.245616
-3.551935 2.144231 0.246034
-3.555030 2.169418 0.246580
-3.555155 2.192182 0.247001
-3.553554 2.213578 0.247349
-3.537480 2.221929 0.247077
-3.550295 2.256828 0.248038
-3.544541 2.274881 0.248204
-3.548568 2.302227 0.248790
-3.537643 2.315693 0.248728
-3.534971 2.337079 0.249021
-3.532429 2.358768 0.249319
-3.533904 2.384556 0.249790
-3.531633 2.406927 0.250097
-3.527399 2.427552 0.250315
-3.523562 2.448747 0.250549
-3.511512 2.461825 0.250416
-3.505175 2.480767 0.250533
-3.504787 2.505982 0.250913
-3.500490 2.527403 0.251117
-3.497773 2.550679 0.251389
-3.497048 2.576301 0.251749
-3.489128 2.594517 0.251782
-3.474908 2.606080 0.251525
-3.470473 2.628322 0.251709
-3.469435 2.654526 0.252045
-3.462919 2.674955 0.252129
-3.451193 2.689745 0.251971
-3.443717 2.709431 0.252004
-3.435663 2.728647 0.252007
-3.427233 2.747609 0.251990
-3.407348 2.753415 0.251435
-3.386392 2.757889 0.250825
-3.355695 2.750705 0.249751
-3.340427 2.761678 0.249394
-3.309587 2.753841 0.248298
-3.291525 2.761273 0.247797
-3.264262 2.757314 0.246855
-3.245835 2.764091 0.246326
-3.224668 2.767363 0.245662
-3.190324 2.753766 0.244363
-3.166156 2.752752 0.243543
-3.132368 2.739048 0.242256
-3.116297 2.748045 0.241816
-3.092368 2.746616 0.240994
-3.072159 2.749900 0.240349
-3.045275 2.744010 0.239377
-3.015492 2.733804 0.238259
-3.002428 2.746135 0.237958
-2.983024 2.749630 0.237346
-2.957038 2.743663 0.236411
-2.908843 2.705771 0.234375
-2.894110 2.714721 0.233993
-2.863948 2.701183 0.232847
-2.843034 2.700526 0.232163
-2.842869 2.730102 0.232523
-2.806996 2.706619 0.231096
-2.787701 2.707200 0.230507
-2.771290 2.711721 0.230070
-2.748584 2.706184 0.229319
-2.730454 2.707130 0.228808
-2.711657 2.706525 0.228270
-2.684792 2.692599 0.227324
-2.681239 2.715049 0.227591
-3.929503 -0.347095 0.172957
-3.848011 -0.332287 0.172178
-3.823718 -0.319015 0.172194
-3.824414 -0.306109 0.172573
-3.858072 -0.293337 0.173437
-3.869284 -0.279971 0.174013
-3.864670 -0.266326 0.174385
-3.845263 -0.252622 0.174559
-3.839277 -0.238847 0.174940
-3.841144 -0.224900 0.175450
-3.852277 -0.210661 0.176113
-3.856079 -0.196376 0.176681
-3.857857 -0.182019 0.177231
-3.851902 -0.167808 0.177670
-3.846247 -0.153573 0.178120
-3.843326 -0.139221 0.178618
-3.986148 -0.118175 0.181452
-4.054194 -0.099496 0.183132
-4.015707 -0.086027 0.183097
-3.998594 -0.071613 0.183403
-4.033661 -0.053948 0.184578
-4.048648 -0.037330 0.185427
-4.040956 -0.022251 0.185892
-4.034402 -0.007148 0.186373
-4.035516 0.008542 0.186984
-4.031405 0.023777 0.187501
-4.032084 0.039421 0.188098
-4.035291 0.055317 0.188738
-4.028100 0.070159 0.189187
-4.021048 0.084940 0.189631
-4.019398 0.100258 0.190168
-4.015741 0.115313 0.190663
-4.011080 0.130202 0.191132
-4.000370 0.144262 0.191480
-4.003802 0.160090 0.192091
-4.005846 0.175752 0.192671
-4.009365 0.191638 0.193276
-4.016266 0.208050 0.193943
-3.999655 0.220948 0.194139
-3.996919 0.235860 0.194603
-3.998970 0.251517 0.195158
-3.998215 0.266727 0.195651
-3.991262 0.280868 0.196012
-3.988780 0.295732 0.196458
-3.995877 0.312310 0.197098
-3.998753 0.328177 0.197646
-3.995976 0.343002 0.198071
-3.999139 0.358971 0.198617
-3.996982 0.373915 0.199045
-3.989192 0.387695 0.199347
-3.985513 0.402277 0.199731
-3.985391 0.417603 0.200187
-3.978855 0.431537 0.200498
-3.975861 0.446223 0.200882
-3.971029 0.460479 0.201220
-3.969252 0.475426 0.201622
-3.966853 0.490232 0.202005
-3.975591 0.507757 0.202638
-3.974523 0.522956 0.203045
-3.967336 0.536621 0.203307
-3.960790 0.550412 0.203580
-3.955314 0.564454 0.203872
-3.957457 0.580522 0.204339
-3.964302 0.597934 0.204914
-3.961008 0.612628 0.205248
-3.952770 0.625927 0.205461
-3.950131 0.640799 0.205804
-3.951850 0.656966 0.206248
-3.951167 0.672477 0.206633
-3.944310 0.686153 0.206865
-3.940236 0.700665 0.207161
-3.952624 0.720345 0.207859
-3.961432 0.739059 0.208471
-3.947861 0.766658 0.208917
-3.943616 0.781281 0.209198
-3.940608 0.796335 0.209509
-3.946568 0.814501 0.210045
-3.931648 0.825491 0.210050
-3.924600 0.839176 0.210251
-3.923926 0.855140 0.210614
-3.921435 0.870496 0.210929
-3.924024 0.887768 0.211374
-3.918150 0.901952 0.211599
-3.920027 0.919090 0.212024
-3.918199 0.934884 0.212352
-3.914768 0.950097 0.212637
-3.915315 0.966920 0.213027
-3.914469 0.983257 0.213379
-3.916669 1.000896 0.213812
-3.908630 1.014401 0.213971
-3.903454 1.029089 0.214205
-3.901804 1.045289 0.214533
-3.906167 1.064126 0.215025
-3.900406 1.078682 0.215241
-3.894408 1.093147 0.215450
-3.891497 1.108999 0.215743
-3.891325 1.126132 0.216111
-3.894097 1.144689 0.216562
-3.890048 1.160200 0.216823
-3.880292 1.173071 0.216923
-3.871501 1.186369 0.217049
-3.870851 1.203557 0.217404
-3.872719 1.222044 0.217831
-3.870920 1.238834 0.218155
-3.868247 1.255253 0.218454
-3.870180 1.274045 0.218886
-3.866868 1.290276 0.219167
-3.862684 1.306107 0.219423
-3.862220 1.323914 0.219787
-3.861092 1.341456 0.220133
-3.857611 1.357820 0.220410
-3.850361 1.372204 0.220576
-3.847991 1.389251 0.220886
-3.847393 1.407339 0.221249
-3.839008 1.421175 0.221379
-3.833474 1.436610 0.221594
-3.836346 1.456858 0.222063
-3.837489 1.476243 0.222482
-3.837240 1.494930 0.222859
-3.833563 1.511698 0.223132
-3.830045 1.528614 0.223410
-3.793845 1.544912 0.223062
-3.786626 1.656191 0.225150
-3.726840 1.636827 0.223630
-3.635470 1.595960 0.221084
-3.616871 1.602441 0.220856
-3.607055 1.614689 0.220907
-3.599387 1.628374 0.221026
-3.592719 1.642752 0.221176
-3.591191 1.660713 0.221492
-3.596295 1.683409 0.222027
-3.596622 1.702914 0.222406
-3.593179 1.719851 0.222661
-3.591804 1.738350 0.222984
-3.587848 1.755070 0.223220
-3.583009 1.771211 0.223427
-3.583479 1.791347 0.223811
-3.582736 1.810707 0.224154
-3.581020 1.829450 0.224464
-3.569385 1.840723 0.224436
-3.585179 1.873114 0.225342
-3.574287 1.885097 0.225337
-3.562704 1.896512 0.225305
-3.561145 1.915852 0.225616
-3.562426 1.937587 0.226025
-3.558463 1.955247 0.226251
-3.555977 1.974203 0.226528
-3.559576 1.998288 0.227017
-3.548000 2.009962 0.226972
-3.554290 2.036616 0.227554
-3.546902 2.051938 0.227653
-3.546783 2.073528 0.228007
-3.548984 2.097289 0.228443
-3.549357 2.119666 0.228814
-3.551423 2.143716 0.229244
-3.552444 2.167055 0.229637
-3.551532 2.188865 0.229958
-3.548140 2.208607 0.230187
-3.535771 2.220293 0.230086
-3.530676 2.238671 0.230248
-3.544827 2.275064 0.231114
-3.541383 2.295397 0.231333
-3.534673 2.312791 0.231428
-3.529318 2.331583 0.231570
-3.537506 2.363574 0.232214
-3.537704 2.388160 0.232560
-3.533201 2.408369 0.232726
-3.533772 2.433774 0.233081
-3.528184 2.453271 0.233201
-3.515666 2.465918 0.233055
-3.506574 2.482087 0.233033
-3.506473 2.507609 0.233350
-3.504936 2.531912 0.233610
-3.502440 2.555462 0.233829
-3.496497 2.575603 0.233913
-3.479504 2.584114 0.233567
-3.473647 2.604602 0.233645
-3.470454 2.628182 0.233822
-3.468573 2.653457 0.234047
-3.458048 2.669426 0.233932
-3.450259 2.688573 0.233918
-3.445336 2.711136 0.234013
-3.441732 2.735448 0.234156
-3.427606 2.747908 0.233880
-3.409907 2.756263 0.233457
-3.379724 2.749921 0.232532
-3.364540 2.761064 0.232196
-3.342168 2.763626 0.231567
-3.321700 2.768353 0.231008
-3.288674 2.757649 0.229940
-3.267695 2.761402 0.229347
-3.249247 2.768191 0.228852
-3.220605 2.762100 0.227939
-3.193686 2.757879 0.227090
-3.161190 2.746218 0.226010
-3.136923 2.744781 0.225258
-3.108968 2.738277 0.224351
-3.085921 2.737909 0.223641
-3.066784 2.742527 0.223089
-3.047789 2.747192 0.222542
-3.022735 2.743449 0.221744
-3.001091 2.744059 0.221086
-2.984669 2.751664 0.220645
-2.948111 2.730862 0.219370
-2.920394 2.721865 0.218461
-2.892964 2.712772 0.217566
-2.866947 2.705192 0.216733
-2.842514 2.699410 0.215969
-2.826391 2.705389 0.215561
-2.811516 2.712943 0.215213
-2.790111 2.710380 0.214596
-2.768541 2.707057 0.213981
-2.744834 2.699905 0.213282
-2.728831 2.704055 0.212923
-2.706116 2.697248 0.212285
-2.681764 2.687173 0.211587
-3.835535 -0.344005 0.158281
-3.869897 -0.332238 0.158899
-3.835346 -0.318709 0.158906
-3.831475 -0.305709 0.159220
-3.873334 -0.292999 0.159992
-3.865056 -0.279480 0.160312
-3.838536 -0.265854 0.160470
-3.849401 -0.252176 0.161012
-3.853705 -0.238314 0.161509
-3.850024 -0.224386 0.161941
-3.851247 -0.210291 0.162438
-3.855448 -0.196015 0.162980
-3.855751 -0.181711 0.163492
-3.846729 -0.167618 0.163913
-3.837964 -0.153531 0.164341
-3.840574 -0.139000 0.164902
-4.000712 -0.117164 0.167278
-4.080626 -0.097814 0.168780
-4.047436 -0.083934 0.168976
-4.014194 -0.070347 0.169162
-4.034042 -0.053599 0.169985
-4.042360 -0.037449 0.170672
-4.036885 -0.022238 0.171189
-4.033936 -0.006871 0.171735
-4.025196 0.007983 0.172203
-4.027962 0.023780 0.172816
-4.026655 0.039219 0.173373
-4.030650 0.055166 0.173997
-4.029271 0.070589 0.174545
-4.022570 0.085412 0.175015
-4.019329 0.100556 0.175526
-4.013091 0.115306 0.175989
-4.008394 0.130177 0.176466
-4.009900 0.145789 0.177026
-3.998740 0.159725 0.177396
-4.017274 0.177634 0.178197
-4.016430 0.192954 0.178708
-4.012208 0.207763 0.179162
-4.008466 0.222600 0.179616
-3.998703 0.236452 0.179970
-3.999466 0.251911 0.180480
-4.004509 0.268090 0.181052
-4.000189 0.282713 0.181470
-4.000429 0.298101 0.181956
-3.993365 0.312172 0.182317
-3.988870 0.326658 0.182713
-4.001683 0.344410 0.183389
-3.998325 0.359132 0.183793
-3.995000 0.373838 0.184192
-3.990011 0.388184 0.184557
-3.982271 0.401917 0.184869
-3.974930 0.415677 0.185180
-3.984528 0.433106 0.185780
-3.983493 0.448259 0.186191
-3.977602 0.462309 0.186512
-3.968176 0.475496 0.186765
-3.967438 0.490694 0.187166
-3.969203 0.506521 0.187609
-3.966548 0.521293 0.187967
-3.967519 0.536990 0.188388
-3.966113 0.552111 0.188762
-3.959968 0.566002 0.189044
-3.959629 0.581426 0.189429
-3.960314 0.597164 0.189831
-3.960678 0.612856 0.190223
-3.958654 0.627914 0.190567
-3.954727 0.642443 0.190872
-3.954898 0.658178 0.191251
-3.954288 0.673725 0.191614
-3.947759 0.687515 0.191858
-3.938108 0.700321 0.192036
-3.950105 0.719868 0.192638
-3.956060 0.737660 0.193121
-3.935219 0.762808 0.193426
-3.945600 0.782250 0.193993
-3.938245 0.795837 0.194199
-3.935764 0.811084 0.194503
-3.939414 0.828504 0.194930
-3.923561 0.839104 0.194954
-3.921728 0.854644 0.195264
-3.923104 0.871397 0.195640
-3.919981 0.886560 0.195920
-3.920175 0.902999 0.196269
-3.918388 0.918751 0.196575
-3.918541 0.935298 0.196921
-3.917462 0.951431 0.197240
-3.915236 0.967164 0.197533
-3.912853 0.982879 0.197823
-3.913023 0.999680 0.198166
-3.908923 1.014789 0.198416
-3.899017 1.027495 0.198537
-3.901118 1.045257 0.198921
-3.902436 1.062779 0.199288
-3.899563 1.078568 0.199562
-3.890528 1.091686 0.199697
-3.885792 1.106697 0.199926
-3.885781 1.123869 0.200262
-3.888153 1.142208 0.200652
-3.887033 1.159037 0.200963
-3.876429 1.171488 0.201056
-3.867934 1.184900 0.201196
-3.865712 1.201309 0.201480
-3.869167 1.220534 0.201896
-3.871473 1.239317 0.202286
-3.868779 1.255725 0.202560
-3.868054 1.273177 0.202880
-3.864482 1.289259 0.203133
-3.862311 1.306107 0.203419
-3.860577 1.323246 0.203716
-3.860992 1.341587 0.204065
-3.856120 1.357205 0.204286
-3.850423 1.372411 0.204487
-3.847734 1.389279 0.204761
-3.840874 1.403910 0.204933
-3.838875 1.421259 0.205224
-3.838320 1.439492 0.205550
-3.836939 1.457344 0.205857
-3.836993 1.476101 0.206199
-3.833214 1.492726 0.206447
-3.832529 1.511224 0.206772
-3.829436 1.528380 0.207036
-3.830578 1.548144 0.207409
-3.849678 1.578926 0.208240
-3.791298 1.639725 0.208455
-3.753061 1.634593 0.207795
-3.700421 1.619666 0.206746
-3.635385 1.595976 0.205358
-3.615189 1.601388 0.205147
-3.610266 1.616912 0.205339
-3.603764 1.631406 0.205488
-3.597577 1.646139 0.205644
-3.594812 1.663271 0.205892
-3.596732 1.683758 0.206266
-3.594372 1.701363 0.206524
-3.594678 1.720955 0.206854
-3.592881 1.739156 0.207126
-3.590878 1.757301 0.207392
-3.585317 1.772928 0.207559
-3.584660 1.792239 0.207861
-3.588548 1.815074 0.208289
-3.582866 1.830855 0.208449
-3.588539 1.855359 0.208927
-3.583534 1.871845 0.209104
-3.576430 1.886761 0.209219
-3.568878 1.901358 0.209319
-3.568541 1.921709 0.209623
-3.565950 1.940394 0.209862
-3.568743 1.963541 0.210254
-3.563716 1.980498 0.210419
-3.558081 1.997028 0.210564
-3.547920 2.009864 0.210575
-3.546336 2.029902 0.210833
-3.560419 2.063356 0.211551
-3.557089 2.082303 0.211755
-3.552593 2.100361 0.211923
-3.550008 2.120186 0.212145
-3.550565 2.142911 0.212458
-3.530432 2.147457 0.212149
-3.539858 2.178346 0.212723
-3.545428 2.206095 0.213181
-3.541686 2.225631 0.213355
-3.530045 2.238026 0.213285
-3.537358 2.268053 0.213790
-3.538343 2.292475 0.214099
-3.529454 2.307776 0.214103
-3.524974 2.327357 0.214237
-3.537916 2.363895 0.214907
-3.535751 2.386183 0.215107
-3.528523 2.403693 0.215147
-3.522525 2.422536 0.215220
-3.522313 2.447311 0.215469
-3.515700 2.465870 0.215515
-3.507596 2.483046 0.215508
-3.503268 2.504226 0.215615
-3.508586 2.535620 0.216023
-3.499008 2.551776 0.215956
-3.485165 2.563518 0.215747
-3.475898 2.580173 0.215677
-3.474321 2.605241 0.215848
-3.479418 2.637855 0.216229
-3.473495 2.658779 0.216251
-3.463245 2.675104 0.216129
-3.455477 2.694329 0.216082
-3.450421 2.716796 0.216116
-3.439078 2.732327 0.215942
-3.425748 2.745676 0.215696
-3.406539 2.752251 0.215253
-3.390538 2.762534 0.214908
-3.366730 2.763568 0.214301
-3.343661 2.765319 0.213712
-3.315827 2.761154 0.212958
-3.288469 2.757300 0.212214
-3.269238 2.763204 0.211731
-3.246181 2.764268 0.211117
-3.216168 2.756412 0.210267
-3.189800 2.752829 0.209532
-3.157070 2.740816 0.208581
-3.139988 2.748627 0.208146
-3.121763 2.754887 0.207671
-3.084656 2.736097 0.206563
-3.064270 2.739021 0.206010
-3.048416 2.747876 0.205610
-3.022242 2.742603 0.204863
-3.006383 2.751152 0.204463
-2.969237 2.730012 0.203348
-2.946631 2.728561 0.202725
-2.921844 2.723677 0.202031
-2.897493 2.718992 0.201356
-2.871904 2.712074 0.200644
-2.843434 2.700437 0.199840
-2.825455 2.703662 0.199401
-2.811812 2.713004 0.199120
-2.787283 2.705708 0.198476
-2.760395 2.694220 0.197760
-2.743636 2.697576 0.197405
-2.731824 2.708162 0.197235
-2.717014 2.713733 0.196976
-2.686701 2.694357 0.196190
-2.647301 2.659544 0.195097
-3.859047 -0.344073 0.144995
-3.877635 -0.331871 0.145363
-3.854178 -0.318539 0.145555
-3.856836 -0.305571 0.145898
-3.886673 -0.292650 0.146405
-3.834445 -0.278868 0.146513
-3.835511 -0.265419 0.146916
-3.850470 -0.251756 0.147414
-3.856088 -0.237894 0.147883
-3.853696 -0.223954 0.148324
-3.850054 -0.209943 0.148773
-3.864366 -0.195460 0.149343
-3.844953 -0.181658 0.149719
-3.839697 -0.167509 0.150190
-3.843312 -0.153015 0.150728
-3.834893 -0.138921 0.151192
-4.027324 -0.115620 0.153056
-4.085327 -0.097254 0.154034
-4.064105 -0.082696 0.154458
-4.055524 -0.067548 0.154971
-4.046585 -0.052481 0.155480
-4.037034 -0.037526 0.155982
-4.032602 -0.022265 0.156521
-4.029610 -0.006925 0.157069
-4.030647 0.008731 0.157647
-4.024823 0.023786 0.158164
-4.027664 0.039599 0.158752
-4.032495 0.055634 0.159354
-4.027946 0.070736 0.159869
-4.026373 0.086110 0.160405
-4.023457 0.101310 0.160923
-4.014290 0.115732 0.161375
-4.012382 0.130953 0.161889
-4.016440 0.146913 0.162455
-4.018224 0.162601 0.162995
-4.005732 0.176333 0.163382
-4.012540 0.192690 0.163961
-4.016212 0.208645 0.164502
-4.008322 0.222870 0.164915
-3.998293 0.236680 0.165296
-3.996725 0.251762 0.165761
-4.002776 0.268097 0.166304
-4.001100 0.283167 0.166756
-3.993578 0.297192 0.167134
-4.000196 0.313710 0.167669
-3.996192 0.328321 0.168074
-3.993719 0.343194 0.168492
-3.994969 0.358780 0.168947
-3.992126 0.373568 0.169348
-3.988210 0.388121 0.169729
-3.980132 0.401775 0.170052
-3.974189 0.415825 0.170395
-3.982512 0.432972 0.170912
-3.986198 0.449177 0.171367
-3.979284 0.463005 0.171681
-3.970828 0.476428 0.171968
-3.966296 0.490731 0.172301
-3.970501 0.507149 0.172744
-3.969882 0.522435 0.173120
-3.962170 0.535943 0.173395
-3.964766 0.552074 0.173805
-3.961063 0.566602 0.174125
-3.950485 0.579281 0.174344
-3.949818 0.594602 0.174697
-3.953634 0.611204 0.175109
-3.963598 0.629627 0.175607
-3.958419 0.643818 0.175886
-3.956905 0.659076 0.176214
-3.956845 0.674797 0.176560
-3.954723 0.689936 0.176873
-3.946292 0.703153 0.177089
-3.929885 0.713830 0.177181
-3.949093 0.735744 0.177803
-3.945720 0.750590 0.178085
-3.960000 0.771261 0.178633
-3.954170 0.785413 0.178873
-3.940303 0.796834 0.178986
-3.937148 0.811857 0.179260
-3.932482 0.826376 0.179509
-3.931499 0.842211 0.179813
-3.928185 0.857258 0.180078
-3.925720 0.872640 0.180354
-3.917596 0.885962 0.180538
-3.918772 0.902755 0.180869
-3.918435 0.919049 0.181175
-3.917898 0.935327 0.181476
-3.916848 0.951465 0.181767
-3.911214 0.965840 0.181982
-3.909357 0.981742 0.182257
-3.908784 0.998218 0.182553
-3.905230 1.013526 0.182798
-3.899308 1.027876 0.183001
-3.896729 1.043652 0.183260
-3.902735 1.063161 0.183665
-3.902222 1.079975 0.183958
-3.896068 1.094373 0.184153
-3.889314 1.108511 0.184336
-3.886356 1.124366 0.184584
-3.880550 1.138964 0.184781
-3.876207 1.154254 0.185003
-3.871266 1.169293 0.185213
-3.865682 1.184053 0.185411
-3.866738 1.202019 0.185728
-3.874557 1.223366 0.186167
-3.875016 1.241269 0.186474
-3.872398 1.257730 0.186725
-3.871936 1.275332 0.187015
-3.867289 1.290885 0.187228
-3.861080 1.305665 0.187412
-3.860577 1.323434 0.187701
-3.860310 1.341410 0.187995
-3.858018 1.358394 0.188250
-3.852068 1.373471 0.188436
-3.845248 1.388093 0.188605
-3.840043 1.403616 0.188804
-3.841114 1.422665 0.189123
-3.843108 1.442343 0.189461
-3.842910 1.460893 0.189756
-3.836465 1.475941 0.189930
-3.832797 1.492623 0.190157
-3.831047 1.510486 0.190422
-3.835474 1.532099 0.190810
-3.844707 1.556756 0.191295
-3.793483 1.641217 0.192053
-3.765336 1.642611 0.191768
-3.713410 1.628224 0.190983
-3.615868 1.583183 0.189235
-3.612466 1.599644 0.189443
-3.613822 1.619369 0.189750
-3.606957 1.633636 0.189884
-3.601887 1.649152 0.190054
-3.599543 1.666601 0.190282
-3.599527 1.685762 0.190558
-3.595173 1.701972 0.190740
-3.595001 1.721225 0.191012
-3.597677 1.742648 0.191345
-3.598586 1.762944 0.191639
-3.591835 1.777744 0.191764
-3.589365 1.795753 0.191982
-3.588663 1.815178 0.192238
-3.591640 1.837507 0.192574
-3.581581 1.850054 0.192618
-3.575933 1.865989 0.192758
-3.570784 1.902854 0.193171
-3.572063 1.924499 0.193462
-3.569088 1.942900 0.193655
-3.563392 1.959202 0.193783
-3.567726 1.983756 0.194139
-3.559344 1.998051 0.194200
-3.548588 2.010399 0.194202
-3.552040 2.034667 0.194532
-3.562089 2.064744 0.195014
-3.560323 2.085040 0.195218
-3.548053 2.096408 0.195172
-3.555433 2.124879 0.195586
-3.544263 2.137330 0.195558
-3.535181 2.151634 0.195575
-3.538845 2.177397 0.195893
-3.553956 2.213764 0.196483
-3.551509 2.234552 0.196649
-3.540213 2.247347 0.196598
-3.527081 2.258447 0.196496
-3.527852 2.282578 0.196728
-3.524922 2.303431 0.196865
-3.529948 2.332058 0.197192
-3.539473 2.365343 0.197627
-3.532245 2.382713 0.197647
-3.520339 2.395593 0.197545
-3.512249 2.412285 0.197532
-3.520064 2.445003 0.197908
-3.514861 2.464965 0.197957
-3.510089 2.485531 0.198010
-3.511333 2.512470 0.198208
-3.510693 2.537752 0.198355
-3.497658 2.550303 0.198184
-3.483635 2.561842 0.197981
-3.477548 2.581880 0.197972
-3.475496 2.606453 0.198058
-3.484679 2.643528 0.198424
-3.478638 2.664377 0.198398
-3.466944 2.679153 0.198221
-3.457615 2.696670 0.198098
-3.449106 2.715255 0.197989
-3.439257 2.732478 0.197839
-3.426199 2.746142 0.197600
-3.408540 2.754526 0.197237
-3.390595 2.762548 0.196859
-3.369635 2.766961 0.196396
-3.342303 2.763640 0.195763
-3.312087 2.756577 0.195049
-3.285889 2.754095 0.194432
-3.266119 2.759301 0.193975
-3.249329 2.768129 0.193589
-3.221162 2.762630 0.192905
-3.160841 2.745581 0.191419
-3.139963 2.748518 0.190912
-3.121706 2.754728 0.190469
-3.084393 2.735656 0.189531
-3.063950 2.738492 0.189029
-3.040354 2.736891 0.188445
-3.023036 2.743557 0.188025
-2.998682 2.740413 0.187424
-2.969040 2.729579 0.186689
-2.940360 2.719580 0.185982
-2.920334 2.721337 0.185505
-2.902842 2.726429 0.185100
-2.874153 2.715077 0.184412
-2.856836 2.719743 0.184028
-2.833668 2.715474 0.183502
-2.810817 2.711175 0.182995
-2.793122 2.714117 0.182636
-2.758987 2.691661 0.181858
-2.737362 2.687483 0.181423
-2.724976 2.697040 0.181248
-2.713743 2.708058 0.181121
-2.691163 2.700808 0.180711
-2.647394 2.659048 0.179751
-3.904691 -0.344719 0.131512
-3.863211 -0.331015 0.131756
-3.861904 -0.318171 0.132036
-3.863837 -0.305182 0.132346
-3.838034 -0.291726 0.132663
-3.861011 -0.278562 0.133036
-3.849167 -0.265008 0.133406
-3.849621 -0.251358 0.133807
-3.850049 -0.237561 0.134228
-3.845601 -0.223693 0.134660
-3.852645 -0.209545 0.135124
-3.837665 -0.195719 0.135570
-3.847974 -0.181253 0.136068
-3.831416 -0.167462 0.136529
-3.838174 -0.152902 0.137043
-3.849784 -0.138016 0.137579
-4.058575 -0.113880 0.138603
-4.066116 -0.097934 0.139182
-4.070859 -0.082031 0.139759
-4.066051 -0.066628 0.140313
-4.056697 -0.051543 0.140853
-4.037061 -0.037252 0.141356
-4.032184 -0.022028 0.141903
-4.034937 -0.006234 0.142475
-4.033680 0.009252 0.143030
-4.029538 0.024470 0.143570
-4.028465 0.039937 0.144119
-4.031294 0.055777 0.144680
-4.029525 0.071161 0.145217
-4.029428 0.086704 0.145756
-4.021168 0.101311 0.146250
-4.019979 0.116669 0.146771
-4.015608 0.131615 0.147269
-4.001462 0.145257 0.147708
-4.010746 0.161873 0.148265
-4.012669 0.177557 0.148777
-4.017518 0.193670 0.149300
-4.017096 0.209047 0.149787
-4.007463 0.223012 0.150210
-3.998420 0.236974 0.150628
-3.998636 0.252347 0.151096
-4.002786 0.268377 0.151584
-3.994365 0.282291 0.151982
-3.983763 0.295741 0.152356
-3.996827 0.313383 0.152886
-3.999237 0.329173 0.153337
-3.990340 0.342836 0.153702
-3.988207 0.357745 0.154107
-3.990550 0.373542 0.154540
-3.985798 0.387917 0.154914
-3.980081 0.402056 0.155273
-3.979689 0.417302 0.155666
-3.982757 0.433322 0.156082
-3.984223 0.449030 0.156481
-3.975828 0.462509 0.156793
-3.964853 0.475324 0.157077
-3.966431 0.491062 0.157459
-3.967897 0.506813 0.157836
-3.966071 0.521786 0.158180
-3.967895 0.537698 0.158552
-3.964822 0.552390 0.158875
-3.958150 0.566135 0.159161
-3.951795 0.579933 0.159445
-3.948639 0.594580 0.159752
-3.947722 0.609858 0.160076
-3.945187 0.624705 0.160381
-3.962806 0.645386 0.160875
-3.955271 0.658898 0.161125
-3.958652 0.675638 0.161478
-3.954957 0.690308 0.161758
-3.945638 0.703250 0.161978
-3.946295 0.719277 0.162293
-3.928319 0.729417 0.162416
-3.942065 0.749702 0.162859
-3.947886 0.767572 0.163220
-3.951993 0.784981 0.163562
-3.942467 0.797861 0.163758
-3.930888 0.809991 0.163928
-3.930351 0.825920 0.164212
-3.929489 0.841785 0.164491
-3.928626 0.857701 0.164768
-3.926124 0.873070 0.165024
-3.920729 0.887403 0.165246
-3.915753 0.901899 0.165471
-3.916899 0.918740 0.165762
-3.914574 0.934317 0.166012
-3.905355 0.947235 0.166182
-3.904189 0.963318 0.166441
-3.907532 0.981273 0.166752
-3.911002 0.999385 0.167064
-3.908795 1.015260 0.167308
-3.901455 1.029031 0.167490
-3.901181 1.045794 0.167755
-3.904851 1.064321 0.168066
-3.906716 1.082178 0.168356
-3.902113 1.097281 0.168565
-3.894999 1.111288 0.168743
-3.889047 1.125819 0.168933
-3.877103 1.137620 0.169047
-3.872652 1.152835 0.169252
-3.869511 1.168695 0.169474
-3.863996 1.183473 0.169664
-3.870303 1.203948 0.170005
-3.876870 1.224704 0.170350
-3.877618 1.242757 0.170620
-3.872684 1.258077 0.170816
-3.872617 1.275876 0.171075
-3.867783 1.291332 0.171271
-3.863471 1.307088 0.171473
-3.858719 1.322653 0.171668
-3.861853 1.342406 0.171969
-3.858567 1.358865 0.172183
-3.853569 1.374453 0.172373
-3.845323 1.388302 0.172518
-3.839036 1.403224 0.172689
-3.839562 1.421960 0.172953
-3.849723 1.446224 0.173353
-3.847148 1.463456 0.173575
-3.838805 1.477433 0.173714
-3.832494 1.492586 0.173881
-3.829098 1.509475 0.174089
-3.833551 1.531086 0.174410
-3.866909 1.589630 0.175412
-3.792898 1.640938 0.175592
-3.760144 1.639347 0.175348
-3.704608 1.622564 0.174750
-3.613329 1.581586 0.173596
-3.611518 1.599085 0.173803
-3.613576 1.619272 0.174070
-3.608157 1.634515 0.174220
-3.601532 1.648968 0.174349
-3.601923 1.668306 0.174588
-3.603331 1.688476 0.174841
-3.600067 1.705479 0.175019
-3.596575 1.722391 0.175193
-3.597021 1.742213 0.175428
-3.597564 1.762234 0.175663
-3.594445 1.779694 0.175838
-3.585985 1.793272 0.175924
-3.586403 1.813509 0.176153
-3.583116 1.831078 0.176319
-3.578047 1.847370 0.176453
-3.566230 1.858518 0.176473
-3.562169 1.875667 0.176619
-3.566765 1.899701 0.176907
-3.570461 1.923231 0.177179
-3.564887 1.939534 0.177292
-3.559600 1.956132 0.177407
-3.558509 1.976226 0.177591
-3.555812 1.995132 0.177744
-3.549814 2.011407 0.177837
-3.547711 2.031019 0.177994
-3.559162 2.062247 0.178383
-3.557914 2.082960 0.178550
-3.552073 2.099859 0.178632
-3.547292 2.117762 0.178729
-3.554386 2.146210 0.179031
-3.542979 2.158533 0.179003
-3.543343 2.181400 0.179178
-3.554953 2.214637 0.179550
-3.552626 2.235542 0.179670
-3.536685 2.244065 0.179542
-3.524024 2.255571 0.179466
-3.519534 2.274738 0.179531
-3.525698 2.304133 0.179784
-3.536366 2.338161 0.180115
-3.541800 2.367553 0.180346
-3.528816 2.379339 0.180236
-3.515118 2.390427 0.180106
-3.520709 2.420644 0.180324
-3.520882 2.445787 0.180436
-3.515578 2.465656 0.180441
-3.511122 2.486552 0.180456
-3.508407 2.509427 0.180496
-3.502443 2.529147 0.180469
-3.495702 2.548221 0.180421
-3.488386 2.566844 0.180355
-3.478574 2.582949 0.180235
-3.474142 2.604966 0.180208
-3.484249 2.643036 0.180444
-3.480879 2.666817 0.180422
-3.467827 2.680113 0.180212
-3.456447 2.695343 0.180025
-3.448992 2.715109 0.179904
-3.437530 2.730489 0.179700
-3.425031 2.744781 0.179469
-3.406402 2.752025 0.179116
-3.389829 2.761636 0.178794
-3.369178 2.766407 0.178389
-3.341039 2.762113 0.177837
-3.312119 2.756604 0.177264
-3.286860 2.755269 0.176754
-3.264687 2.757521 0.176295
-3.245228 2.763007 0.175882
-3.224511 2.766824 0.175440
-3.187199 2.749439 0.174687
-3.157329 2.741051 0.174068
-3.146312 2.756711 0.173796
-3.119953 2.752396 0.173238
-3.096968 2.752230 0.172741
-3.069655 2.746050 0.172165
-3.046005 2.744441 0.171657
-3.017368 2.735756 0.171059
-2.984081 2.720231 0.170380
-2.967715 2.727623 0.170014
-2.933275 2.709502 0.169325
-2.911437 2.708566 0.168872
-2.897132 2.718070 0.168563
-2.881500 2.725494 0.168240
-2.857303 2.720183 0.167773
-2.835205 2.717467 0.167356
-2.808010 2.706683 0.166860
-2.788413 2.706680 0.166517
-2.770776 2.709192 0.166226
-2.742144 2.694391 0.165753
-2.722551 2.692801 0.165463
-2.708313 2.699029 0.165291
-2.679570 2.709732 0.165006
-3.838601 -0.342430 0.118098
-3.852593 -0.330254 0.118266
-3.842370 -0.317320 0.118563
-3.843465 -0.304428 0.118842
-3.843440 -0.291326 0.119152
-3.835815 -0.278009 0.119515
-3.843149 -0.264598 0.119847
-3.844457 -0.250991 0.120224
-3.846060 -0.237227 0.120621
-3.847013 -0.223325 0.121039
-3.839890 -0.209439 0.121500
-3.834905 -0.195463 0.121967
-3.833241 -0.181349 0.122438
-3.831164 -0.167179 0.122921
-3.831728 -0.152859 0.123408
-3.854706 -0.137541 0.123852
-4.047042 -0.114132 0.123956
-4.050232 -0.082916 0.125046
-4.050900 -0.067287 0.125598
-4.058097 -0.051199 0.126144
-4.043895 -0.036524 0.126719
-4.036428 -0.021466 0.127281
-4.035752 -0.005927 0.127834
-4.032531 0.009395 0.128386
-4.028022 0.024573 0.128935
-4.030268 0.040344 0.129476
-4.031137 0.055999 0.130014
-4.027605 0.071199 0.130547
-4.023536 0.086301 0.131075
-4.022303 0.101679 0.131596
-4.015678 0.116399 0.132108
-4.010856 0.131270 0.132613
-4.012269 0.146886 0.133115
-4.013494 0.162484 0.133611
-4.017325 0.178446 0.134103
-4.018083 0.194000 0.134586
-4.013700 0.208797 0.135055
-4.004711 0.222846 0.135509
-4.000331 0.237530 0.135961
-4.001984 0.253147 0.136415
-4.006804 0.269308 0.136869
-4.003395 0.284103 0.137301
-3.986102 0.296417 0.137694
-3.980052 0.310608 0.138102
-3.997156 0.329055 0.138559
-3.993267 0.343666 0.138959
-3.981749 0.356753 0.139331
-3.985780 0.372860 0.139738
-3.986029 0.388241 0.140128
-3.978797 0.402065 0.140490
-3.979858 0.417618 0.140870
-3.985938 0.434303 0.141261
-3.983749 0.449207 0.141619
-3.962561 0.459746 0.141903
-3.962261 0.475001 0.142254
-3.962952 0.490515 0.142603
-3.972547 0.508237 0.142982
-3.958369 0.520155 0.143263
-3.959564 0.535870 0.143598
-3.970212 0.554077 0.143969
-3.970278 0.569627 0.144292
-3.959048 0.582175 0.144561
-3.952934 0.596048 0.144846
-3.947831 0.610179 0.145130
-3.954853 0.627740 0.145466
-3.950357 0.642084 0.145744
-3.956743 0.659623 0.146070
-3.953259 0.674319 0.146345
-3.948361 0.688596 0.146609
-3.944766 0.703272 0.146875
-3.932679 0.715293 0.147092
-3.925545 0.728821 0.147330
-3.892767 0.734016 0.147425
-3.957507 0.771027 0.148049
-3.951273 0.785028 0.148284
-3.939609 0.797177 0.148484
-3.932085 0.810688 0.148703
-3.926398 0.824820 0.148930
-3.934257 0.843759 0.149233
-3.929774 0.858395 0.149461
-3.925571 0.873147 0.149688
-3.925839 0.889573 0.149940
-3.926009 0.906028 0.150190
-3.922606 0.921187 0.150415
-3.916395 0.935290 0.150619
-3.909075 0.948958 0.150814
-3.899137 0.961576 0.150989
-3.910103 0.982570 0.151300
-3.915560 1.001504 0.151574
-3.914020 1.017676 0.151800
-3.906216 1.031279 0.151981
-3.903116 1.046865 0.152193
-3.906654 1.065344 0.152450
-3.905433 1.081865 0.152673
-3.903063 1.097941 0.152886
-3.898086 1.112904 0.153079
-3.887845 1.125510 0.153232
-3.882586 1.140358 0.153420
-3.875570 1.154413 0.153593
-3.878214 1.172998 0.153837
-3.875563 1.189181 0.154041
-3.865515 1.201863 0.154187
-3.866794 1.220017 0.154419
-3.878731 1.243513 0.154734
-3.873743 1.258808 0.154916
-3.873438 1.276488 0.155135
-3.866905 1.291080 0.155304
-3.862019 1.306531 0.155484
-3.859532 1.323262 0.155683
-3.856713 1.339879 0.155879
-3.855497 1.357406 0.156087
-3.852574 1.374089 0.156281
-3.846254 1.388978 0.156445
-3.841377 1.404678 0.156620
-3.840822 1.422821 0.156831
-3.845459 1.443977 0.157088
-3.846955 1.463497 0.157317
-3.838758 1.477551 0.157460
-3.832968 1.493003 0.157623
-3.825682 1.507601 0.157772
-3.822399 1.524587 0.157955
-3.854258 1.562749 0.158459
-3.800508 1.626396 0.159016
-3.764760 1.642422 0.159087
-3.711300 1.627018 0.158773
-3.624754 1.589198 0.158128
-3.615712 1.601954 0.158232
-3.610053 1.616973 0.158366
-3.606969 1.633775 0.158525
-3.603238 1.650202 0.158676
-3.601698 1.668209 0.158847
-3.604260 1.689182 0.159058
-3.602136 1.706993 0.159221
-3.595515 1.721682 0.159335
-3.590633 1.737651 0.159465
-3.587068 1.754632 0.159607
-3.579789 1.768957 0.159707
-3.578839 1.788000 0.159871
-3.576030 1.805763 0.160014
-3.579830 1.828617 0.160224
-3.581522 1.850048 0.160411
-3.576975 1.866825 0.160528
-3.567229 1.879624 0.160585
-3.562155 1.896091 0.160690
-3.565964 1.919672 0.160889
-3.566524 1.940853 0.161049
-3.562710 1.958653 0.161159
-3.557838 1.975681 0.161253
-3.556236 1.995482 0.161380
-3.552489 2.013631 0.161479
-3.548929 2.032038 0.161576
-3.549494 2.054048 0.161716
-3.555139 2.080579 0.161910
-3.550599 2.098578 0.161985
-3.550393 2.120454 0.162104
-3.553624 2.145529 0.162258
-3.548836 2.163720 0.162316
-3.546161 2.183913 0.162393
-3.547595 2.207968 0.162512
-3.542556 2.226335 0.162551
-3.536351 2.243742 0.162571
-3.518342 2.250273 0.162446
-3.521810 2.276859 0.162567
-3.531798 2.309896 0.162760
-3.539105 2.340764 0.162915
-3.539779 2.365588 0.162986
-3.532626 2.383036 0.162958
-3.509351 2.384746 0.162731
-3.514732 2.414702 0.162837
-3.518968 2.443861 0.162923
-3.514934 2.464996 0.162903
-3.510258 2.485664 0.162867
-3.502939 2.503791 0.162793
-3.497433 2.523938 0.162732
-3.492920 2.545302 0.162675
-3.497186 2.576162 0.162715
-3.485227 2.590063 0.162553
-3.473171 2.603925 0.162381
-3.478889 2.637207 0.162412
-3.475349 2.660750 0.162324
-3.465168 2.677176 0.162149
-3.456206 2.695088 0.161979
-3.453365 2.720074 0.161873
-3.438089 2.731149 0.161611
-3.421539 2.740781 0.161326
-3.408444 2.754427 0.161074
-3.390740 2.762734 0.160759
-3.367496 2.764442 0.160373
-3.341126 2.762249 0.159944
-3.311790 2.756238 0.159474
-3.288779 2.757643 0.159072
-3.267788 2.761377 0.158687
-3.245588 2.763486 0.158284
-3.217438 2.757956 0.157809
-3.187880 2.750328 0.157315
-3.172932 2.761086 0.156981
-3.146227 2.756617 0.156515
-3.128783 2.763958 0.156149
-3.102789 2.759923 0.155689
-3.071277 2.748204 0.155170
-3.045986 2.744394 0.154721
-3.022214 2.742319 0.154292
-2.993555 2.733211 0.153816
-2.958601 2.714888 0.153280
-2.921301 2.692605 0.152728
-2.909959 2.706357 0.152457
-2.892232 2.710912 0.152128
-2.874082 2.714594 0.151805
-2.851912 2.712104 0.151455
-2.830576 2.710399 0.151127
-2.813417 2.714465 0.150858
-2.789531 2.708046 0.150539
-2.764898 2.699898 0.150232
-2.741847 2.693529 0.149962
-2.719880 2.688206 0.149725
-2.703835 2.691513 0.149570
-2.692798 2.702243 0.149489
-2.651731 2.664724 0.149133
-3.942943 -0.344596 0.103808
-3.832386 -0.329292 0.104959
-3.834134 -0.316683 0.105173
-3.847480 -0.304015 0.105320
-3.854837 -0.290988 0.105546
-3.837178 -0.277599 0.106006
-3.836918 -0.264202 0.106346
-3.840531 -0.250635 0.106679
-3.839601 -0.236930 0.107071
-3.841417 -0.223065 0.107460
-3.839693 -0.209126 0.107896
-3.833707 -0.195191 0.108378
-3.834427 -0.181032 0.108825
-3.832253 -0.166873 0.109305
-3.829769 -0.152672 0.109798
-3.830034 -0.138314 0.110280
-4.032001 -0.114571 0.109435
-4.064532 -0.097493 0.109756
-4.047751 -0.082814 0.110403
-4.032573 -0.068164 0.111037
-4.038919 -0.052225 0.111541
-4.041388 -0.036476 0.112070
-4.040808 -0.020916 0.112617
-4.036383 -0.005659 0.113184
-4.026806 0.009125 0.113773
-4.025936 0.024600 0.114313
-4.029196 0.040457 0.114827
-4.025386 0.055642 0.115372
-4.025258 0.071169 0.115894
-4.023211 0.086481 0.116420
-4.017124 0.101306 0.116956
-4.014260 0.116448 0.117470
-4.015109 0.132014 0.117962
-4.019270 0.148006 0.118435
-4.020336 0.163619 0.118914
-4.018603 0.178849 0.119396
-4.012276 0.193399 0.119886
-4.007024 0.208043 0.120363
-3.999318 0.222257 0.120839
-4.002719 0.238141 0.121272
-4.005462 0.253950 0.121701
-4.003213 0.268951 0.122137
-4.006735 0.284922 0.122550
-3.994337 0.298118 0.122995
-3.988604 0.312407 0.123414
-3.991423 0.328240 0.123807
-3.992735 0.343819 0.124196
-3.984096 0.357469 0.124597
-3.985804 0.373124 0.124971
-3.987422 0.388789 0.125339
-3.984355 0.403497 0.125707
-3.975651 0.416978 0.126077
-3.988373 0.435107 0.126410
-3.980270 0.448695 0.126765
-3.967818 0.461224 0.127117
-3.954247 0.473392 0.127462
-3.964886 0.491252 0.127776
-3.973727 0.508802 0.128087
-3.972194 0.523879 0.128403
-3.974780 0.540017 0.128710
-3.953543 0.550037 0.129025
-3.974511 0.571027 0.129313
-3.979612 0.587988 0.129604
-3.950184 0.595576 0.129901
-3.960487 0.613991 0.130182
-3.957060 0.628650 0.130460
-3.956254 0.644071 0.130734
-3.949832 0.657876 0.131003
-3.943429 0.671666 0.131266
-3.940187 0.686396 0.131525
-3.939571 0.701950 0.131781
-3.926032 0.713488 0.132028
-3.909723 0.724054 0.132267
-3.934129 0.747701 0.132524
-3.955472 0.770641 0.132780
-3.952938 0.785867 0.133018
-3.941188 0.797993 0.133245
-3.934830 0.811912 0.133472
-3.935438 0.828259 0.133702
-3.938654 0.845597 0.133932
-3.927123 0.857715 0.134144
-3.922158 0.872172 0.134359
-3.926612 0.890131 0.134583
-3.933344 0.909056 0.134808
-3.928075 0.923540 0.135015
-3.922139 0.937776 0.135219
-3.914683 0.951419 0.135417
-3.911842 0.966883 0.135620
-3.909866 0.982733 0.135822
-3.911655 1.000168 0.136028
-3.913655 1.017779 0.136234
-3.907979 1.032269 0.136424
-3.905088 1.047950 0.136617
-3.900853 1.063096 0.136806
-3.902970 1.081035 0.137006
-3.899159 1.096459 0.137192
-3.894989 1.111757 0.137376
-3.891277 1.127293 0.137559
-3.888835 1.143447 0.137744
-3.884902 1.158962 0.137924
-3.880482 1.174283 0.138102
-3.872243 1.187822 0.138268
-3.864768 1.201717 0.138435
-3.863422 1.218588 0.138615
-3.870445 1.239643 0.138817
-3.870524 1.257408 0.139001
-3.869343 1.274625 0.139180
-3.861646 1.288595 0.139340
-3.857918 1.304607 0.139510
-3.854727 1.320944 0.139680
-3.855473 1.339406 0.139861
-3.851798 1.355611 0.140028
-3.850602 1.373199 0.140202
-3.852059 1.392311 0.140383
-3.847950 1.408465 0.140546
-3.845100 1.425364 0.140713
-3.841831 1.442088 0.140876
-3.840184 1.459791 0.141045
-3.837641 1.477054 0.141209
-3.833216 1.493289 0.141366
-3.830157 1.510370 0.141526
-3.821564 1.524223 0.141665
-3.823162 1.544192 0.141841
-3.802170 1.647066 0.142754
-3.762918 1.641327 0.142755
-3.715088 1.629580 0.142715
-3.624969 1.589423 0.142492
-3.617326 1.603107 0.142608
-3.609939 1.616970 0.142723
-3.606340 1.633417 0.142852
-3.602365 1.649669 0.142978
-3.602007 1.668486 0.143117
-3.601692 1.687443 0.143255
-3.598954 1.704799 0.143380
-3.594213 1.720803 0.143494
-3.588065 1.735848 0.143599
-3.580014 1.749542 0.143692
-3.575306 1.765702 0.143798
-3.573225 1.783871 0.143914
-3.574990 1.805019 0.144045
-3.575647 1.825484 0.144169
-3.584258 1.852167 0.144329
-3.581765 1.870546 0.144432
-3.571474 1.882954 0.144493
-3.559104 1.893713 0.144539
-3.559418 1.914496 0.144646
-3.567638 1.941762 0.144789
-3.568904 1.963677 0.144894
-3.562469 1.979474 0.144955
-3.560268 1.998816 0.145034
-3.564167 2.023354 0.145140
-3.548093 2.031344 0.145137
-3.540157 2.046141 0.145172
-3.555841 2.081185 0.145327
-3.553679 2.101240 0.145383
-3.548538 2.118840 0.145418
-3.549354 2.141775 0.145480
-3.553138 2.167542 0.145552
-3.545270 2.183115 0.145555
-3.536481 2.197917 0.145548
-3.540229 2.224212 0.145602
-3.527742 2.235812 0.145562
-3.530891 2.261944 0.145600
-3.537563 2.291646 0.145652
-3.530922 2.309069 0.145623
-3.535661 2.337476 0.145649
-3.540190 2.365992 0.145667
-3.523433 2.374091 0.145561
-3.503840 2.379338 0.145432
-3.510605 2.410620 0.145439
-3.521515 2.446425 0.145460
-3.512899 2.462956 0.145366
-3.506727 2.482081 0.145277
-3.500163 2.500954 0.145177
-3.492905 2.519257 0.145064
-3.493387 2.545819 0.144984
-3.497619 2.576651 0.144914
-3.490056 2.595258 0.144772
-3.481389 2.612827 0.144614
-3.477321 2.635541 0.144471
-3.476168 2.661695 0.144333
-3.465184 2.677242 0.144135
-3.459016 2.698287 0.143951
-3.454186 2.721058 0.143763
-3.442108 2.735798 0.143531
-3.425029 2.744865 0.143264
-3.407121 2.752954 0.142986
-3.391271 2.763427 0.142709
-3.365409 2.762038 0.142377
-3.336743 2.757073 0.142027
-3.309763 2.753860 0.141680
-3.288018 2.756789 0.141349
-3.267710 2.761356 0.141019
-3.243117 2.760483 0.140667
-3.217400 2.757981 0.140306
-3.194805 2.759194 0.139955
-3.172003 2.759961 0.139600
-3.152837 2.765241 0.139257
-3.126992 2.761669 0.138889
-3.091739 2.745364 0.138490
-3.066800 2.742263 0.138130
-3.046555 2.745184 0.137787
-3.022542 2.742774 0.137437
-2.994277 2.734195 0.137081
-2.967523 2.727258 0.136737
-2.944188 2.724677 0.136412
-2.902562 2.695796 0.136051
-2.890425 2.708222 0.135778
-2.870759 2.709656 0.135499
-2.847259 2.705140 0.135227
-2.833147 2.713989 0.134992
-2.815030 2.716624 0.134766
-2.788547 2.706277 0.134545
-2.762022 2.695193 0.134346
-2.740931 2.691741 0.134182
-2.728995 2.701896 0.134059
-2.715975 2.710015 0.133961
-2.697897 2.709746 0.133881
-2.695585 2.734025 0.133856
-3.822085 -0.340916 0.091535
-3.850524 -0.329173 0.091338
-3.852187 -0.316514 0.091521
-3.863965 -0.303774 0.091605
-3.856063 -0.290565 0.091972
-3.853099 -0.277265 0.092303
-3.847438 -0.263822 0.092693
-3.840142 -0.250277 0.093127
-3.835182 -0.236631 0.093554
-3.830411 -0.222895 0.093998
-3.833798 -0.208933 0.094362
-3.830098 -0.194991 0.094828
-3.831885 -0.180836 0.095244
-3.832796 -0.166604 0.095684
-3.826437 -0.152555 0.096219
-3.826125 -0.138248 0.096694
-4.072680 -0.096851 0.094951
-4.036624 -0.083219 0.095872
-4.032395 -0.067966 0.096446
-4.038823 -0.052027 0.096909
-4.033721 -0.036815 0.097495
-4.045113 -0.020395 0.097910
-4.032926 -0.005741 0.098565
-4.025631 0.009217 0.099164
-4.023767 0.024596 0.099706
-4.023263 0.040087 0.100231
-4.017944 0.055093 0.100795
-4.020167 0.070830 0.101284
-4.023171 0.086669 0.101761
-4.017621 0.101556 0.102308
-4.015096 0.116743 0.102821
-4.024318 0.133350 0.103226
-4.023160 0.148706 0.103714
-4.020366 0.163826 0.104207
-4.013866 0.178400 0.104723
-4.008192 0.193024 0.105222
-4.002483 0.207583 0.105713
-4.001495 0.222803 0.106157
-4.000083 0.237943 0.106597
-4.000066 0.253295 0.107018
-3.997692 0.268252 0.107449
-3.987917 0.281915 0.107924
-3.996148 0.298667 0.108262
-3.991967 0.313250 0.108681
-3.997889 0.329680 0.109022
-3.985518 0.342678 0.109480
-3.985392 0.357964 0.109846
-3.986712 0.373550 0.110196
-3.990656 0.389700 0.110523
-3.986692 0.404238 0.110892
-3.985875 0.419431 0.111235
-3.985453 0.434719 0.111568
-3.977690 0.448371 0.111938
-3.968804 0.461709 0.112306
-3.966858 0.476612 0.112627
-3.970665 0.492899 0.112908
-3.971476 0.508516 0.113201
-3.970962 0.523838 0.113495
-3.967109 0.538334 0.113801
-3.978747 0.556839 0.114019
-3.968172 0.569623 0.114348
-3.961404 0.583361 0.114651
-3.971664 0.601735 0.114863
-3.962669 0.614874 0.115166
-3.958941 0.629458 0.115437
-3.956258 0.644347 0.115697
-3.945916 0.657000 0.115989
