ply
format ascii 1.0
comment ---
element vertex 1723
property float x
property float y
property float z
element face 0
property list uchar uint vertex_indices
end_header
-0.735738 2.423614 0.761336
-0.720811 2.416793 0.758561
-0.705629 2.414931 0.758062
-0.690457 2.413101 0.757576
-0.675349 2.410588 0.756773
-0.659978 2.411608 0.757593
-0.644590 2.412616 0.758407
-0.629585 2.409178 0.757172
-0.614776 2.403969 0.755119
-0.599542 2.403433 0.755215
-0.584592 2.400186 0.754060
-0.569588 2.397649 0.753229
-0.554271 2.397955 0.753706
-0.538610 2.400989 0.755438
-0.523649 2.398140 0.754456
-0.509595 2.388543 0.750359
-0.493120 2.397298 0.754723
-0.478013 2.395684 0.754302
-0.462872 2.394332 0.753999
-0.452045 2.364644 0.740613
-0.433843 2.383676 0.749713
-0.419379 2.378413 0.747593
-0.403565 2.381429 0.749294
-0.387631 2.384866 0.751187
-0.372388 2.384133 0.751150
-0.357978 2.378808 0.748987
-0.344166 2.370508 0.745444
-0.329361 2.367681 0.744427
-0.313535 2.370023 0.745796
-0.297689 2.372243 0.747106
-0.282264 2.372241 0.747384
-0.267017 2.371302 0.747225
-0.252734 2.365926 0.745007
-0.237646 2.364259 0.744501
-0.223470 2.358603 0.742143
-0.207919 2.358909 0.742540
-0.192401 2.358948 0.742810
-0.177291 2.357213 0.742253
-0.164251 2.347224 0.737865
-0.149022 2.346021 0.737543
-0.133943 2.344167 0.736914
-0.118492 2.343649 0.736898
-0.103833 2.340122 0.735482
-0.088433 2.339257 0.735293
-0.072211 2.341170 0.736388
-0.060434 2.327543 0.730267
-0.047649 2.317688 0.725889
-0.028366 2.329643 0.731624
-0.012661 2.329343 0.731667
-0.000133 2.318712 0.726907
0.018360 2.327092 0.730965
0.033069 2.323309 0.729370
0.045470 2.312464 0.724488
0.060886 2.310844 0.723881
0.077820 2.313584 0.725293
0.095245 2.317488 0.727238
0.108905 2.310359 0.724050
0.121722 2.300913 0.719777
0.138600 2.302805 0.720764
0.154647 2.302197 0.720581
0.169364 2.297861 0.718658
0.185988 2.298498 0.719037
0.203397 2.300968 0.720260
0.219010 2.298577 0.719215
0.233119 2.292269 0.716341
0.247959 2.287763 0.714296
0.266220 2.291567 0.716105
0.281583 2.288067 0.714510
0.295415 2.280818 0.711164
0.307644 2.269805 0.706059
0.324812 2.270323 0.706305
0.341696 2.269979 0.706143
0.357777 2.267629 0.705039
0.376713 2.271479 0.706810
0.394079 2.271578 0.706828
0.409076 2.266351 0.704363
0.424625 2.262235 0.702407
0.439860 2.257368 0.700094
0.455391 2.253045 0.698028
0.471452 2.249728 0.696424
0.490233 2.251817 0.697325
0.510027 2.255698 0.699054
0.525376 2.250528 0.696573
0.539552 2.243033 0.693008
0.556320 2.240557 0.691772
0.571716 2.235385 0.689282
0.589227 2.234176 0.688632
0.606391 2.232229 0.687641
0.624649 2.232226 0.687554
0.642717 2.231788 0.687269
0.661714 2.232950 0.687731
0.681411 2.235265 0.688735
0.698570 2.233054 0.687646
0.712161 2.224709 0.683718
0.729212 2.222478 0.682642
0.749002 2.224961 0.683769
0.763199 2.218098 0.680573
0.778136 2.212691 0.678071
0.798180 2.215864 0.679573
0.813508 2.211474 0.677586
0.829968 2.209152 0.676584
0.845577 2.205714 0.675089
0.867949 2.213178 0.678686
0.881748 2.207402 0.676163
0.872045 2.165818 0.657035
-2.825067 2.661231 0.770848
-2.794470 2.640865 0.762744
-2.778489 2.645357 0.765343
-2.754345 2.636261 0.762163
-2.734543 2.634853 0.762326
-2.706929 2.620005 0.756759
-2.683844 2.613152 0.754660
-2.665533 2.614957 0.756320
-2.648452 2.619246 0.759084
-2.624858 2.611870 0.756857
-2.608222 2.617384 0.760210
-2.594581 2.628767 0.766122
-2.573096 2.625611 0.765786
-2.547793 2.615104 0.762290
-2.522566 2.604518 0.758769
-2.502597 2.604029 0.759620
-2.480927 2.600115 0.758997
-2.463456 2.604527 0.761985
-2.443412 2.603723 0.762717
-2.424937 2.606056 0.764812
-2.405279 2.605855 0.765807
-2.385114 2.604447 0.766275
-2.368705 2.610941 0.770175
-2.342646 2.596399 0.764914
-2.322787 2.595002 0.765364
-2.301585 2.590377 0.764397
-2.279958 2.584471 0.762858
-2.261992 2.586632 0.764828
-2.252887 2.609345 0.775770
-2.224719 2.587337 0.767156
-2.204342 2.583204 0.766338
-2.184314 2.579583 0.765729
-2.162193 2.570462 0.762694
-2.142653 2.567323 0.762264
-2.123319 2.564391 0.761909
-2.107821 2.571058 0.765754
-2.087779 2.565788 0.764342
-2.064834 2.552402 0.759345
-2.046484 2.550805 0.759514
-2.032258 2.560261 0.764535
-2.015331 2.562263 0.766263
-1.996739 2.559392 0.765830
-1.976970 2.552826 0.763752
-1.956904 2.544962 0.761085
-1.938050 2.540236 0.759786
-1.921263 2.541395 0.761072
-1.903462 2.539275 0.760897
-1.885473 2.536292 0.760326
-1.868429 2.536018 0.760940
-1.850992 2.534269 0.760890
-1.830630 2.522623 0.756441
-1.815925 2.529364 0.760127
-1.798260 2.526047 0.759343
-1.782814 2.530160 0.761844
-1.765393 2.527243 0.761216
-1.749248 2.528664 0.762502
-1.732484 2.527686 0.762713
-1.714318 2.521224 0.760475
-1.696407 2.515322 0.758474
-1.679501 2.512959 0.758036
-1.661973 2.507850 0.756366
-1.644737 2.503572 0.755054
-1.628862 2.504650 0.756120
-1.612947 2.505470 0.757061
-1.597242 2.507103 0.758359
-1.579439 2.499290 0.755434
-1.563523 2.499621 0.756134
-1.547881 2.501131 0.757353
-1.531821 2.500581 0.757646
-1.515020 2.496226 0.756230
-1.498979 2.495372 0.756372
-1.482551 2.492348 0.755537
-1.465106 2.483606 0.752136
-1.449463 2.484176 0.752894
-1.434290 2.487336 0.754805
-1.419863 2.494946 0.758705
-1.405540 2.503563 0.763053
-1.386981 2.486324 0.755811
-1.371194 2.485641 0.755980
-1.355967 2.488543 0.757752
-1.340589 2.490528 0.759109
-1.324076 2.484496 0.756864
-1.307642 2.478510 0.754634
-1.291342 2.473014 0.752618
-1.276096 2.475424 0.754147
-1.261103 2.480079 0.756682
-1.245137 2.476604 0.755560
-1.228080 2.462798 0.749788
-1.213768 2.473846 0.755188
-1.198122 2.472548 0.755032
-1.181777 2.463645 0.751451
-1.166046 2.460566 0.750485
-1.150448 2.458637 0.750034
-1.135232 2.461272 0.751635
-1.119660 2.459404 0.751205
-1.103813 2.453218 0.748826
-1.088275 2.450859 0.748168
-1.072843 2.449890 0.748134
-1.057360 2.447761 0.747573
-1.042275 2.453411 0.750521
-1.027102 2.458350 0.753146
-1.011497 2.453287 0.751255
-0.995768 2.442878 0.746945
-0.980357 2.440110 0.746083
-0.965020 2.439417 0.746156
-0.949769 2.443230 0.748263
-0.934449 2.444854 0.749381
-0.919120 2.447832 0.751108
-0.903728 2.437207 0.746681
-0.888428 2.431367 0.744414
-0.873147 2.430256 0.744285
-0.857847 2.431231 0.745098
-0.842534 2.432189 0.745903
-0.827304 2.429039 0.744844
-0.812014 2.428966 0.745178
-0.796633 2.431479 0.746682
-0.781269 2.432789 0.747640
-0.766062 2.430111 0.746787
-0.750918 2.426575 0.745543
-0.735672 2.425506 0.745416
-0.720467 2.423836 0.745013
-0.705705 2.415452 0.741561
-0.690612 2.412979 0.740789
-0.675525 2.410681 0.740094
-0.659934 2.414908 0.742361
-0.644522 2.416436 0.743401
-0.629215 2.416534 0.743789
-0.614981 2.405264 0.739005
-0.600404 2.398476 0.736256
-0.585037 2.399763 0.737176
-0.570036 2.397542 0.736498
-0.554482 2.400209 0.738042
-0.539250 2.399908 0.738233
-0.524536 2.395429 0.736519
-0.510158 2.388668 0.733762
-0.495537 2.384106 0.732003
-0.478860 2.394314 0.736971
-0.464408 2.388559 0.734662
-0.448094 2.395360 0.738074
-0.435046 2.380845 0.731763
-0.419758 2.380960 0.732119
-0.404253 2.382271 0.733018
-0.388446 2.385161 0.734634
-0.374349 2.378181 0.731742
-0.358735 2.379778 0.732762
-0.344875 2.371885 0.729444
-0.331038 2.364196 0.726214
-0.315691 2.364403 0.726586
-0.298960 2.371280 0.730001
-0.283270 2.372733 0.730935
-0.269356 2.365736 0.728002
-0.254444 2.363506 0.727243
-0.239050 2.363406 0.727452
-0.224164 2.360995 0.726601
-0.209990 2.355557 0.724359
-0.194577 2.355381 0.724519
-0.180019 2.351620 0.723033
-0.164962 2.349881 0.722467
-0.149599 2.349278 0.722415
-0.133324 2.352049 0.723901
-0.119749 2.344492 0.720653
-0.104616 2.342809 0.720089
-0.088103 2.346007 0.721754
-0.075895 2.333785 0.716348
-0.062873 2.324692 0.712369
-0.047906 2.322388 0.711493
-0.030681 2.327543 0.714028
-0.015978 2.324117 0.712624
-0.001648 2.319460 0.710648
0.014021 2.319039 0.710607
0.031744 2.324850 0.713416
0.045341 2.317712 0.710280
0.060342 2.314863 0.709102
0.077606 2.318618 0.710945
0.093225 2.317308 0.710458
0.103793 2.301436 0.703281
0.120211 2.302338 0.703792
0.136045 2.301420 0.703458
0.152050 2.300813 0.703259
0.166581 2.296089 0.701162
0.184675 2.300737 0.703357
0.201080 2.300660 0.703375
0.216844 2.298749 0.702542
0.230699 2.291877 0.699423
0.243176 2.281575 0.694721
0.263053 2.289535 0.698390
0.279421 2.288579 0.697959
0.293844 2.282809 0.695308
0.308938 2.278577 0.693355
0.323804 2.273727 0.691108
0.338957 2.269462 0.689122
0.355217 2.267608 0.688232
0.370847 2.264198 0.686621
0.390620 2.269774 0.689124
0.406335 2.266207 0.687422
0.422067 2.262568 0.685681
0.437658 2.258528 0.683747
0.455285 2.258637 0.683711
0.472459 2.257624 0.683152
0.489554 2.256289 0.682439
0.505785 2.253075 0.680860
0.521916 2.249573 0.679143
0.535406 2.240831 0.675020
0.549013 2.232376 0.671027
0.567195 2.232703 0.671059
0.585571 2.233255 0.671193
0.603380 2.232618 0.670783
0.621912 2.233221 0.670943
0.638545 2.230273 0.669479
0.658583 2.233432 0.670820
0.675230 2.230452 0.669354
0.693052 2.229567 0.668858
0.707558 2.222947 0.665745
0.721744 2.215941 0.662468
0.741076 2.217849 0.663291
0.761750 2.222024 0.665169
0.780854 2.223594 0.665874
0.798489 2.222836 0.665534
0.814126 2.218993 0.663805
0.826761 2.210573 0.660005
0.850971 2.220919 0.664831
0.867998 2.219965 0.664510
0.882218 2.214899 0.662337
0.874989 2.177089 0.645188
-2.817100 2.657012 0.749909
-2.785627 2.634911 0.741188
-2.758459 2.620103 0.735597
-2.753529 2.643697 0.746298
-2.722961 2.623450 0.738498
-2.693194 2.604496 0.731282
-2.679459 2.613937 0.736135
-2.665338 2.623135 0.740930
-2.644710 2.620924 0.740924
-2.624816 2.620200 0.741581
-2.605880 2.621397 0.743083
-2.587148 2.623129 0.744840
-2.565535 2.619513 0.744344
-2.541817 2.611817 0.742126
-2.520752 2.609143 0.742060
-2.500106 2.607238 0.742333
-2.472456 2.591269 0.736608
-2.448420 2.582166 0.733814
-2.435999 2.596571 0.741074
-2.419541 2.602880 0.744880
-2.401207 2.605301 0.747024
-2.383972 2.610002 0.750144
-2.361060 2.602434 0.747999
-2.346434 2.612630 0.753472
-2.321352 2.599759 0.749030
-2.298324 2.590972 0.746326
-2.274242 2.579355 0.742388
-2.264181 2.599595 0.752160
-2.243455 2.595229 0.751322
-2.222484 2.589951 0.750075
-2.201331 2.583866 0.748464
-2.181113 2.579674 0.747653
-2.161691 2.577116 0.747534
-2.140493 2.569792 0.745335
-2.128294 2.584995 0.752874
-2.101451 2.562499 0.744069
-2.080231 2.553881 0.741255
-2.072133 2.579807 0.753415
-2.043159 2.549725 0.741250
-2.028015 2.556555 0.745095
-2.013606 2.565440 0.749823
-1.993722 2.558833 0.747801
-1.972600 2.548225 0.744019
-1.954499 2.545924 0.743836
-1.935729 2.541341 0.742644
-1.918224 2.540236 0.742953
-1.900852 2.539301 0.743323
-1.884573 2.541565 0.745076
-1.867835 2.542246 0.746125
-1.847859 2.532237 0.742489
-1.832660 2.537481 0.745508
-1.813463 2.529263 0.742625
-1.796438 2.528007 0.742776
-1.777674 2.520453 0.740156
-1.761635 2.522137 0.741570
-1.745157 2.522127 0.742231
-1.729255 2.524080 0.743742
-1.712048 2.521015 0.743042
-1.694580 2.516665 0.741766
-1.678209 2.516291 0.742225
-1.661386 2.513933 0.741803
-1.643706 2.507805 0.739712
-1.627658 2.508113 0.740441
-1.612907 2.513853 0.743553
-1.596130 2.510830 0.742800
-1.577950 2.501231 0.739140
-1.561124 2.497267 0.737953
-1.546631 2.503974 0.741460
-1.531704 2.508796 0.744132
-1.514753 2.503722 0.742431
-1.497930 2.498912 0.740838
-1.480877 2.492531 0.738543
-1.463176 2.482198 0.734493
-1.446626 2.477534 0.732939
-1.432159 2.484328 0.736442
-1.418570 2.496572 0.742352
-1.403641 2.501388 0.744974
-1.386555 2.492987 0.741742
-1.369924 2.486862 0.739511
-1.354622 2.489079 0.740966
-1.339095 2.489822 0.741764
-1.322722 2.484489 0.739865
-1.305960 2.475794 0.736469
-1.289936 2.472020 0.735249
-1.274568 2.473130 0.736189
-1.259868 2.479860 0.739620
-1.243806 2.475217 0.738000
-1.227690 2.469584 0.735936
-1.212303 2.470337 0.736702
-1.196989 2.471842 0.737800
-1.181122 2.467575 0.736329
-1.165096 2.460987 0.733821
-1.149616 2.460063 0.733827
-1.134357 2.461787 0.735009
-1.119022 2.462677 0.735817
-1.103235 2.457050 0.733720
-1.087392 2.449629 0.730821
-1.071738 2.444111 0.728765
-1.056603 2.447287 0.730579
-1.041371 2.449096 0.731781
-1.026074 2.449811 0.732494
-1.010786 2.450960 0.733399
-0.995388 2.449152 0.732982
-0.979893 2.443157 0.730695
-0.964519 2.439890 0.729621
-0.949134 2.434169 0.727449
-0.933738 2.422987 0.722834
-0.918505 2.418798 0.721339
-0.903368 2.440394 0.731363
-0.888092 2.433574 0.728688
-0.872853 2.430491 0.727682
-0.857551 2.434299 0.729754
-0.842318 2.432010 0.729098
-0.827085 2.430575 0.728821
-0.811978 2.425058 0.726716
-0.796674 2.426998 0.727945
-0.781249 2.431408 0.730280
-0.766372 2.422186 0.726507
-0.751110 2.422646 0.727069
-0.735502 2.429317 0.730412
-0.720420 2.425862 0.729216
-0.705767 2.416180 0.725224
-0.691653 2.400067 0.718344
-0.675687 2.410929 0.723560
-0.660384 2.411989 0.724378
-0.644819 2.415930 0.726487
-0.630330 2.407362 0.722979
-0.616219 2.395650 0.718055
-0.601540 2.390731 0.716177
-0.586421 2.390386 0.716350
-0.570781 2.394706 0.718619
-0.555199 2.398061 0.720451
-0.540303 2.395364 0.719561
-0.525458 2.392395 0.718545
-0.510381 2.391339 0.718386
-0.495299 2.390324 0.718243
-0.481483 2.380333 0.714056
-0.466135 2.381418 0.714851
-0.451528 2.377459 0.713371
-0.436384 2.377092 0.713506
-0.420578 2.380743 0.715447
-0.404970 2.382889 0.716707
-0.389761 2.382505 0.716824
-0.373493 2.388006 0.719591
-0.358987 2.383464 0.717825
-0.344392 2.379544 0.716336
-0.334550 2.351158 0.703806
-0.316722 2.364379 0.710039
-0.300071 2.371047 0.713312
-0.284351 2.372820 0.714373
-0.269354 2.371025 0.713818
-0.256586 2.359054 0.708664
-0.241109 2.359586 0.709149
-0.225985 2.358442 0.708873
-0.212169 2.351675 0.706051
-0.197508 2.348604 0.704892
-0.181481 2.351096 0.706242
-0.167101 2.346808 0.704521
-0.148166 2.360320 0.710842
-0.133402 2.357235 0.709654
-0.121738 2.342544 0.703211
-0.105450 2.345255 0.704630
-0.090775 2.341926 0.703311
-0.077173 2.334795 0.700265
-0.064938 2.323064 0.695129
-0.046977 2.331075 0.698920
-0.030095 2.335055 0.700880
-0.014856 2.333356 0.700262
-0.001111 2.326753 0.697417
0.015098 2.328021 0.698127
0.030566 2.326783 0.697695
0.044675 2.321273 0.695319
0.060131 2.319830 0.694778
0.078886 2.328022 0.698591
0.092946 2.322123 0.696014
0.105502 2.311932 0.691485
0.120294 2.308190 0.689867
0.136323 2.307817 0.689766
0.150706 2.302778 0.687542
0.165877 2.299828 0.686256
0.184027 2.304670 0.688490
0.200942 2.305959 0.689105
0.216185 2.302721 0.687659
0.230528 2.297102 0.685125
0.244787 2.291243 0.682473
0.256486 2.279058 0.676944
0.275411 2.284539 0.679410
0.293576 2.287846 0.680881
0.310551 2.288056 0.680939
0.326727 2.286201 0.680052
0.340187 2.277966 0.676265
0.355231 2.273331 0.674100
0.371793 2.272005 0.673424
0.387635 2.268925 0.671945
0.404028 2.266924 0.670946
0.420505 2.264953 0.669952
0.436099 2.260972 0.668040
0.453432 2.260530 0.667723
0.470827 2.260036 0.667375
0.487239 2.257371 0.666038
0.502931 2.253150 0.663991
0.516590 2.244833 0.660086
0.529805 2.235691 0.655804
0.546149 2.232673 0.654291
0.564638 2.233685 0.654600
0.582972 2.234248 0.654706
0.599859 2.231984 0.653533
0.618421 2.232756 0.653736
0.636449 2.232454 0.653457
0.656746 2.236170 0.655001
0.676138 2.238144 0.655765
0.692240 2.234264 0.653891
0.704998 2.224658 0.649441
0.718184 2.216021 0.645445
0.732791 2.210028 0.642660
0.755909 2.218529 0.646445
0.780120 2.228753 0.651029
0.796999 2.226826 0.650145
0.808810 2.216840 0.645645
0.823029 2.211104 0.643093
0.837600 2.206242 0.640965
0.875109 2.237880 0.655369
0.884923 2.225877 0.650080
0.906874 2.233150 0.653541
-2.783516 2.609717 0.711175
-2.761529 2.603016 0.708990
-2.753822 2.621003 0.717152
-2.731714 2.614813 0.715287
-2.700145 2.592304 0.706658
-2.688133 2.604149 0.712415
-2.676908 2.617932 0.719033
-2.664174 2.629544 0.724793
-2.641832 2.624116 0.723466
-2.621916 2.623231 0.724072
-2.602280 2.623009 0.724988
-2.582230 2.622129 0.725655
-2.557087 2.611607 0.722297
-2.537098 2.610857 0.723060
-2.516869 2.609659 0.723650
-2.493105 2.601448 0.721301
-2.470365 2.595070 0.719730
-2.445202 2.583578 0.716006
-2.436241 2.605020 0.726175
-2.415229 2.601851 0.725968
-2.398005 2.606483 0.729057
-2.378462 2.606163 0.730052
-2.356959 2.601455 0.729185
-2.336333 2.598394 0.729007
-2.308029 2.578025 0.721479
-2.286316 2.571771 0.719920
-2.272348 2.582843 0.725706
-2.256765 2.590292 0.729949
-2.240174 2.595382 0.733182
-2.220217 2.592400 0.732968
-2.197866 2.583340 0.730148
-2.176794 2.576933 0.728441
-2.160226 2.581314 0.731320
-2.149421 2.600129 0.740352
-2.130047 2.597360 0.740156
-2.099415 2.565048 0.727307
-2.080302 2.561899 0.726905
-2.060953 2.557800 0.726080
-2.040487 2.550318 0.723787
-2.029809 2.569399 0.732868
-2.011446 2.567319 0.732863
-1.991520 2.560501 0.730807
-1.971310 2.552428 0.728193
-1.954068 2.552605 0.729108
-1.935375 2.548245 0.728057
-1.915349 2.539479 0.725092
-1.896624 2.534233 0.723626
-1.880577 2.537034 0.725612
-1.863698 2.537071 0.726394
-1.849039 2.544152 0.730203
-1.830407 2.538121 0.728340
-1.812503 2.534142 0.727350
-1.793337 2.525494 0.724326
-1.776207 2.523473 0.724153
-1.759518 2.522778 0.724541
-1.742640 2.521195 0.724533
-1.725766 2.519398 0.724420
-1.709114 2.518207 0.724559
-1.692940 2.518654 0.725396
-1.676865 2.519351 0.726332
-1.659922 2.516430 0.725689
-1.643282 2.514481 0.725456
-1.627403 2.515501 0.726502
-1.611017 2.514246 0.726552
-1.593927 2.509693 0.725158
-1.575458 2.498585 0.720903
-1.559410 2.497976 0.721204
-1.544739 2.503714 0.724259
-1.529460 2.506675 0.726100
-1.512686 2.502238 0.724710
-1.495874 2.497255 0.723074
-1.479075 2.491959 0.721292
-1.460986 2.479314 0.716297
-1.445883 2.482370 0.718141
-1.431827 2.491472 0.722619
-1.417901 2.501784 0.727622
-1.401550 2.497962 0.726449
-1.385356 2.494777 0.725546
-1.369505 2.493507 0.725474
-1.353760 2.492768 0.725628
-1.337335 2.487189 0.723660
-1.321335 2.484169 0.722805
-1.305311 2.480658 0.721729
-1.289389 2.477585 0.720839
-1.273675 2.475855 0.720532
-1.258772 2.480724 0.723111
-1.243068 2.478934 0.722769
-1.227281 2.476156 0.721989
-1.211420 2.472320 0.720741
-1.196005 2.472559 0.721276
-1.180171 2.468281 0.719824
-1.164128 2.461115 0.717100
-1.148529 2.458345 0.716301
-1.133543 2.462990 0.718755
-1.118329 2.465128 0.720106
-1.102737 2.462021 0.719149
-1.086933 2.454995 0.716465
-1.071327 2.450138 0.714730
-1.056152 2.452476 0.716157
-1.040787 2.451318 0.716044
-1.025281 2.446574 0.714348
-1.009977 2.445918 0.714450
-0.994811 2.449314 0.716333
-0.979323 2.442255 0.713609
-0.963979 2.438504 0.712338
-0.948721 2.437584 0.712312
-0.933314 2.423814 0.706617
-0.918175 2.428198 0.708925
-0.902978 2.427448 0.708967
-0.887784 2.427248 0.709248
-0.872559 2.430791 0.711181
-0.857254 2.437469 0.714497
-0.841997 2.437570 0.714907
-0.826898 2.430772 0.712266
-0.811821 2.425441 0.710271
-0.796748 2.421517 0.708894
-0.781608 2.420220 0.708676
-0.766369 2.421403 0.709552
-0.751224 2.420291 0.709412
-0.735566 2.428781 0.713519
-0.720530 2.425203 0.712283
-0.706250 2.410327 0.706042
-0.691823 2.399667 0.701662
-0.677109 2.394234 0.699594
-0.660689 2.410858 0.707297
-0.645674 2.408787 0.706714
-0.630345 2.410373 0.707751
-0.615526 2.406332 0.706289
-0.601543 2.394260 0.701262
-0.586243 2.395796 0.702267
-0.571390 2.393064 0.701377
-0.557407 2.382947 0.697204
-0.542080 2.384758 0.698323
-0.527032 2.384116 0.698350
-0.510298 2.396318 0.704081
-0.495573 2.392746 0.702801
-0.481283 2.386263 0.700224
-0.466864 2.381032 0.698199
-0.451519 2.382180 0.699006
-0.436822 2.379028 0.697897
-0.421315 2.380996 0.699062
-0.405915 2.382102 0.699840
-0.389934 2.386424 0.702046
-0.374392 2.387920 0.702991
-0.359751 2.384303 0.701655
-0.347084 2.370279 0.695680
-0.329451 2.382636 0.701449
-0.315228 2.377039 0.699217
-0.300557 2.373833 0.698044
-0.284577 2.376950 0.699685
-0.269655 2.374861 0.699001
-0.255530 2.369129 0.696686
-0.242387 2.359171 0.692482
-0.227855 2.355608 0.691122
-0.213776 2.350161 0.688916
-0.199554 2.345431 0.687024
-0.182599 2.351915 0.690129
-0.167647 2.350015 0.689487
-0.153839 2.343603 0.686825
-0.137441 2.347230 0.688638
-0.121055 2.350540 0.690303
-0.107031 2.344903 0.687966
-0.092427 2.341439 0.686592
-0.079705 2.331317 0.682237
-0.063982 2.331843 0.682630
-0.048204 2.332393 0.683027
-0.030702 2.338539 0.685917
-0.016035 2.335009 0.684476
-0.000848 2.333127 0.683763
0.014055 2.330254 0.682599
0.029152 2.327925 0.681669
0.043487 2.323181 0.679651
0.057642 2.317888 0.677379
0.075542 2.323697 0.680061
0.091668 2.323977 0.680263
0.105690 2.318040 0.677675
0.121144 2.316159 0.676892
0.136700 2.314441 0.676172
0.148922 2.303474 0.671305
0.168785 2.313241 0.675703
0.184371 2.311180 0.674800
0.199226 2.307081 0.672976
0.214284 2.303434 0.671343
0.229872 2.301044 0.670263
0.242161 2.290281 0.665427
0.253820 2.278075 0.659937
0.272255 2.282478 0.661864
0.291553 2.288625 0.664560
0.308913 2.289822 0.665033
0.325585 2.289181 0.664673
0.341420 2.286431 0.663361
0.356443 2.281712 0.661158
0.371662 2.277355 0.659107
0.386683 2.272478 0.656814
0.401054 2.266114 0.653848
0.417069 2.263248 0.652437
0.434616 2.263508 0.652415
0.451700 2.262601 0.651863
0.467969 2.259848 0.650479
0.484664 2.257850 0.649426
0.500535 2.254068 0.647570
0.513445 2.244329 0.643049
0.528478 2.238839 0.640422
0.545637 2.237453 0.639626
0.563808 2.237897 0.639645
0.580833 2.236038 0.638635
0.597199 2.232879 0.637046
0.614837 2.232044 0.636498
0.636081 2.237721 0.638860
0.656526 2.241762 0.640498
0.674282 2.240876 0.639945
0.690407 2.237113 0.638121
0.704093 2.229188 0.634454
0.716832 2.219833 0.630165
0.731031 2.213216 0.627114
0.749323 2.213703 0.627252
0.768403 2.215588 0.628035
0.790347 2.222271 0.630982
0.803770 2.215070 0.627767
0.817012 2.207901 0.624595
0.834004 2.207059 0.624276
0.859506 2.219914 0.630098
0.879986 2.224897 0.632446
0.892128 2.217119 0.629142
-2.765015 2.587500 0.683398
-2.760692 2.610430 0.693416
-2.748590 2.620837 0.698353
-2.726720 2.614878 0.696618
-2.702224 2.604531 0.693127
-2.684638 2.606511 0.694758
-2.675659 2.624213 0.702916
-2.658687 2.628101 0.705431
-2.637444 2.624494 0.704895
-2.617220 2.622885 0.705219
-2.595437 2.618490 0.704425
-2.571470 2.609995 0.701960
-2.550712 2.607547 0.702019
-2.530486 2.606144 0.702531
-2.512943 2.610009 0.705245
-2.493202 2.609626 0.706214
-2.468016 2.598286 0.702642
-2.448562 2.598288 0.703787
-2.428315 2.596596 0.704233
-2.414921 2.609077 0.710583
-2.394354 2.606628 0.710719
-2.372816 2.601918 0.709909
-2.337447 2.566950 0.696457
-2.328238 2.588398 0.706552
-2.303775 2.576289 0.702619
-2.286137 2.579084 0.704909
-2.270272 2.585835 0.708848
-2.252789 2.588829 0.711205
-2.236253 2.593935 0.714440
-2.215248 2.588316 0.713159
-2.192503 2.578116 0.709936
-2.172099 2.573155 0.708896
-2.159704 2.587783 0.716086
-2.144181 2.594713 0.720028
-2.118995 2.576847 0.713502
-2.094512 2.560054 0.707402
-2.078631 2.565260 0.710567
-2.066684 2.580958 0.718154
-2.045179 2.570884 0.714835
-2.023663 2.560241 0.711253
-2.008799 2.567741 0.715335
-1.986824 2.554958 0.710808
-1.972046 2.562433 0.714851
-1.955639 2.565135 0.716857
-1.935541 2.556651 0.714100
-1.914037 2.543390 0.709294
-1.894632 2.535980 0.706955
-1.876518 2.532190 0.706137
-1.861893 2.539265 0.709929
-1.846160 2.542781 0.712195
-1.828695 2.540475 0.711967
-1.808207 2.527664 0.707247
-1.790156 2.522603 0.705814
-1.773151 2.520844 0.705776
-1.758052 2.525666 0.708536
-1.741102 2.523749 0.708406
-1.724075 2.521302 0.708038
-1.706225 2.515467 0.706208
-1.689223 2.512520 0.705600
-1.673314 2.513615 0.706711
-1.657597 2.515382 0.708100
-1.641876 2.517058 0.709441
-1.625992 2.517970 0.710445
-1.607585 2.507907 0.706731
-1.589502 2.498665 0.703357
-1.573441 2.497987 0.703648
-1.558849 2.503940 0.706778
-1.543881 2.508276 0.709207
-1.527452 2.505609 0.708618
-1.510515 2.500151 0.706820
-1.494202 2.497474 0.706209
-1.477077 2.490278 0.703644
-1.459934 2.482470 0.700806
-1.444806 2.485298 0.702541
-1.431071 2.496154 0.707729
-1.416140 2.500520 0.710117
-1.400478 2.500621 0.710660
-1.384429 2.498205 0.710110
-1.369131 2.500399 0.711544
-1.352343 2.492679 0.708693
-1.335929 2.486918 0.706680
-1.320534 2.487971 0.707604
-1.304813 2.486600 0.707475
-1.288855 2.483202 0.706465
-1.272876 2.479279 0.705221
-1.257620 2.481041 0.706432
-1.242155 2.481060 0.706884
-1.226663 2.480756 0.707192
-1.210823 2.477006 0.706004
-1.195314 2.476171 0.706073
-1.179511 2.472031 0.704706
-1.163607 2.466227 0.702613
-1.147756 2.460301 0.700461
-1.132452 2.460577 0.700995
-1.117339 2.463449 0.702653
-1.102247 2.467045 0.704622
-1.086654 2.463192 0.703354
-1.071068 2.458769 0.701836
-1.055896 2.461327 0.703345
-1.040631 2.462462 0.704235
-1.024781 2.450102 0.699255
-1.009327 2.444943 0.697401
-0.993988 2.441775 0.696409
-0.978733 2.440491 0.696234
-0.963531 2.441055 0.696860
-0.948260 2.438057 0.695933
-0.933072 2.439517 0.696945
-0.917811 2.432880 0.694427
-0.902616 2.426562 0.692045
-0.887464 2.425957 0.692149
-0.872299 2.427238 0.693073
-0.856975 2.439359 0.698722
-0.841734 2.440057 0.699390
-0.826623 2.434714 0.697419
-0.811647 2.426451 0.694171
-0.796585 2.423113 0.693068
-0.781490 2.421383 0.692665
-0.766180 2.424847 0.694528
-0.750997 2.424886 0.694894
-0.736076 2.419962 0.693088
-0.720911 2.419935 0.693420
-0.705681 2.420818 0.694147
-0.690933 2.414522 0.691732
-0.676565 2.403907 0.687424
-0.661130 2.407980 0.689539
-0.645617 2.412397 0.691803
-0.630071 2.416585 0.693966
-0.614965 2.415599 0.693860
-0.600053 2.412693 0.692911
-0.585695 2.404711 0.689735
-0.571424 2.396594 0.686494
-0.557279 2.388022 0.683050
-0.542990 2.381285 0.680406
-0.527084 2.387894 0.683611
-0.510819 2.396650 0.687756
-0.496061 2.393561 0.686702
-0.481480 2.389350 0.685152
-0.466344 2.389147 0.685357
-0.451181 2.389047 0.685603
-0.436446 2.386127 0.684608
-0.421619 2.383875 0.683901
-0.406929 2.380844 0.682848
-0.392185 2.378221 0.681970
-0.377789 2.373684 0.680246
-0.362159 2.376083 0.681566
-0.346124 2.380407 0.683729
-0.331524 2.376948 0.682465
-0.316553 2.375446 0.682056
-0.300666 2.378431 0.683617
-0.284985 2.380164 0.684622
-0.269717 2.379777 0.684689
-0.255675 2.373692 0.682242
-0.243280 2.360425 0.676625
-0.230094 2.351099 0.672738
-0.215177 2.349459 0.672228
-0.198181 2.356444 0.675513
-0.181886 2.360146 0.677345
-0.166186 2.361193 0.678002
-0.153382 2.350742 0.673584
-0.138615 2.348108 0.672605
-0.122669 2.349880 0.673560
-0.108834 2.343673 0.670990
-0.095672 2.335140 0.667388
-0.079341 2.338020 0.668810
-0.064920 2.334011 0.667186
-0.050112 2.331328 0.666139
-0.034231 2.332187 0.666646
-0.018311 2.332993 0.667122
-0.002772 2.332390 0.666968
0.010369 2.324035 0.663385
0.026245 2.324344 0.663616
0.043982 2.330194 0.666284
0.057693 2.323534 0.663421
0.073330 2.322644 0.663095
0.088996 2.321695 0.662734
0.104462 2.320031 0.662047
0.117979 2.312733 0.658864
0.131487 2.305458 0.655680
0.153687 2.322049 0.663023
0.168972 2.319289 0.661812
0.182626 2.312088 0.658631
0.194578 2.300457 0.653482
0.205517 2.286365 0.647238
0.224958 2.294104 0.650620
0.239622 2.289457 0.648523
0.252730 2.280907 0.644693
0.271142 2.285309 0.646570
0.289104 2.288308 0.647816
0.305946 2.288374 0.647757
0.323271 2.289361 0.648093
0.340308 2.289455 0.648025
0.354839 2.283656 0.645346
0.369793 2.278759 0.643054
0.383585 2.271225 0.639590
0.398216 2.265520 0.636924
0.413482 2.261133 0.634831
0.431976 2.263521 0.635716
0.449255 2.263111 0.635359
0.464330 2.257966 0.632908
0.480341 2.254682 0.631270
0.497185 2.252988 0.630327
0.512764 2.248652 0.628215
0.528043 2.243675 0.625817
0.544684 2.241319 0.624572
0.560565 2.237426 0.622648
0.574423 2.229670 0.619023
0.632699 2.237435 0.621829
0.656040 2.246830 0.625771
0.671789 2.242414 0.623644
0.683551 2.231047 0.618470
0.698266 2.225089 0.615692
0.714493 2.221899 0.614147
0.729711 2.217109 0.611918
0.745835 2.214024 0.610461
0.766079 2.217983 0.612124
0.783216 2.216851 0.611576
0.797267 2.210853 0.608917
0.813590 2.208826 0.608036
0.831291 2.209247 0.608264
0.851992 2.214639 0.610715
0.865314 2.208588 0.608171
0.863474 2.179350 0.595468
-2.770983 2.606426 0.672634
-2.764840 2.626338 0.681291
-2.745533 2.624364 0.681148
-2.726801 2.623712 0.681598
-2.703680 2.615678 0.679107
-2.685315 2.616235 0.680153
-2.671412 2.625091 0.684619
-2.654066 2.628158 0.686783
-2.632609 2.623987 0.686047
-2.612581 2.622573 0.686470
-2.590961 2.618313 0.685767
-2.567529 2.610656 0.683707
-2.544596 2.603888 0.682032
-2.525003 2.603519 0.682990
-2.507938 2.608160 0.686015
-2.490266 2.611729 0.688622
-2.467070 2.604259 0.686723
-2.448225 2.605442 0.688375
-2.433323 2.614745 0.693366
-2.411497 2.609732 0.692490
-2.386070 2.596867 0.688382
-2.356013 2.573617 0.679992
-2.335888 2.571217 0.680167
-2.319153 2.576080 0.683328
-2.307647 2.592594 0.691293
-2.287520 2.589875 0.691320
-2.269132 2.590894 0.692880
-2.251472 2.593445 0.695064
-2.225318 2.575835 0.688891
-2.206235 2.574442 0.689412
-2.186561 2.571365 0.689220
-2.171147 2.578473 0.693238
-2.152398 2.577248 0.693786
-2.132217 2.572140 0.692703
-2.110757 2.563372 0.690079
-2.090901 2.558308 0.688975
-2.075652 2.565075 0.692782
-2.059975 2.570679 0.696092
-2.040937 2.567056 0.695540
-2.024369 2.569950 0.697690
-2.002074 2.556581 0.693031
-1.986203 2.560961 0.695770
-1.969928 2.564093 0.697973
-1.955641 2.572994 0.702579
-1.933959 2.559754 0.697896
-1.913733 2.550309 0.694782
-1.894033 2.541975 0.692115
-1.876610 2.540354 0.692247
-1.859146 2.538350 0.692202
-1.842214 2.537822 0.692763
-1.824510 2.534510 0.692139
-1.805269 2.525677 0.689177
-1.786513 2.518008 0.686687
-1.771101 2.521651 0.688946
-1.756138 2.526871 0.691859
-1.741549 2.533491 0.695353
-1.723039 2.525575 0.692704
-1.702858 2.510806 0.687146
-1.686850 2.511488 0.688098
-1.670922 2.512360 0.689118
-1.654913 2.512788 0.689940
-1.639162 2.514148 0.691147
-1.622878 2.513169 0.691354
-1.604880 2.504590 0.688332
-1.587495 2.498190 0.686221
-1.572190 2.500773 0.687905
-1.557370 2.505599 0.690532
-1.541688 2.506436 0.691459
-1.524571 2.500200 0.689377
-1.508856 2.500523 0.690068
-1.492638 2.498167 0.689615
-1.475986 2.493282 0.688078
-1.459066 2.486558 0.685749
-1.444719 2.493679 0.689299
-1.428822 2.492220 0.689195
-1.413574 2.494412 0.690636
-1.398071 2.495082 0.691424
-1.382978 2.498277 0.693281
-1.366402 2.491955 0.691078
-1.350582 2.490197 0.690812
-1.335041 2.490163 0.691275
-1.319657 2.491177 0.692180
-1.303903 2.489416 0.691895
-1.288155 2.487486 0.691532
-1.272109 2.482903 0.690031
-1.256806 2.484139 0.691010
-1.240996 2.480936 0.690087
-1.225490 2.480184 0.690207
-1.209882 2.478296 0.689836
-1.194420 2.477651 0.689993
-1.178817 2.475361 0.689441
-1.162714 2.467066 0.686315
-1.146817 2.460192 0.683790
-1.131421 2.458820 0.683617
-1.116423 2.462689 0.685685
-1.101665 2.470649 0.689504
-1.086419 2.472054 0.690513
-1.070694 2.465361 0.688045
-1.055615 2.469681 0.690297
-1.040401 2.472026 0.691700
-1.024449 2.457491 0.685855
-1.008696 2.444354 0.680604
-0.993441 2.442556 0.680216
-0.978260 2.442864 0.680730
-0.963177 2.447801 0.683231
-0.947990 2.449568 0.684368
-0.932679 2.442647 0.681767
-0.917393 2.429439 0.676458
-0.902256 2.425765 0.675246
-0.887157 2.421145 0.673623
-0.871994 2.429408 0.677542
-0.856799 2.433588 0.679703
-0.841519 2.439931 0.682795
-0.826425 2.435444 0.681219
-0.811421 2.429297 0.678925
-0.796369 2.426292 0.677982
-0.781173 2.427645 0.678915
-0.766260 2.422156 0.676895
-0.751260 2.419464 0.676077
-0.736168 2.418873 0.676165
-0.720775 2.423394 0.678456
-0.705361 2.427423 0.680533
-0.690412 2.424053 0.679413
-0.675456 2.421165 0.678498
-0.660512 2.418395 0.677631
-0.645496 2.416720 0.677235
-0.630413 2.415899 0.677204
-0.615096 2.417551 0.678240
-0.600020 2.416534 0.678119
-0.585738 2.407963 0.674727
-0.571365 2.400938 0.671999
-0.556471 2.398961 0.671452
-0.541220 2.400040 0.672225
-0.526097 2.399929 0.672478
-0.511829 2.393186 0.669857
-0.496541 2.394384 0.670671
-0.482877 2.383875 0.666408
-0.467103 2.388472 0.668687
-0.450722 2.396693 0.672535
-0.435801 2.394924 0.672049
-0.422198 2.385014 0.668027
-0.408380 2.376913 0.664783
-0.393158 2.377383 0.665254
-0.378910 2.372221 0.663276
-0.363041 2.376166 0.665245
-0.345849 2.386859 0.670141
-0.331346 2.382893 0.668668
-0.322136 2.352240 0.655597
-0.307607 2.349288 0.654551
-0.285641 2.382148 0.669060
-0.270934 2.379235 0.668022
-0.256927 2.373145 0.665596
-0.244577 2.359815 0.660017
-0.230190 2.355885 0.658517
-0.214699 2.356727 0.659086
-0.197944 2.362697 0.661878
-0.180282 2.371993 0.666112
-0.165255 2.370234 0.665531
-0.153266 2.356511 0.659737
-0.141062 2.344044 0.654481
-0.125448 2.344774 0.654960
-0.110577 2.342600 0.654167
-0.097953 2.332244 0.649805
-0.081953 2.334126 0.650762
-0.067520 2.330338 0.649243
-0.050599 2.335049 0.651416
-0.035231 2.334230 0.651173
-0.018824 2.336716 0.652361
-0.004984 2.330652 0.649816
0.008253 2.322719 0.646447
0.021991 2.316468 0.643801
0.041052 2.326635 0.648299
0.058638 2.331837 0.650625
0.071199 2.321758 0.646282
0.086775 2.320657 0.645841
0.100895 2.315227 0.643504
0.116470 2.313916 0.642952
0.127751 2.300489 0.637109
0.148249 2.312606 0.642387
0.166118 2.317065 0.644316
0.178662 2.307017 0.639913
0.189589 2.292840 0.633701
0.203582 2.286814 0.631029
0.221395 2.290503 0.632579
0.238870 2.293041 0.633616
0.256206 2.294967 0.634375
0.271258 2.291070 0.632586
0.286553 2.287668 0.631001
0.303082 2.287086 0.630634
0.320729 2.288932 0.631313
0.337010 2.287374 0.630498
0.350939 2.280310 0.627275
0.363408 2.269959 0.622611
0.380203 2.269260 0.622139
0.395131 2.264307 0.619805
0.411987 2.263441 0.619241
0.429071 2.262892 0.618806
0.446713 2.263340 0.618796
0.461342 2.257346 0.615976
0.478037 2.255556 0.614978
0.495434 2.255057 0.614535
0.512186 2.253121 0.613462
0.527903 2.249037 0.611452
0.542989 2.243681 0.608887
0.557504 2.237228 0.605845
0.573707 2.234013 0.604210
0.587471 2.226195 0.600579
0.631497 2.241066 0.606576
0.651095 2.243778 0.607532
0.666604 2.239077 0.605282
0.677754 2.226761 0.599741
0.694119 2.223845 0.598295
0.712577 2.224643 0.598477
0.730556 2.224658 0.598339
0.747765 2.223451 0.597694
0.761422 2.216430 0.594554
0.781644 2.220554 0.596274
0.792488 2.209388 0.591396
0.812035 2.212736 0.592844
0.828723 2.211632 0.592398
0.847262 2.213719 0.593372
0.855046 2.199090 0.587138
0.860739 2.181751 0.579769
-2.781074 2.632398 0.664557
-2.759289 2.625711 0.662476
-2.745786 2.633576 0.666267
-2.720292 2.621058 0.661976
-2.693971 2.607172 0.657189
-2.681116 2.617277 0.662049
-2.668465 2.628253 0.667315
-2.649433 2.628131 0.668188
-2.623662 2.615856 0.664233
-2.600716 2.608764 0.662391
-2.584508 2.614348 0.665672
-2.565518 2.614918 0.666975
-2.541991 2.606885 0.664846
-2.521889 2.605415 0.665378
-2.502823 2.606004 0.666761
-2.484946 2.609006 0.669136
-2.466436 2.610806 0.671041
-2.444052 2.604708 0.669767
-2.430068 2.615794 0.675447
-2.409265 2.612801 0.675439
-2.372326 2.575376 0.661476
-2.355220 2.579527 0.664350
-2.337757 2.582885 0.666903
-2.321598 2.589072 0.670603
-2.305495 2.595400 0.674358
-2.288911 2.600642 0.677668
-2.269832 2.600111 0.678619
-2.247477 2.591742 0.676361
-2.228006 2.589764 0.676695
-2.202321 2.572630 0.670820
-2.185532 2.576436 0.673484
-2.167156 2.576225 0.674491
-2.146560 2.570240 0.673118
-2.127089 2.566720 0.672736
-2.112196 2.574677 0.677045
-2.090705 2.565393 0.674263
-2.072217 2.563585 0.674531
-2.056279 2.568373 0.677495
-2.039256 2.570125 0.679195
-2.017095 2.557423 0.674926
-1.999749 2.557703 0.675984
-1.984190 2.562905 0.679057
-1.968567 2.567877 0.682022
-1.947910 2.557877 0.678788
-1.928340 2.550613 0.676664
-1.910780 2.549056 0.676880
-1.892066 2.543647 0.675487
-1.875543 2.544798 0.676792
-1.858046 2.542650 0.676716
-1.839880 2.538036 0.675601
-1.820833 2.530122 0.673100
-1.803177 2.526466 0.672350
-1.785715 2.523165 0.671731
-1.769467 2.523848 0.672753
-1.755408 2.532259 0.676978
-1.738573 2.530641 0.677020
-1.720102 2.522665 0.674401
-1.701454 2.513529 0.671282
-1.684974 2.512303 0.671446
-1.669554 2.515084 0.673268
-1.653275 2.514338 0.673608
-1.637370 2.514967 0.674512
-1.620624 2.511905 0.673863
-1.603034 2.504900 0.671555
-1.586721 2.503099 0.671410
-1.571281 2.505043 0.672821
-1.556276 2.508971 0.675054
-1.539696 2.505460 0.674164
-1.523416 2.503109 0.673750
-1.508079 2.505239 0.675204
-1.492601 2.506637 0.676344
-1.475098 2.497292 0.672971
-1.458520 2.492345 0.671431
-1.442645 2.490927 0.671363
-1.427332 2.492552 0.672566
-1.411097 2.488708 0.671464
-1.395031 2.485562 0.670648
-1.379249 2.483903 0.670449
-1.364717 2.490184 0.673583
-1.349302 2.490856 0.674352
-1.333491 2.488728 0.673937
-1.318056 2.489076 0.674559
-1.302786 2.490607 0.675672
-1.287338 2.490793 0.676215
-1.271922 2.491182 0.676838
-1.256468 2.491203 0.677300
-1.240388 2.485612 0.675390
-1.223234 2.469470 0.669022
-1.208660 2.476783 0.672545
-1.193522 2.479024 0.673924
-1.177754 2.474636 0.672500
-1.161746 2.466963 0.669682
-1.146080 2.462440 0.668190
-1.130687 2.460797 0.667910
-1.115670 2.464078 0.669709
-1.100589 2.466861 0.671294
-1.085389 2.468143 0.672242
-1.070172 2.469330 0.673146
-1.054938 2.470409 0.674002
-1.039786 2.473418 0.675672
-1.023684 2.454593 0.668088
-1.008050 2.443231 0.663659
-0.992876 2.442693 0.663814
-0.977773 2.444603 0.665005
-0.962778 2.452367 0.668677
-0.947733 2.461890 0.673095
-0.932247 2.442304 0.665155
-0.917005 2.429964 0.660285
-0.901907 2.429585 0.660490
-0.886803 2.431076 0.661487
-0.871689 2.431755 0.662137
-0.856445 2.441271 0.666541
-0.841367 2.436468 0.664856
-0.826295 2.433327 0.663874
-0.811296 2.428586 0.662209
-0.796338 2.423957 0.660588
-0.780890 2.433039 0.664800
-0.766283 2.420749 0.659911
-0.751226 2.420082 0.659968
-0.735892 2.424576 0.662220
-0.720805 2.424020 0.662320
-0.705388 2.428602 0.664606
-0.690389 2.426384 0.663993
-0.675519 2.422634 0.662722
-0.660524 2.420850 0.662287
-0.645693 2.417257 0.661076
-0.631140 2.410874 0.658671
-0.615636 2.415152 0.660814
-0.601472 2.405462 0.656989
-0.586862 2.400879 0.655342
-0.571649 2.402124 0.656180
-0.556135 2.405790 0.658049
-0.540876 2.406938 0.658840
-0.526706 2.399211 0.655833
-0.512195 2.394613 0.654160
-0.497456 2.391961 0.653314
-0.482608 2.390190 0.652841
-0.468267 2.384972 0.650889
-0.450199 2.404731 0.659622
-0.437253 2.390259 0.653701
-0.423472 2.381795 0.650345
-0.408316 2.382034 0.650711
-0.393236 2.381717 0.650835
-0.378738 2.378025 0.649507
-0.363896 2.376346 0.649037
-0.345911 2.391473 0.655765
-0.330639 2.391558 0.656042
-0.320569 2.365155 0.644956
-0.305372 2.365335 0.645261
-0.289771 2.367345 0.646346
-0.272303 2.377922 0.651100
-0.259741 2.365376 0.645928
-0.244803 2.363945 0.645519
-0.229481 2.364149 0.645805
-0.215011 2.360583 0.644466
-0.202949 2.346971 0.638807
-0.181866 2.370768 0.649204
-0.167107 2.368086 0.648223
-0.156385 2.349538 0.640421
-0.143069 2.341594 0.637165
-0.128536 2.338422 0.635950
-0.113360 2.337615 0.635744
-0.097411 2.339507 0.636689
-0.082744 2.336626 0.635575
-0.069130 2.330043 0.632861
-0.052979 2.332239 0.633912
-0.036173 2.336417 0.635807
-0.020473 2.336639 0.635992
-0.004801 2.336609 0.636059
0.007980 2.327209 0.632088
0.022298 2.322788 0.630248
0.039048 2.325847 0.631614
0.055257 2.327001 0.632151
0.070075 2.323803 0.630807
0.082191 2.312619 0.626018
0.097554 2.310986 0.625325
0.109799 2.300378 0.620762
0.129919 2.311928 0.625717
0.146055 2.311982 0.625717
0.161821 2.310848 0.625195
0.177346 2.308919 0.624319
0.189937 2.299147 0.620060
0.204132 2.293628 0.617618
0.220568 2.293795 0.617609
0.238823 2.298339 0.619471
0.256144 2.300240 0.620183
0.269990 2.293398 0.617126
0.284411 2.287936 0.614651
0.300003 2.285206 0.613338
0.317958 2.287888 0.614339
0.334198 2.286332 0.613508
0.347315 2.277502 0.609541
0.361307 2.270676 0.606424
0.379486 2.273122 0.607278
0.395777 2.271174 0.606236
0.411620 2.268116 0.604707
0.429933 2.270210 0.605381
0.445873 2.267073 0.603800
0.459830 2.259715 0.600401
0.475883 2.256664 0.598843
0.493606 2.256903 0.598690
0.510277 2.254871 0.597558
0.524669 2.248240 0.594451
0.540908 2.245229 0.592894
0.557973 2.243752 0.591994
0.576473 2.244923 0.592228
0.591073 2.238634 0.589269
0.603892 2.229100 0.584926
0.619059 2.224030 0.582502
0.643855 2.236485 0.587589
0.660036 2.233180 0.585940
0.674184 2.226339 0.582791
0.689997 2.222577 0.580978
0.706726 2.220524 0.579913
0.724980 2.221185 0.580032
0.740335 2.217002 0.578103
0.756081 2.213672 0.576566
0.773428 2.213202 0.576282
0.788533 2.209220 0.574529
0.804388 2.206720 0.573445
0.825372 2.212727 0.576034
0.844072 2.215207 0.577156
0.855217 2.205975 0.573313
0.861083 2.188941 0.566175
-2.778938 2.637720 0.648157
-2.765167 2.644630 0.651454
-2.746215 2.643099 0.651495
-2.703617 2.600574 0.635455
-2.682673 2.595763 0.634316
-2.670917 2.607565 0.639782
-2.667127 2.634274 0.651190
-2.641792 2.622562 0.647492
-2.610320 2.599524 0.639358
-2.593266 2.603046 0.641756
-2.575473 2.605432 0.643746
-2.561402 2.615118 0.648664
-2.544491 2.619672 0.651585
-2.523272 2.616020 0.651280
-2.500291 2.608862 0.649601
-2.481750 2.610437 0.651408
-2.459455 2.604459 0.650227
-2.439989 2.604113 0.651296
-2.430202 2.623794 0.660360
-2.394576 2.589620 0.647947
-2.374499 2.587570 0.648347
-2.355078 2.586781 0.649249
-2.339226 2.593645 0.653211
-2.319309 2.591558 0.653588
-2.300062 2.590767 0.654477
-2.286482 2.602679 0.660456
-2.266240 2.599386 0.660325
-2.244554 2.592445 0.658714
-2.221625 2.582170 0.655742
-2.204197 2.584631 0.657882
-2.184134 2.580534 0.657364
-2.163223 2.574013 0.655850
-2.142523 2.567621 0.654369
-2.124139 2.566723 0.655089
-2.105592 2.565161 0.655523
-2.087616 2.564831 0.656439
-2.070113 2.565532 0.657756
-2.053171 2.567555 0.659592
-2.034686 2.565185 0.659630
-2.013713 2.555588 0.656712
-1.995894 2.554402 0.657192
-1.979788 2.557891 0.659557
-1.962381 2.557478 0.660319
-1.941981 2.547946 0.657346
-1.924783 2.547563 0.658084
-1.907203 2.545787 0.658236
-1.889613 2.543715 0.658251
-1.871842 2.540800 0.657905
-1.855098 2.540908 0.658778
-1.837493 2.537989 0.658397
-1.819838 2.534609 0.657811
-1.804236 2.537923 0.659952
-1.787552 2.537417 0.660514
-1.770082 2.533930 0.659839
-1.751389 2.525717 0.657208
-1.733176 2.518779 0.655085
-1.716503 2.517175 0.655137
-1.700190 2.516716 0.655647
-1.684072 2.516840 0.656384
-1.667935 2.516735 0.657014
-1.652080 2.517623 0.658042
-1.635704 2.516226 0.658118
-1.619026 2.513338 0.657567
-1.601459 2.506308 0.655296
-1.585951 2.507970 0.656599
-1.571261 2.513304 0.659407
-1.555629 2.514368 0.660445
-1.538500 2.508199 0.658485
-1.521788 2.503631 0.657174
-1.506768 2.507210 0.659223
-1.491693 2.510574 0.661175
-1.474227 2.501340 0.657905
-1.457467 2.495315 0.655953
-1.441032 2.490662 0.654558
-1.425279 2.489554 0.654624
-1.409682 2.489206 0.654997
-1.393877 2.487460 0.654783
-1.377729 2.483336 0.653575
-1.363958 2.494373 0.658652
-1.348886 2.497280 0.660350
-1.332161 2.488746 0.657290
-1.316700 2.488663 0.657733
-1.301608 2.491269 0.659288
-1.286076 2.490561 0.659460
-1.270649 2.490572 0.659926
-1.255483 2.492729 0.661279
-1.239373 2.486621 0.659187
-1.223110 2.478451 0.656228
-1.207591 2.476664 0.655923
-1.192158 2.475518 0.655879
-1.176552 2.472323 0.654977
-1.160801 2.467028 0.653193
-1.145200 2.462869 0.651878
-1.130566 2.470642 0.655537
-1.114680 2.462089 0.652379
-1.099412 2.461443 0.652517
-1.084485 2.466143 0.654884
-1.069355 2.468077 0.656094
-1.054345 2.472656 0.658406
-1.038849 2.467855 0.656793
-1.022880 2.450599 0.649967
-1.007441 2.442992 0.647170
-0.992327 2.443198 0.647638
-0.977203 2.443138 0.647992
-0.961992 2.439095 0.646676
-0.947285 2.462837 0.656994
-0.931908 2.449792 0.651901
-0.916670 2.438071 0.647357
-0.901560 2.434006 0.646017
-0.886452 2.440147 0.648955
-0.871318 2.441882 0.650042
-0.856279 2.435028 0.647523
-0.841232 2.432204 0.646692
-0.826075 2.435030 0.648229
-0.811385 2.420467 0.642462
-0.796155 2.426147 0.645193
-0.781057 2.426825 0.645820
-0.765912 2.428301 0.646781
-0.750926 2.426135 0.646209
-0.735858 2.425779 0.646394
-0.720766 2.425787 0.646730
-0.705834 2.423216 0.645978
-0.690539 2.426167 0.647546
-0.675731 2.422077 0.646149
-0.660638 2.421998 0.646437
-0.645800 2.418833 0.645422
-0.631153 2.413790 0.643612
-0.616943 2.404588 0.640045
-0.602132 2.402271 0.639376
-0.587613 2.397301 0.637584
-0.571915 2.403445 0.640476
-0.556781 2.404048 0.641027
-0.541975 2.401777 0.640363
-0.527301 2.398554 0.639294
-0.512645 2.395354 0.638229
-0.497245 2.397809 0.639548
-0.481339 2.403599 0.642271
-0.467674 2.393492 0.638277
-0.452828 2.391821 0.637841
-0.438482 2.386953 0.636050
-0.423076 2.388898 0.637133
-0.407798 2.389851 0.637792
-0.392152 2.392810 0.639295
-0.378311 2.385249 0.636345
-0.364626 2.377164 0.633167
-0.350950 2.369375 0.630107
-0.338609 2.354936 0.624226
-0.323047 2.357515 0.625541
-0.305417 2.370093 0.631084
-0.290700 2.367883 0.630362
-0.277375 2.359112 0.626854
-0.260869 2.365270 0.629662
-0.245972 2.363804 0.629236
-0.230225 2.366020 0.630362
-0.216736 2.358337 0.627287
-0.202864 2.352476 0.624977
-0.191102 2.338088 0.619045
-0.169303 2.364493 0.630396
-0.158277 2.347310 0.623263
-0.143774 2.344093 0.622042
-0.127862 2.346191 0.623067
-0.115904 2.333438 0.617787
-0.098665 2.340211 0.620777
-0.085647 2.331553 0.617215
-0.071152 2.328242 0.615912
-0.054830 2.331170 0.617246
-0.038302 2.334543 0.618759
-0.023379 2.332336 0.617897
-0.007192 2.334161 0.618735
0.010016 2.339025 0.620853
0.024259 2.334257 0.618874
0.038812 2.330445 0.617290
0.054369 2.329642 0.616972
0.067701 2.322056 0.613765
0.081142 2.314862 0.610713
0.094731 2.308155 0.607858
0.111029 2.309190 0.608276
0.128594 2.313563 0.610099
0.146953 2.319808 0.612705
0.157001 2.303118 0.605568
0.171805 2.299462 0.603949
0.190464 2.305877 0.606591
0.204498 2.299917 0.603971
0.218828 2.294693 0.601651
0.234637 2.293151 0.600881
0.252382 2.296268 0.602074
0.267865 2.293561 0.600785
0.283929 2.292133 0.600027
0.298746 2.287580 0.597931
0.314669 2.285547 0.596892
0.328848 2.279333 0.594069
0.343422 2.273993 0.591606
0.359610 2.272231 0.590647
0.378829 2.277055 0.592468
0.396479 2.278116 0.592683
0.412413 2.275241 0.591221
0.427895 2.271288 0.589293
0.445820 2.272402 0.589501
0.460235 2.266003 0.586522
0.475011 2.260335 0.583845
0.491252 2.257612 0.582409
0.507095 2.254004 0.580594
0.521495 2.247482 0.577543
0.536739 2.242629 0.575197
0.557611 2.248627 0.577436
0.575806 2.249263 0.577409
0.591710 2.245471 0.575515
0.603433 2.233906 0.570344
0.617876 2.227548 0.567380
0.634692 2.225603 0.566289
0.653936 2.228038 0.567058
0.671589 2.227584 0.566623
0.688382 2.225647 0.565579
0.704209 2.222115 0.563883
0.717489 2.214352 0.560426
0.733838 2.212056 0.559301
0.750949 2.211202 0.558812
0.773651 2.219798 0.562338
0.787580 2.213945 0.559807
0.803049 2.210906 0.558500
0.819610 2.209897 0.558088
0.837331 2.210995 0.558606
0.854052 2.210742 0.558598
0.882014 2.228373 0.566174
-2.785416 2.657701 0.637472
-2.766937 2.656557 0.637598
-2.735373 2.633074 0.629127
-2.707642 2.616213 0.623281
-2.682448 2.603852 0.619236
-2.668124 2.611004 0.622826
-2.650417 2.612488 0.624271
-2.627952 2.605581 0.622505
-2.607294 2.602105 0.622119
-2.588336 2.601942 0.623068
-2.573593 2.609920 0.627232
-2.557515 2.615689 0.630576
-2.540387 2.619685 0.633264
-2.522849 2.623073 0.635746
-2.496316 2.608800 0.631340
-2.475103 2.604880 0.631001
-2.450675 2.594355 0.628085
-2.430886 2.593080 0.628806
-2.420103 2.610468 0.636871
-2.400731 2.610147 0.637989
-2.371924 2.589609 0.631148
-2.355282 2.594728 0.634406
-2.341333 2.605764 0.640001
-2.312291 2.583467 0.632435
-2.295079 2.587029 0.635069
-2.277141 2.588877 0.637020
-2.255097 2.581114 0.635155
-2.235800 2.579394 0.635670
-2.221134 2.588439 0.640444
-2.202485 2.587950 0.641424
-2.183212 2.585719 0.641696
-2.157882 2.568206 0.635869
-2.140985 2.571181 0.638176
-2.121966 2.568614 0.638260
-2.101507 2.562028 0.636721
-2.082032 2.557614 0.636028
-2.066267 2.562750 0.639133
-2.047882 2.560727 0.639360
-2.029297 2.557875 0.639236
-2.011368 2.556548 0.639704
-1.991589 2.549713 0.637945
-1.972728 2.545096 0.637055
-1.952576 2.536330 0.634478
-1.937270 2.541502 0.637482
-1.922375 2.547886 0.640960
-1.905405 2.547889 0.641855
-1.885242 2.537688 0.638625
-1.867724 2.535364 0.638547
-1.850191 2.532716 0.638322
-1.834486 2.535808 0.640397
-1.818439 2.537672 0.641962
-1.803646 2.543707 0.645199
-1.786763 2.542505 0.645498
