ply
format ascii 1.0
comment ---
element vertex 1594
property float x
property float y
property float z
element face 0
property list uchar uint vertex_indices
end_header
-4.076186 -1.896054 -0.596299
-4.074893 -1.883788 -0.596043
-4.070818 -1.872325 -0.595117
-4.065353 -1.861291 -0.593854
-4.073649 -1.846104 -0.595895
-4.073159 -1.833516 -0.595822
-4.071125 -1.821389 -0.595375
-4.062188 -1.811457 -0.593266
-4.064796 -1.797839 -0.593928
-4.067577 -1.784105 -0.594629
-4.066601 -1.771567 -0.594424
-4.059443 -1.761109 -0.592729
-4.061961 -1.747347 -0.593356
-4.058988 -1.735450 -0.592660
-4.056952 -1.723213 -0.592185
-4.057833 -1.709906 -0.592408
-4.048330 -1.700359 -0.590130
-4.044666 -1.688701 -0.589251
-4.046010 -1.675150 -0.589573
-4.047033 -1.661665 -0.589813
-4.042702 -1.650205 -0.588761
-4.042730 -1.637030 -0.588753
-4.036678 -1.626236 -0.587278
-4.035333 -1.613555 -0.586929
-4.031724 -1.601769 -0.586032
-4.026000 -1.590851 -0.584621
-4.036437 -1.573140 -0.587089
-4.034270 -1.560636 -0.586522
-4.026816 -1.550388 -0.584678
-4.024130 -1.538077 -0.583975
-4.025411 -1.523981 -0.584219
-4.021577 -1.512106 -0.583229
-4.015608 -1.501184 -0.581719
-4.010222 -1.489998 -0.580343
-4.026659 -1.468637 -0.584202
-4.015150 -1.460206 -0.581342
-4.010665 -1.448483 -0.580163
-4.004771 -1.437423 -0.578639
-4.003248 -1.424220 -0.578157
-4.002702 -1.410476 -0.577902
-3.996397 -1.399547 -0.576259
-3.992871 -1.387204 -0.575275
-4.003204 -1.367715 -0.577606
-4.001061 -1.354491 -0.576938
-3.988890 -1.346472 -0.573859
-3.992946 -1.329897 -0.574661
-3.991538 -1.316118 -0.574146
-3.991213 -1.301674 -0.573882
-3.989666 -1.287813 -0.573316
-3.993824 -1.270704 -0.574108
-3.989938 -1.257966 -0.572966
-3.988022 -1.244057 -0.572288
-3.988484 -1.228705 -0.572170
-3.979521 -1.218718 -0.569791
-3.970089 -1.209017 -0.567295
-3.971452 -1.192922 -0.567368
-3.968178 -1.179486 -0.566327
-3.967312 -1.164524 -0.565852
-3.967940 -1.148549 -0.565726
-3.964635 -1.134896 -0.564656
-3.961400 -1.121135 -0.563596
-3.960401 -1.105894 -0.563062
-3.958945 -1.090852 -0.562414
-3.954139 -1.077893 -0.560965
-3.950934 -1.063852 -0.559892
-3.949380 -1.048663 -0.559208
-3.947813 -1.033410 -0.558517
-3.946991 -1.017584 -0.558002
-3.948670 -0.999979 -0.558079
-3.951527 -0.981457 -0.558434
-3.946620 -0.968230 -0.556951
-3.940379 -0.955946 -0.555157
-3.936628 -0.941928 -0.553958
-3.928738 -0.930891 -0.551787
-3.924707 -0.917136 -0.550537
-3.925406 -0.899956 -0.550414
-3.928587 -0.880921 -0.550888
-3.928482 -0.864303 -0.550599
-3.934199 -0.843317 -0.551698
-3.938483 -0.823377 -0.552475
-3.940507 -0.805166 -0.552737
-3.937856 -0.790621 -0.551920
-3.931217 -0.779322 -0.550188
-3.924500 -0.768281 -0.548463
-3.918457 -0.756916 -0.546923
-3.859975 -0.787905 -0.533077
-3.746362 -3.450432 -0.498986
-3.714376 -3.427400 -0.491763
-3.671105 -3.400122 -0.481939
-3.679919 -3.393278 -0.484218
-3.690916 -3.387060 -0.487027
-3.678258 -3.371716 -0.484364
-3.682199 -3.362565 -0.485576
-3.684894 -3.352826 -0.486516
-3.680272 -3.340340 -0.485771
-3.680698 -3.329627 -0.486214
-3.677562 -3.317603 -0.485841
-3.655974 -3.299196 -0.481174
-3.606258 -3.060506 -0.477603
-3.629297 -3.055554 -0.483421
-3.655517 -3.051115 -0.489996
-3.685120 -3.047186 -0.497379
-3.823918 -3.044000 -0.531460
-4.069016 -3.044789 -0.591350
-4.091273 -3.036588 -0.597022
-4.125347 -3.030255 -0.605519
-4.172240 -3.000660 -0.617763
-4.177578 -2.976458 -0.619692
-4.194101 -2.966360 -0.623972
-4.206822 -2.955598 -0.627336
-4.214225 -2.944024 -0.629418
-4.216048 -2.931679 -0.630155
-4.210747 -2.918450 -0.629173
-4.202734 -2.904968 -0.627531
-4.203602 -2.892608 -0.628018
-4.201591 -2.879940 -0.627806
-4.199097 -2.867257 -0.627472
-4.190894 -2.854040 -0.625756
-4.187984 -2.841424 -0.625308
-4.200241 -2.830234 -0.628513
-4.198416 -2.817722 -0.628317
-4.185234 -2.804310 -0.625374
-4.179583 -2.791614 -0.624242
-4.182089 -2.779570 -0.625076
-4.190844 -2.767931 -0.627414
-4.194161 -2.755875 -0.628435
-4.191502 -2.743447 -0.628007
-4.189250 -2.731071 -0.627673
-4.186546 -2.718698 -0.627225
-4.183373 -2.706334 -0.626659
-4.174405 -2.693776 -0.624686
-4.183903 -2.681936 -0.627180
-4.179961 -2.669610 -0.626415
-4.177087 -2.657347 -0.625906
-4.171225 -2.645051 -0.624668
-4.170556 -2.632888 -0.624685
-4.169485 -2.620723 -0.624601
-4.169044 -2.608569 -0.624667
-4.166330 -2.596413 -0.624179
-4.162666 -2.584281 -0.623456
-4.162718 -2.572146 -0.623633
-4.162075 -2.560015 -0.623638
-4.163882 -2.547838 -0.624235
-4.159851 -2.535770 -0.623412
-4.159939 -2.523618 -0.623587
-4.160043 -2.511457 -0.623764
-4.161124 -2.499249 -0.624176
-4.149822 -2.487541 -0.621574
-4.145876 -2.475588 -0.620758
-4.148794 -2.463308 -0.621610
-4.150329 -2.451067 -0.622124
-4.148698 -2.438994 -0.621865
-4.137744 -2.427539 -0.619335
-4.143860 -2.414970 -0.620959
-4.150643 -2.402279 -0.622744
-4.147929 -2.390274 -0.622215
-4.147290 -2.378104 -0.622189
-4.147908 -2.365814 -0.622468
-4.135005 -2.354787 -0.619449
-4.133351 -2.342749 -0.619171
-4.130681 -2.330818 -0.618643
-4.129436 -2.318743 -0.618461
-4.131269 -2.306314 -0.619029
-4.130424 -2.294171 -0.618942
-4.127511 -2.282276 -0.618349
-4.122431 -2.270673 -0.617226
-4.122721 -2.258386 -0.617412
-4.119795 -2.246526 -0.616811
-4.114466 -2.235022 -0.615623
-4.112917 -2.222993 -0.615355
-4.112256 -2.210826 -0.615304
-4.113895 -2.198284 -0.615814
-4.125215 -2.184131 -0.618689
-4.126056 -2.171608 -0.619002
-4.115967 -2.160950 -0.616641
-4.111874 -2.149306 -0.615744
-4.113264 -2.136681 -0.616187
-4.114754 -2.124006 -0.616654
-4.114305 -2.111670 -0.616644
-4.105771 -2.100918 -0.614655
-4.102342 -2.089196 -0.613913
-4.100813 -2.077095 -0.613635
-4.097618 -2.065342 -0.612948
-4.101133 -2.052140 -0.613902
-4.099092 -2.040120 -0.613495
-4.091271 -2.029415 -0.611669
-4.095467 -2.015971 -0.612786
-4.092512 -2.004162 -0.612149
-4.089331 -1.992416 -0.611455
-4.085073 -1.980947 -0.610495
-4.085538 -1.968302 -0.610691
-4.083407 -1.956300 -0.610249
-4.075103 -1.945919 -0.608290
-4.070386 -1.934637 -0.607210
-4.074307 -1.921016 -0.608245
-4.075684 -1.908039 -0.608655
-4.077660 -1.894851 -0.609210
-4.078623 -1.881909 -0.609513
-4.068228 -1.872267 -0.607028
-4.066831 -1.860014 -0.606748
-4.067831 -1.847018 -0.607053
-4.069568 -1.833755 -0.607537
-4.064600 -1.822552 -0.606373
-4.061407 -1.810803 -0.605641
-4.062766 -1.797576 -0.606024
-4.068338 -1.782912 -0.607438
-4.064027 -1.771472 -0.606423
-4.068525 -1.757041 -0.607567
-4.066676 -1.744724 -0.607150
-4.061613 -1.733520 -0.605940
-4.058599 -1.721601 -0.605229
-4.054874 -1.709934 -0.604340
-4.048615 -1.699199 -0.602825
-4.044729 -1.687606 -0.601889
-4.046613 -1.673833 -0.602366
-4.047255 -1.660473 -0.602534
-4.048759 -1.646727 -0.602910
-4.046196 -1.634524 -0.602282
-4.045010 -1.621751 -0.601987
-4.034572 -1.612692 -0.599416
-4.035469 -1.599045 -0.599624
-4.028560 -1.588585 -0.597910
-4.035187 -1.572443 -0.599515
-4.031193 -1.560711 -0.598507
-4.023140 -1.550724 -0.596497
-4.021060 -1.538154 -0.595948
-4.024196 -1.523232 -0.596674
-4.024947 -1.509288 -0.596810
-4.019346 -1.498165 -0.595379
-4.015143 -1.486398 -0.594286
-4.013208 -1.473556 -0.593744
-4.014568 -1.459112 -0.594004
-4.007132 -1.448788 -0.592099
-4.003905 -1.436444 -0.591221
-4.006540 -1.421193 -0.591774
-4.002864 -1.408963 -0.590772
-4.000734 -1.395925 -0.590143
-4.007099 -1.378521 -0.591590
-4.011136 -1.362155 -0.592458
-4.003583 -1.351678 -0.590478
-3.998836 -1.339731 -0.589178
-3.987348 -1.331337 -0.586220
-3.989881 -1.315455 -0.586690
-3.987208 -1.302281 -0.585877
-3.993665 -1.284023 -0.587291
-3.993693 -1.269165 -0.587123
-3.991262 -1.255593 -0.586345
-3.990776 -1.240843 -0.586036
-3.986219 -1.228339 -0.584723
-3.978770 -1.217472 -0.582697
-3.969702 -1.207547 -0.580268
-3.964949 -1.195069 -0.578887
-3.964455 -1.179985 -0.578539
-3.965354 -1.163952 -0.578524
-3.967856 -1.146815 -0.578892
-3.965369 -1.132633 -0.578036
-3.963608 -1.117920 -0.577351
-3.966063 -1.100447 -0.577687
-3.963232 -1.086223 -0.576730
-3.957231 -1.073987 -0.574996
-3.953890 -1.059987 -0.573907
-3.947445 -1.047987 -0.572060
-3.943868 -1.034062 -0.570908
-3.944471 -1.017269 -0.570770
-3.952169 -0.995534 -0.572353
-3.951383 -0.979464 -0.571875
-3.949161 -0.964332 -0.571050
-3.940926 -0.953404 -0.568771
-3.937787 -0.938909 -0.567732
-3.937218 -0.922565 -0.567321
-3.933731 -0.908314 -0.566212
-3.936086 -0.889806 -0.566524
-3.932182 -0.875890 -0.565334
-3.933715 -0.857969 -0.565470
-3.937009 -0.838717 -0.566045
-3.934956 -0.823527 -0.565345
-3.940695 -0.802424 -0.566543
-3.942343 -0.784484 -0.566774
-3.936423 -0.772536 -0.565198
-3.923529 -0.766289 -0.561965
-3.910948 -0.760091 -0.558833
-3.930088 -0.728676 -0.563378
-3.695142 -3.389923 -0.498473
-3.696605 -3.379840 -0.499099
-3.691566 -3.367225 -0.498200
-3.696339 -3.358170 -0.499648
-3.695128 -3.346824 -0.499690
-3.681583 -3.331028 -0.496811
-3.670393 -3.316144 -0.494500
-3.604519 -3.060750 -0.487018
-3.638425 -3.058293 -0.495576
-3.659422 -3.052635 -0.501008
-4.148370 -3.034927 -0.623448
-4.187612 -3.029048 -0.633374
-4.180404 -3.015200 -0.631953
-4.149420 -2.997672 -0.624709
-4.145488 -2.984651 -0.624068
-4.169568 -2.975882 -0.630275
-4.193739 -2.966918 -0.636505
-4.204436 -2.955866 -0.639432
-4.213877 -2.944567 -0.642048
-4.212350 -2.931776 -0.641970
-4.212048 -2.919176 -0.642186
-4.201736 -2.905397 -0.639939
-4.201765 -2.892931 -0.640224
-4.202930 -2.880610 -0.640781
-4.197868 -2.867636 -0.639803
-4.193055 -2.854752 -0.638880
-4.192659 -2.842354 -0.639037
-4.192652 -2.830009 -0.639285
-4.188276 -2.817298 -0.638452
-4.190965 -2.805219 -0.639354
-4.190032 -2.792844 -0.639358
-4.177520 -2.779650 -0.636505
-4.185098 -2.767941 -0.638598
-4.188416 -2.755899 -0.639637
-4.185307 -2.743458 -0.639087
-4.182826 -2.731084 -0.638688
-4.179464 -2.718696 -0.638067
-4.177161 -2.706388 -0.637703
-4.177836 -2.694221 -0.638070
-4.177509 -2.682014 -0.638187
-4.176487 -2.669790 -0.638128
-4.171582 -2.657479 -0.637106
-4.169556 -2.645270 -0.636791
-4.165942 -2.633054 -0.636081
-4.167656 -2.620927 -0.636686
-4.167660 -2.608769 -0.636864
-4.166059 -2.596604 -0.636643
-4.165200 -2.584448 -0.636602
-4.164849 -2.572290 -0.636684
-4.160906 -2.560176 -0.635874
-4.157432 -2.548084 -0.635177
-4.158397 -2.535917 -0.635578
-4.160880 -2.523691 -0.636354
-4.159931 -2.511543 -0.636276
-4.155009 -2.499543 -0.635210
-4.149568 -2.487603 -0.634013
-4.146819 -2.475578 -0.633481
-4.146119 -2.463464 -0.633456
-4.146749 -2.451271 -0.633759
-4.142115 -2.439382 -0.632754
-4.139446 -2.427396 -0.632234
-4.143946 -2.414917 -0.633494
-4.148643 -2.402367 -0.634802
-4.149068 -2.390102 -0.635046
-4.146198 -2.378100 -0.634470
-4.140254 -2.366390 -0.633128
-4.140339 -2.354150 -0.633283
-4.134002 -2.342537 -0.631840
-4.131598 -2.330559 -0.631373
-4.130040 -2.318496 -0.631115
-4.129406 -2.306329 -0.631086
-4.130322 -2.293968 -0.631442
-4.125120 -2.282341 -0.630273
-4.123639 -2.270269 -0.630029
-4.123507 -2.258015 -0.630120
-4.120957 -2.246081 -0.629607
-4.115787 -2.234532 -0.628440
-4.112673 -2.222712 -0.627784
-4.113125 -2.210358 -0.628016
-4.114757 -2.197795 -0.628541
-4.131691 -2.182702 -0.632882
-4.125455 -2.171319 -0.631443
-4.120478 -2.159763 -0.630316
-4.115008 -2.148325 -0.629065
-4.113817 -2.136139 -0.628881
-4.110531 -2.124341 -0.628172
-4.105072 -2.112974 -0.626919
-4.100178 -2.101532 -0.625805
-4.100199 -2.089121 -0.625918
-4.102965 -2.076119 -0.626716
-4.102265 -2.063808 -0.626646
-4.100513 -2.051712 -0.626312
-4.098569 -2.039655 -0.625928
-4.097993 -2.027286 -0.625885
-4.089761 -2.016684 -0.623926
-4.091186 -2.003844 -0.624380
-4.088478 -1.991973 -0.623799
-4.085977 -1.980055 -0.623268
-4.085016 -1.967749 -0.623121
-4.080343 -1.956389 -0.622043
-4.067153 -1.947295 -0.618831
-4.070867 -1.933772 -0.619848
-4.076590 -1.919638 -0.621366
-4.080582 -1.905901 -0.622450
-4.083878 -1.892295 -0.623357
-4.084102 -1.879516 -0.623493
-4.075554 -1.869288 -0.621430
-4.068752 -1.858599 -0.619801
-4.065943 -1.846734 -0.619170
-4.064774 -1.834362 -0.618947
-4.064730 -1.821618 -0.619004
-4.060741 -1.810106 -0.618070
-4.074204 -1.792927 -0.621507
-4.064392 -1.783268 -0.619108
-4.062061 -1.771168 -0.618580
-4.065400 -1.757123 -0.619472
-4.064583 -1.744448 -0.619318
-4.061896 -1.732403 -0.618692
-4.056842 -1.721195 -0.617469
-4.053105 -1.709526 -0.616573
-4.046905 -1.698763 -0.615055
-4.043171 -1.687106 -0.614153
-4.045617 -1.673110 -0.614797
-4.048167 -1.659006 -0.615463
-4.049078 -1.645467 -0.615714
-4.048275 -1.632551 -0.615531
-4.043497 -1.621187 -0.614347
-4.044140 -1.607629 -0.614518
-4.032887 -1.598906 -0.611700
-4.037336 -1.583715 -0.612817
-4.033962 -1.571725 -0.611967
-4.027947 -1.560848 -0.610449
-4.018856 -1.551316 -0.608155
-4.016683 -1.538793 -0.607591
-4.022308 -1.522771 -0.608979
-4.020713 -1.509875 -0.608550
-4.020928 -1.496110 -0.608569
-4.012531 -1.486255 -0.606423
-4.012037 -1.472737 -0.606253
-4.011453 -1.459200 -0.606055
-4.001066 -1.450294 -0.603393
-4.002461 -1.435729 -0.603679
-4.004348 -1.420833 -0.604083
-4.002727 -1.407581 -0.603600
-4.003718 -1.392959 -0.603766
-4.009823 -1.375647 -0.605206
-4.015078 -1.358617 -0.606427
-4.005360 -1.349229 -0.603889
-3.990025 -1.342827 -0.599937
-3.998465 -1.323868 -0.601934
-3.991185 -1.313179 -0.599988
-3.991641 -1.298276 -0.599971
-3.996237 -1.280991 -0.600983
-3.992557 -1.268163 -0.599916
-3.985495 -1.257187 -0.597996
-3.984821 -1.242561 -0.597667
-3.983040 -1.228478 -0.597054
-3.970398 -1.220640 -0.593720
-3.964819 -1.208700 -0.592145
-3.964793 -1.193420 -0.591950
-3.963644 -1.178709 -0.591468
-3.965992 -1.161777 -0.591852
-3.963765 -1.147519 -0.591087
-3.961187 -1.133398 -0.590229
-3.965045 -1.115158 -0.590969
-3.965304 -1.099042 -0.590806
-3.962430 -1.084827 -0.589857
-3.957275 -1.072023 -0.588336
-3.958738 -1.054846 -0.588459
-3.951986 -1.042992 -0.586533
-3.944857 -1.031386 -0.584512
-3.944010 -1.015535 -0.584053
-3.948201 -0.996161 -0.584844
-3.946980 -0.980386 -0.584290
-3.945082 -0.965024 -0.583569
-3.938972 -0.952594 -0.581804
-3.937299 -0.937031 -0.581146
-3.938893 -0.919093 -0.581303
-3.944876 -0.897903 -0.582553
-3.937263 -0.886586 -0.580441
-3.932892 -0.872964 -0.579144
-3.927101 -0.860472 -0.577507
-3.932499 -0.839620 -0.578653
-3.931669 -0.823478 -0.578272
-3.935271 -0.803983 -0.579004
-3.943496 -0.780908 -0.580897
-3.939649 -0.767272 -0.579824
-3.907936 -0.775861 -0.571884
-3.910099 -0.757947 -0.572343
-3.905751 -0.745382 -0.571217
-4.311028 -3.680642 -0.656977
-4.275175 -3.653202 -0.648562
-4.266139 -3.636471 -0.646657
-4.269762 -3.624577 -0.647842
-3.538445 -3.085880 -0.479200
-3.605133 -3.082158 -0.496339
-3.585756 -3.067194 -0.491893
-3.588001 -3.057542 -0.492782
-3.627023 -3.056344 -0.502763
-3.665980 -3.054770 -0.512735
-3.992038 -3.043844 -0.595981
-4.143311 -3.034736 -0.634637
-4.172047 -3.027102 -0.642133
-4.158929 -3.012345 -0.639196
-4.143930 -2.997449 -0.635780
-4.146782 -2.985489 -0.636809
-4.167351 -2.976181 -0.642255
-4.196684 -2.967969 -0.649888
-4.200759 -2.955966 -0.651211
-4.198477 -2.943091 -0.650940
-4.224161 -2.933902 -0.657656
-4.207167 -2.919140 -0.653694
-4.206214 -2.906496 -0.653738
-4.205715 -2.893934 -0.653890
-4.204076 -2.881270 -0.653750
-4.199944 -2.868375 -0.652981
-4.196867 -2.855642 -0.652469
-4.195102 -2.843080 -0.652282
-4.189322 -2.830180 -0.651081
-4.191103 -2.818005 -0.651774
-4.197084 -2.806170 -0.653516
-4.194950 -2.793659 -0.653217
-4.195453 -2.781369 -0.653576
-4.193075 -2.768887 -0.653206
-4.188384 -2.756289 -0.652250
-4.183091 -2.743706 -0.651138
-4.177713 -2.731173 -0.650000
-4.175150 -2.718833 -0.649566
-4.175713 -2.706657 -0.649915
-4.175541 -2.694449 -0.650076
-4.174624 -2.682218 -0.650046
-4.170526 -2.669902 -0.649210
-4.175893 -2.657859 -0.650758
-4.169458 -2.645526 -0.649326
-4.169411 -2.633350 -0.649503
-4.170976 -2.621189 -0.650083
-4.167210 -2.608978 -0.649315
-4.165859 -2.596801 -0.649154
-4.165722 -2.584627 -0.649296
-4.168241 -2.572426 -0.650107
-4.167725 -2.560235 -0.650150
-4.157067 -2.548224 -0.647626
-4.159318 -2.536014 -0.648363
-4.163172 -2.523730 -0.649503
-4.161448 -2.511580 -0.649231
-4.153710 -2.499661 -0.647435
-4.150534 -2.487615 -0.646790
-4.151810 -2.475382 -0.647271
-4.151126 -2.463227 -0.647254
-4.152524 -2.450950 -0.647762
-4.146376 -2.439109 -0.646357
-4.145008 -2.427001 -0.646161
-4.147869 -2.414594 -0.647035
-4.151905 -2.402058 -0.648206
-4.143293 -2.390487 -0.646169
-4.140320 -2.378505 -0.645560
-4.142171 -2.366104 -0.646173
-4.133745 -2.354647 -0.644178
-4.134086 -2.342382 -0.644405
-4.133695 -2.330176 -0.644445
-4.132355 -2.318063 -0.644243
-4.130926 -2.305958 -0.644017
-4.130551 -2.293725 -0.644058
-4.130851 -2.281397 -0.644269
-4.126648 -2.269631 -0.643335
-4.123437 -2.257757 -0.642652
-4.119172 -2.246045 -0.641699
-4.116321 -2.234154 -0.641104
-4.115071 -2.222037 -0.640916
-4.116198 -2.209550 -0.641330
-4.124555 -2.195889 -0.643584
-4.121061 -2.184064 -0.642822
-4.125250 -2.170963 -0.644014
-4.116599 -2.160027 -0.641936
-4.115413 -2.147827 -0.641757
-4.113770 -2.135705 -0.641461
-4.110552 -2.123876 -0.640763
-4.106023 -2.112314 -0.639729
-4.102449 -2.100588 -0.638937
-4.101206 -2.088404 -0.638738
-4.101641 -2.075864 -0.638965
-4.100260 -2.063686 -0.638728
-4.098724 -2.051536 -0.638451
-4.098828 -2.039014 -0.638590
-4.087990 -2.028966 -0.635937
-4.085732 -2.017006 -0.635470
-4.089119 -2.003700 -0.636443
-4.091465 -1.990592 -0.637149
-4.090325 -1.978303 -0.636964
-4.085389 -1.966966 -0.635808
-4.078017 -1.956284 -0.634028
-4.075719 -1.944316 -0.633542
-4.078081 -1.931094 -0.634244
-4.079115 -1.918186 -0.634606
-4.080542 -1.905134 -0.635067
-4.082472 -1.891897 -0.635654
-4.082574 -1.879143 -0.635772
-4.076294 -1.868239 -0.634257
-4.070721 -1.857161 -0.632920
-4.071072 -1.844307 -0.633095
-4.067800 -1.832542 -0.632342
-4.065422 -1.820500 -0.631815
-4.064010 -1.808142 -0.631532
-4.059740 -1.796698 -0.630516
-4.073421 -1.779326 -0.634090
-4.065535 -1.769028 -0.632143
-4.060417 -1.757834 -0.630902
-4.065118 -1.743254 -0.632170
-4.061512 -1.731513 -0.631310
-4.060750 -1.718757 -0.631174
-4.056026 -1.707409 -0.630021
-4.051771 -1.695899 -0.628985
-4.045701 -1.685072 -0.627480
-4.043157 -1.672934 -0.626875
-4.042284 -1.660139 -0.626694
-4.044339 -1.646168 -0.627259
-4.041323 -1.634134 -0.626522
-4.039466 -1.621623 -0.626077
-4.037816 -1.609000 -0.625682
-4.039748 -1.594872 -0.626200
-4.036051 -1.583020 -0.625272
-4.035146 -1.569977 -0.625055
-4.029364 -1.558979 -0.623584
-4.014813 -1.551794 -0.619862
-4.022295 -1.535035 -0.621780
-4.022882 -1.521202 -0.621926
-4.019709 -1.508996 -0.621105
-4.017920 -1.496134 -0.620632
-4.014267 -1.484089 -0.619678
-4.016736 -1.469157 -0.620286
-4.020335 -1.453595 -0.621178
-4.004154 -1.447403 -0.616998
-4.007416 -1.431894 -0.617793
-4.002023 -1.420524 -0.616365
-4.002191 -1.406379 -0.616356
-4.010701 -1.387960 -0.618476
-4.013045 -1.372497 -0.619011
-4.001431 -1.364110 -0.615967
-3.994346 -1.353418 -0.614076
-3.993740 -1.339314 -0.613838
-3.994037 -1.324647 -0.613824
-3.991628 -1.311345 -0.613111
-3.990963 -1.297030 -0.612837
-3.993273 -1.280987 -0.613318
-3.987376 -1.269395 -0.611693
-3.977919 -1.259786 -0.609152
-3.977144 -1.245245 -0.608824
-3.976813 -1.230355 -0.608603
-3.967355 -1.220688 -0.606043
-3.961040 -1.209184 -0.604280
-3.965521 -1.191219 -0.605268
-3.970715 -1.172659 -0.606431
-3.964904 -1.160625 -0.604778
-3.962485 -1.146469 -0.603986
-3.959243 -1.132748 -0.602977
-3.958274 -1.117530 -0.602543
-3.961845 -1.099327 -0.603261
-3.957159 -1.086275 -0.601869
-3.953896 -1.072255 -0.600836
-3.961724 -1.050890 -0.602624
-3.956626 -1.037894 -0.601116
-3.948766 -1.026720 -0.598904
-3.944418 -1.013183 -0.597585
-3.944834 -0.996353 -0.597476
-3.943707 -0.980502 -0.596975
-3.943202 -0.964156 -0.596633
-3.939669 -0.949886 -0.595524
-3.940082 -0.932792 -0.595420
-3.939188 -0.916583 -0.594989
-3.935733 -0.902214 -0.593914
-3.931638 -0.888337 -0.592685
-3.925432 -0.876077 -0.590929
-3.923960 -0.860357 -0.590385
-3.918898 -0.847392 -0.588943
-3.914860 -0.833749 -0.587775
-3.919344 -0.813636 -0.588781
-3.932335 -0.786898 -0.591958
-3.922934 -0.777655 -0.589482
-3.926618 -0.758266 -0.590339
-3.921957 -0.745618 -0.589105
-3.870785 -0.770714 -0.576119
-4.357319 -3.701128 -0.682020
-4.278867 -3.656421 -0.662914
-4.266835 -3.638447 -0.660229
-4.265350 -3.624526 -0.660172
-4.251806 -3.605847 -0.657156
-3.542313 -3.283494 -0.483119
-3.544154 -3.273871 -0.483897
-3.547734 -3.264788 -0.485117
-3.557917 -3.257885 -0.487986
-3.554423 -3.246255 -0.487464
-3.537884 -3.230333 -0.483698
-3.546406 -3.222725 -0.486174
-3.552557 -3.214265 -0.488064
-3.559401 -3.205959 -0.490132
-3.540792 -3.189724 -0.485849
-3.534986 -3.177590 -0.484758
-3.538979 -3.168459 -0.486115
-3.534718 -3.156888 -0.485407
-3.529486 -3.145111 -0.484453
-3.533395 -3.135996 -0.485784
-3.539297 -3.127421 -0.487615
-3.539344 -3.117227 -0.487975
-3.543680 -3.108209 -0.489409
-3.542212 -3.097666 -0.489382
-3.525831 -3.083361 -0.485599
-3.521969 -3.072400 -0.484957
-3.537049 -3.066164 -0.489080
-3.545899 -3.058311 -0.491632
-3.567802 -3.053473 -0.497475
-3.625496 -3.056673 -0.512350
-4.179598 -3.041769 -0.656303
-4.142343 -3.010298 -0.647499
-4.162570 -2.976109 -0.653588
-4.189171 -2.967518 -0.660666
-4.209741 -2.957850 -0.666209
-4.201651 -2.944132 -0.664444
-4.213935 -2.933172 -0.667868
-4.218616 -2.921164 -0.669350
-4.207061 -2.907171 -0.666683
-4.208018 -2.894760 -0.667203
-4.205991 -2.882027 -0.666957
-4.197023 -2.868594 -0.664931
-4.197421 -2.856213 -0.665293
-4.196274 -2.843693 -0.665255
-4.190781 -2.830800 -0.664101
-4.201505 -2.819382 -0.667092
-4.200722 -2.806927 -0.667134
-4.199035 -2.794419 -0.666941
-4.195713 -2.781817 -0.666324
-4.197028 -2.769570 -0.666892
-4.193475 -2.757010 -0.666207
-4.179935 -2.743906 -0.662957
-4.180561 -2.731695 -0.663336
-4.179631 -2.719405 -0.663312
-4.175754 -2.706998 -0.662527
-4.176896 -2.694826 -0.663028
-4.175612 -2.682561 -0.662903
-4.181469 -2.670521 -0.664610
-4.181988 -2.658290 -0.664943
-4.173061 -2.645862 -0.662844
-4.172664 -2.633648 -0.662934
-4.174207 -2.621456 -0.663522
-4.170486 -2.609214 -0.662752
-4.168908 -2.597005 -0.662531
-4.166984 -2.584807 -0.662219
-4.171981 -2.572564 -0.663686
-4.172251 -2.560329 -0.663934
-4.163726 -2.548242 -0.661914
-4.157298 -2.536181 -0.660431
-4.161836 -2.523872 -0.661773
-4.164715 -2.511564 -0.662686
-4.158209 -2.499567 -0.661176
-4.154317 -2.487513 -0.660338
-4.152472 -2.475391 -0.660026
-4.153589 -2.463123 -0.660477
-4.154042 -2.450871 -0.660755
-4.151366 -2.438794 -0.660224
-4.149162 -2.426700 -0.659813
-4.155542 -2.414007 -0.661618
-4.154869 -2.401773 -0.661600
-4.146822 -2.390126 -0.659674
-4.139566 -2.378475 -0.657951
-4.135266 -2.366615 -0.656989
-4.131605 -2.354721 -0.656192
-4.132117 -2.342433 -0.656473
-4.136695 -2.329699 -0.657806
-4.134609 -2.317636 -0.657412
-4.129150 -2.305963 -0.656144
-4.124424 -2.294241 -0.655065
-4.126527 -2.281702 -0.655753
-4.130395 -2.268898 -0.656897
-4.124518 -2.257345 -0.655515
-4.117559 -2.245985 -0.653852
-4.116261 -2.233861 -0.653654
-4.117354 -2.221378 -0.654076
-4.119022 -2.208779 -0.654646
-4.121583 -2.196004 -0.655447
-4.124044 -2.183203 -0.656222
-4.115292 -2.172248 -0.654085
-4.114402 -2.159999 -0.653988
-4.113812 -2.147686 -0.653967
-4.114588 -2.135110 -0.654301
-4.113931 -2.122778 -0.654261
-4.109792 -2.111106 -0.653316
-4.106947 -2.099199 -0.652705
-4.100964 -2.087939 -0.651278
-4.100647 -2.075538 -0.651322
-4.100654 -2.063051 -0.651449
-4.101170 -2.050433 -0.651708
-4.097474 -2.038729 -0.650869
-4.091329 -2.027601 -0.649393
-4.082460 -2.017149 -0.647205
-4.085134 -2.004012 -0.648020
-4.090560 -1.990154 -0.649551
-4.090310 -1.977631 -0.649603
-4.086998 -1.965864 -0.648856
-4.085608 -1.953609 -0.648608
-4.082996 -1.941668 -0.648040
-4.081243 -1.929497 -0.647694
-4.076914 -1.918026 -0.646675
-4.076283 -1.905540 -0.646618
-4.077349 -1.892552 -0.647002
-4.080204 -1.879008 -0.647850
-4.075441 -1.867654 -0.646711
-4.074374 -1.855212 -0.646533
-4.073158 -1.842798 -0.646314
-4.072197 -1.830288 -0.646160
-4.066797 -1.819159 -0.644845
-4.066117 -1.806542 -0.644759
-4.075427 -1.790642 -0.647279
-4.070341 -1.779383 -0.646039
-4.070906 -1.766241 -0.646272
-4.069070 -1.753880 -0.645875
-4.060465 -1.743854 -0.643708
-4.059818 -1.731078 -0.643616
-4.058937 -1.718355 -0.643460
-4.058972 -1.705271 -0.643540
-4.054824 -1.693690 -0.642525
-4.049995 -1.682367 -0.641329
-4.046471 -1.670560 -0.640470
-4.040541 -1.659675 -0.638979
-4.040175 -1.646639 -0.638939
-4.039873 -1.633537 -0.638911
-4.035927 -1.621854 -0.637928
-4.036066 -1.608506 -0.638009
-4.035383 -1.595445 -0.637871
-4.035193 -1.582136 -0.637859
-4.030467 -1.570698 -0.636656
-4.023258 -1.560321 -0.634800
-4.016657 -1.549707 -0.633098
-4.024686 -1.532674 -0.635219
-4.021504 -1.520488 -0.634403
-4.023993 -1.505719 -0.635065
-4.016775 -1.495295 -0.633184
-4.018603 -1.480705 -0.633664
-4.020793 -1.465859 -0.634234
-4.013982 -1.455187 -0.632445
-4.018059 -1.439300 -0.633498
-4.009990 -1.429193 -0.631370
-4.004894 -1.417646 -0.630014
-4.004307 -1.403841 -0.629831
-4.007212 -1.388206 -0.630557
-3.998366 -1.378443 -0.628204
-3.996410 -1.365153 -0.627647
-3.997016 -1.350467 -0.627754
-3.993095 -1.338075 -0.626672
-3.991012 -1.324663 -0.626064
-3.989000 -1.311146 -0.625468
-3.987732 -1.297155 -0.625062
-3.990377 -1.280926 -0.625671
-3.988969 -1.266829 -0.625215
-3.973900 -1.260364 -0.621186
-3.977987 -1.243051 -0.622153
-3.977465 -1.228244 -0.621910
-3.969430 -1.217726 -0.619700
-3.963559 -1.205929 -0.618049
-3.962475 -1.191243 -0.617642
-3.963293 -1.175315 -0.617725
-3.968318 -1.156701 -0.618899
-3.963180 -1.144177 -0.617417
-3.956096 -1.132823 -0.615423
-3.956900 -1.116484 -0.615480
-3.961807 -1.097409 -0.616601
-3.955250 -1.085538 -0.614731
-3.950947 -1.072182 -0.613444
-3.957718 -1.051497 -0.615037
-3.959706 -1.033792 -0.615381
-3.955334 -1.020231 -0.614067
-3.948845 -1.008071 -0.612201
-3.945695 -0.993622 -0.611204
-3.945722 -0.976931 -0.611032
-3.943200 -0.961945 -0.610199
-3.943516 -0.944918 -0.610106
-3.941984 -0.929146 -0.609534
-3.936419 -0.916254 -0.607920
-3.932485 -0.902215 -0.606736
-3.923376 -0.892015 -0.604215
-3.924415 -0.874385 -0.604337
-3.927371 -0.855301 -0.604965
-3.921048 -0.843223 -0.603197
-3.912438 -0.833018 -0.600849
-3.912337 -0.816408 -0.600723
-3.916813 -0.796293 -0.601797
-3.924420 -0.773726 -0.603701
-3.928222 -0.754171 -0.604635
-3.917662 -0.746187 -0.601867
-3.888127 -0.753825 -0.594202
-4.249765 -3.659533 -0.668814
-4.264366 -3.652397 -0.672757
-4.225036 -3.597195 -0.663767
-3.609654 -3.319244 -0.509608
-3.539660 -3.283601 -0.492209
-3.540853 -3.273740 -0.492827
-3.543634 -3.264377 -0.493856
-3.549827 -3.256115 -0.495758
-3.541131 -3.242755 -0.493889
-3.539752 -3.231893 -0.493881
-3.535378 -3.220062 -0.493114
-3.541070 -3.211498 -0.494909
-3.534873 -3.199133 -0.493682
-3.531514 -3.187723 -0.493176
-3.538691 -3.179566 -0.495355
-3.536611 -3.168586 -0.495175
-3.528800 -3.155971 -0.493530
-3.528183 -3.145536 -0.493718
-3.529026 -3.135549 -0.494277
-3.528037 -3.125076 -0.494365
-3.532295 -3.116073 -0.495792
-3.535091 -3.106669 -0.496844
-3.532354 -3.095827 -0.496474
-3.513297 -3.080869 -0.491914
-3.516678 -3.071778 -0.493102
-3.523815 -3.063611 -0.495251
-3.535354 -3.056466 -0.498529
-3.569832 -3.054637 -0.507704
-3.610167 -3.053839 -0.518393
-4.094007 -3.003023 -0.647441
-4.175781 -3.003886 -0.668950
-4.198529 -2.994828 -0.675163
-4.168776 -2.977697 -0.667754
-4.191923 -2.968567 -0.674064
-4.211493 -2.958736 -0.679446
-4.215834 -2.946678 -0.680870
-4.213669 -2.933752 -0.680599
-4.212679 -2.921017 -0.680627
-4.206883 -2.907733 -0.679400
-4.206790 -2.895187 -0.679651
-4.205530 -2.882531 -0.679594
-4.196130 -2.869038 -0.677411
-4.192702 -2.856258 -0.676778
-4.196032 -2.844180 -0.677902
-4.197662 -2.831928 -0.678579
-4.193662 -2.819181 -0.677783
-4.201252 -2.807439 -0.680008
-4.198484 -2.794829 -0.679526
-4.193029 -2.782059 -0.678338
-4.193746 -2.769770 -0.678757
-4.193581 -2.757424 -0.678943
-4.191058 -2.744947 -0.678509
-4.183033 -2.732203 -0.676633
-4.179753 -2.719772 -0.675993
-4.187070 -2.707843 -0.678122
-4.185455 -2.695494 -0.677912
-4.184086 -2.683170 -0.677763
-4.185000 -2.670927 -0.678209
-4.186128 -2.658679 -0.678708
-4.184619 -2.646365 -0.678514
-4.173551 -2.633914 -0.675811
-4.172503 -2.621675 -0.675731
-4.172945 -2.609449 -0.676040
-4.169788 -2.597211 -0.675403
-4.171098 -2.584982 -0.675935
-4.170637 -2.572749 -0.676000
-4.167648 -2.560547 -0.675400
-4.167548 -2.548314 -0.675556
-4.153833 -2.536384 -0.672133
-4.159096 -2.524055 -0.673694
-4.160152 -2.511803 -0.674148
-4.158679 -2.499624 -0.673935
-4.157058 -2.487457 -0.673682
-4.155173 -2.475307 -0.673357
-4.152625 -2.463198 -0.672857
-4.152331 -2.450976 -0.672948
-4.151047 -2.438805 -0.672777
-4.154879 -2.426298 -0.673952
-4.155735 -2.413951 -0.674342
-4.156425 -2.401596 -0.674687
-4.147636 -2.389984 -0.672533
-4.139581 -2.378380 -0.670570
-4.137244 -2.366326 -0.670113
-4.132917 -2.354469 -0.669130
-4.131316 -2.342368 -0.668864
-4.137302 -2.329473 -0.670600
-4.138939 -2.316981 -0.671187
-4.121733 -2.306616 -0.666799
-4.117507 -2.294853 -0.665836
-4.122053 -2.282026 -0.667187
-4.124840 -2.269365 -0.668074
-4.123285 -2.257244 -0.667813
-4.119643 -2.245410 -0.667000
-4.121545 -2.232799 -0.667651
-4.121080 -2.220504 -0.667676
-4.123964 -2.207681 -0.668585
-4.118902 -2.196073 -0.667392
-4.116313 -2.184093 -0.666852
-4.115596 -2.171805 -0.666807
-4.112380 -2.159940 -0.666098
-4.114418 -2.147150 -0.666780
-4.114142 -2.134746 -0.666849
-4.114413 -2.122222 -0.667061
-4.110892 -2.110411 -0.666268
-4.101750 -2.099731 -0.663985
-4.104784 -2.086644 -0.664927
-4.104441 -2.074212 -0.664973
-4.100756 -2.062476 -0.664132
-4.098303 -2.050488 -0.663616
-4.096002 -2.038469 -0.663139
-4.091188 -2.027027 -0.661995
-4.082513 -2.016515 -0.659824
-4.079419 -2.004735 -0.659133
-4.083373 -1.991246 -0.660311
-4.087954 -1.977538 -0.661655
-4.087179 -1.965121 -0.661575
-4.090687 -1.951578 -0.662632
-4.088382 -1.939511 -0.662144
-4.084127 -1.927969 -0.661137
-4.077737 -1.917032 -0.659559
-4.075577 -1.904951 -0.659105
-4.076970 -1.891855 -0.659593
-4.080589 -1.878072 -0.660671
-4.078501 -1.865909 -0.660231
-4.072638 -1.854873 -0.658785
-4.070516 -1.842727 -0.658331
-4.073908 -1.828860 -0.659343
-4.071097 -1.816887 -0.658702
-4.072773 -1.803472 -0.659254
-4.069036 -1.791775 -0.658362
-4.073717 -1.777292 -0.659710
-4.072284 -1.764787 -0.659427
-4.061762 -1.755375 -0.656722
-4.055811 -1.744450 -0.655231
-4.054961 -1.731752 -0.655096
-4.051702 -1.719888 -0.654317
-4.054775 -1.705720 -0.655221
-4.053651 -1.693028 -0.655006
-4.052878 -1.680177 -0.654881
-4.050529 -1.667891 -0.654332
-4.045586 -1.656588 -0.653089
-4.040483 -1.645357 -0.651801
-4.036445 -1.633714 -0.650792
-4.033435 -1.621657 -0.650055
-4.035110 -1.607678 -0.650564
-4.033250 -1.595091 -0.650126
-4.028566 -1.583654 -0.648931
-4.026041 -1.571303 -0.648309
-4.024000 -1.558718 -0.647812
-4.027864 -1.543533 -0.648887
-4.025465 -1.531008 -0.648286
-4.026375 -1.516974 -0.648565
-4.021533 -1.505469 -0.647305
-4.023026 -1.491059 -0.647730
-4.020260 -1.478541 -0.647015
-4.018028 -1.465738 -0.646438
-4.009394 -1.455933 -0.644148
-4.010872 -1.441299 -0.644552
-4.014426 -1.425567 -0.645505
-4.008018 -1.414623 -0.643794
-4.004425 -1.402277 -0.642830
-3.998333 -1.391155 -0.641194
-3.996139 -1.378038 -0.640593
-3.999370 -1.362066 -0.641435
-4.001474 -1.346559 -0.641971
-4.000218 -1.332715 -0.641604
-3.992592 -1.322200 -0.639533
-3.986980 -1.310600 -0.637993
-3.985898 -1.296501 -0.637657
-3.991774 -1.278472 -0.639171
-3.986117 -1.266721 -0.637603
-3.975841 -1.257554 -0.634797
-3.984442 -1.237623 -0.637021
-3.980798 -1.224558 -0.635973
-3.972909 -1.213916 -0.633788
-3.967078 -1.202053 -0.632146
-3.962995 -1.189114 -0.630966
-3.963089 -1.173596 -0.630893
-3.967464 -1.155351 -0.631955
-3.964594 -1.141411 -0.631082
-3.954095 -1.132159 -0.628172
-3.967052 -1.108138 -0.631505
-3.968012 -1.091480 -0.631637
-3.960479 -1.080173 -0.629504
-3.957563 -1.065853 -0.628597
-3.956192 -1.050448 -0.628098
-3.955438 -1.034546 -0.627761
-3.954433 -1.018721 -0.627354
-3.956157 -1.000959 -0.627672
-3.954424 -0.985454 -0.627069
-3.948082 -0.973084 -0.625241
-3.944645 -0.958689 -0.624187
-3.943144 -0.942900 -0.623648
-3.939935 -0.928292 -0.622659
-3.937165 -0.913360 -0.621790
-3.930771 -0.901073 -0.619964
-3.927593 -0.886476 -0.618999
-3.928324 -0.868999 -0.619079
-3.932838 -0.848664 -0.620171
-3.932106 -0.832258 -0.619881
-3.924411 -0.821230 -0.617755
-3.922274 -0.806057 -0.617117
-3.929830 -0.783404 -0.619064
-3.926804 -0.769064 -0.618219
-3.924486 -0.754300 -0.617579
-3.915907 -0.744708 -0.615297
-3.905987 -0.736454 -0.612678
-3.554974 -3.300493 -0.505631
-3.531734 -3.281830 -0.499935
-3.532723 -3.271918 -0.500500
-3.534487 -3.262223 -0.501272
-3.533292 -3.251463 -0.501287
-3.530798 -3.240256 -0.500969
-3.528102 -3.228992 -0.500603
-3.525796 -3.217877 -0.500341
-3.523131 -3.206668 -0.499987
-3.522761 -3.196217 -0.500229
-3.525753 -3.186821 -0.501345
-3.533400 -3.178825 -0.503673
-3.525858 -3.166223 -0.502051
-3.523325 -3.155196 -0.501730
-3.523516 -3.145008 -0.502116
-3.522597 -3.134533 -0.502210
-3.520114 -3.123665 -0.501894
-3.520145 -3.113542 -0.502230
-3.526956 -3.105262 -0.504333
-3.513870 -3.091739 -0.501236
-3.507400 -3.080087 -0.499860
-3.509080 -3.070588 -0.500611
-3.519516 -3.063263 -0.503650
-3.538751 -3.057987 -0.508994
-3.570119 -3.055408 -0.517519
-3.608053 -3.054057 -0.527771
-4.126571 -3.058979 -0.667004
-4.117447 -3.044811 -0.664930
-4.064014 -2.998765 -0.651777
-4.207669 -2.996940 -0.690345
-4.175830 -2.979429 -0.682235
-4.189334 -2.968854 -0.686107
-4.206913 -2.958746 -0.691056
-4.217294 -2.947516 -0.694098
-4.214953 -2.934546 -0.693768
-4.207720 -2.921004 -0.692136
-4.201661 -2.907696 -0.690809
-4.202295 -2.895245 -0.691251
-4.201033 -2.882596 -0.691186
-4.189720 -2.868903 -0.688449
-4.191797 -2.856700 -0.689261
-4.198610 -2.844951 -0.691327
-4.199552 -2.832608 -0.691831
-4.197084 -2.819970 -0.691424
-4.199111 -2.807738 -0.692209
-4.194079 -2.794948 -0.691112
-4.190974 -2.782354 -0.690524
-4.193441 -2.770179 -0.691415
-4.197640 -2.758097 -0.692765
-4.191733 -2.745386 -0.691420
-4.182554 -2.732560 -0.689200
-4.182641 -2.720281 -0.689444
-4.186766 -2.708183 -0.690763
-4.188350 -2.695946 -0.691401
-4.184349 -2.683500 -0.690548
-4.183022 -2.671173 -0.690404
-4.185107 -2.658944 -0.691169
-4.184188 -2.646631 -0.691130
-4.177370 -2.634232 -0.689512
-4.172556 -2.621917 -0.688427
-4.171350 -2.609665 -0.688303
-4.179245 -2.597433 -0.690609
-4.174801 -2.585163 -0.689616
-4.165810 -2.572966 -0.687403
-4.162371 -2.560776 -0.686673
-4.157993 -2.548629 -0.685689
-4.158858 -2.536397 -0.686107
-4.160944 -2.524115 -0.686850
-4.158404 -2.511953 -0.686352
-4.155669 -2.499814 -0.685801
-4.160308 -2.487382 -0.687224
-4.162591 -2.475005 -0.688015
-4.154985 -2.463104 -0.686153
-4.146988 -2.451287 -0.684183
-4.149183 -2.438912 -0.684946
-4.150918 -2.426535 -0.685584
-4.151047 -2.414242 -0.685791
-4.148417 -2.402143 -0.685256
-4.137667 -2.390711 -0.682539
-4.142344 -2.378052 -0.683963
-4.141477 -2.365834 -0.683897
-4.139419 -2.353724 -0.683511
-4.134881 -2.341867 -0.682456
-4.133648 -2.329693 -0.682289
-4.133157 -2.317435 -0.682320
-4.123942 -2.306166 -0.680003
-4.117251 -2.294670 -0.678364
-4.121793 -2.281826 -0.679746
-4.120893 -2.269626 -0.679663
-4.120279 -2.257379 -0.679657
-4.120812 -2.244962 -0.679958
-4.123271 -2.232247 -0.680778
-4.125874 -2.219468 -0.681636
-4.116643 -2.208468 -0.679304
-4.114830 -2.196362 -0.678970
-4.113581 -2.184165 -0.678787
-4.111572 -2.172091 -0.678399
-4.112009 -2.159593 -0.678669
-4.112803 -2.147009 -0.679035
-4.114442 -2.134243 -0.679629
-4.111411 -2.122322 -0.678962
-4.105560 -2.110960 -0.677531
-4.100467 -2.099485 -0.676305
-4.102640 -2.086561 -0.677039
-4.106368 -2.073271 -0.678193
-4.097487 -2.062619 -0.675940
-4.095250 -2.050582 -0.675480
-4.092799 -2.038594 -0.674961
-4.092438 -2.026131 -0.675007
-4.086927 -2.014856 -0.673658
-4.078038 -2.004422 -0.671394
-4.082207 -1.990868 -0.672662
-4.086060 -1.977327 -0.673843
-4.085987 -1.964723 -0.673961
-4.087448 -1.951697 -0.674493
-4.091980 -1.937820 -0.675856
-4.093439 -1.924701 -0.676385
-4.092553 -1.912186 -0.676279
-4.083488 -1.901945 -0.673954
-4.077376 -1.890929 -0.672428
-4.079925 -1.877434 -0.673248
-4.080415 -1.864495 -0.673508
-4.071770 -1.854270 -0.671289
-4.070806 -1.841756 -0.671151
-4.077192 -1.826935 -0.673006
-4.076728 -1.814185 -0.673001
-4.069582 -1.803558 -0.671180
-4.067434 -1.791341 -0.670714
-4.065206 -1.779141 -0.670224
-4.065007 -1.766246 -0.670283
-4.060583 -1.754768 -0.669192
-4.049666 -1.745561 -0.666335
-4.060775 -1.728651 -0.669459
-4.059061 -1.716185 -0.669097
-4.049216 -1.706661 -0.666523
-4.048394 -1.693868 -0.666399
-4.048639 -1.680645 -0.666562
-4.049226 -1.667248 -0.666815
-4.047040 -1.654871 -0.666312
-4.041792 -1.643672 -0.664973
-4.036359 -1.632559 -0.663581
-4.034611 -1.619978 -0.663188
-4.034167 -1.606836 -0.663146
-4.031739 -1.594470 -0.662562
-4.026088 -1.583430 -0.661097
-4.026979 -1.569625 -0.661409
-4.029527 -1.555045 -0.662168
-4.029911 -1.541324 -0.662336
-4.032516 -1.526561 -0.663104
-4.029831 -1.514073 -0.662429
-4.024540 -1.502735 -0.661041
-4.019209 -1.491413 -0.659637
-4.020364 -1.477080 -0.659996
-4.011083 -1.467568 -0.657509
-4.010277 -1.454068 -0.657325
-4.009730 -1.440382 -0.657208
-4.009570 -1.426443 -0.657192
-4.007419 -1.413413 -0.656629
-4.001318 -1.402304 -0.654986
-4.000461 -1.388542 -0.654766
-4.003757 -1.372589 -0.655674
-4.001905 -1.359175 -0.655174
-4.002810 -1.344257 -0.655420
-4.001694 -1.330310 -0.655111
-3.999149 -1.317052 -0.654408
-3.991542 -1.306474 -0.652322
-3.984843 -1.295399 -0.650477
-3.982058 -1.282146 -0.649694
-3.979911 -1.268473 -0.649079
-3.984768 -1.250762 -0.650367
-3.976601 -1.240345 -0.648103
-3.975311 -1.225947 -0.647706
-3.973997 -1.211475 -0.647298
-3.972549 -1.196991 -0.646848
-3.969587 -1.183324 -0.645982
-3.969353 -1.167936 -0.645853
-3.968170 -1.153021 -0.645460
-3.963897 -1.139919 -0.644223
-3.962610 -1.124897 -0.643794
-3.969338 -1.104716 -0.645540
-3.969125 -1.088763 -0.645394
-3.966979 -1.073950 -0.644719
-3.961604 -1.061161 -0.643162
-3.956565 -1.048117 -0.641694
-3.950128 -1.035970 -0.639844
-3.953771 -1.017022 -0.640732
-3.956153 -0.998781 -0.641276
-3.955637 -0.982407 -0.641030
-3.952889 -0.967502 -0.640179
-3.945409 -0.955877 -0.638043
-3.943775 -0.940140 -0.637497
-3.940289 -0.925689 -0.636450
-3.936059 -0.911774 -0.635205
-3.932910 -0.897086 -0.634258
-3.932158 -0.880643 -0.633967
-3.934114 -0.862172 -0.634418
-3.933622 -0.845513 -0.634213
-3.933560 -0.828545 -0.634133
-3.934945 -0.810493 -0.634456
-3.934633 -0.793780 -0.634330
-3.928471 -0.781709 -0.632631
-3.928433 -0.764969 -0.632606
-3.921948 -0.753461 -0.630849
-3.919979 -0.738529 -0.630332
-3.915523 -0.725770 -0.629158
-3.522802 -3.289893 -0.507046
-3.520647 -3.278932 -0.506773
-3.524432 -3.270045 -0.508072
-3.526275 -3.260401 -0.508866
-3.523478 -3.249115 -0.508444
-3.522192 -3.238346 -0.508424
-3.517120 -3.226319 -0.507408
-3.516689 -3.215854 -0.507619
-3.516724 -3.205543 -0.507956
-3.516036 -3.195008 -0.508102
-3.514061 -3.184091 -0.507908
-3.513697 -3.173702 -0.508141
-3.513988 -3.163533 -0.508546
-3.512750 -3.152935 -0.508545
-3.514963 -3.143373 -0.509457
-3.514219 -3.132977 -0.509583
-3.510833 -3.121888 -0.509004
-3.507202 -3.110801 -0.508356
-3.505748 -3.100370 -0.508283
-3.501370 -3.089222 -0.507427
-3.501867 -3.079411 -0.507866
-3.505509 -3.070423 -0.509140
-3.514258 -3.062692 -0.511773
-3.539778 -3.058954 -0.518882
-3.571785 -3.056521 -0.527727
-4.155321 -3.129102 -0.685456
-4.008172 -3.002076 -0.648596
-4.055755 -2.998097 -0.661693
-4.133834 -2.998574 -0.683004
-4.187435 -2.969253 -0.698341
-4.207489 -2.959494 -0.704042
-4.215057 -2.947866 -0.706375
-4.215335 -2.935234 -0.706737
-4.206324 -2.921449 -0.704589
-4.201684 -2.908304 -0.703614
-4.199495 -2.895509 -0.703297
-4.194521 -2.882444 -0.702222
-4.188765 -2.869359 -0.700931
-4.189947 -2.857055 -0.701511
-4.201461 -2.845758 -0.704883
-4.198755 -2.833049 -0.704406
-4.191883 -2.820014 -0.702796
-4.190753 -2.807531 -0.702736
-4.198767 -2.795782 -0.705151
-4.192361 -2.782909 -0.703656
-4.195888 -2.770784 -0.704849
-4.198241 -2.758558 -0.705722
-4.193846 -2.745917 -0.704761
-4.185685 -2.733120 -0.702775
-4.184048 -2.720725 -0.702556
-4.188030 -2.708598 -0.703860
-4.186327 -2.696209 -0.703617
-4.182964 -2.683779 -0.702921
-4.179992 -2.671393 -0.702328
-4.181726 -2.659153 -0.703012
-4.179884 -2.646822 -0.702722
-4.174345 -2.634447 -0.701423
-4.174046 -2.622180 -0.701547
-4.174051 -2.609912 -0.701752
-4.173564 -2.597640 -0.701821
-4.182339 -2.585335 -0.704412
-4.168396 -2.573125 -0.700812
-4.159702 -2.560975 -0.698638
-4.154544 -2.548837 -0.697426
-4.161964 -2.536458 -0.699642
-4.164553 -2.524130 -0.700539
-4.164244 -2.511863 -0.700644
-4.165452 -2.499532 -0.701163
-4.166689 -2.487178 -0.701688
-4.161020 -2.475125 -0.700326
-4.150500 -2.463364 -0.697637
-4.141426 -2.451612 -0.695340
-4.145788 -2.439115 -0.696713
-4.145397 -2.426877 -0.696787
-4.143127 -2.414763 -0.696345
-4.141645 -2.402599 -0.696118
-4.138658 -2.390557 -0.695478
-4.139463 -2.378207 -0.695874
-4.141904 -2.365687 -0.696717
-4.141605 -2.353390 -0.696810
-4.140613 -2.341150 -0.696712
-4.130035 -2.329911 -0.693987
-4.127690 -2.317856 -0.693516
-4.123996 -2.305963 -0.692675
-4.121121 -2.293993 -0.692056
-4.125139 -2.281178 -0.693327
-4.124270 -2.268939 -0.693257
-4.120574 -2.257072 -0.692411
-4.120420 -2.244731 -0.692535
-4.122955 -2.231988 -0.693397
-4.116793 -2.220499 -0.691871
-4.111161 -2.208972 -0.690490
-4.113918 -2.196150 -0.691411
-4.115962 -2.183399 -0.692135
-4.112894 -2.171474 -0.691456
-4.112365 -2.159119 -0.691473
-4.113773 -2.146405 -0.692021
-4.115592 -2.133581 -0.692682
-4.113802 -2.121403 -0.692350
-4.101811 -2.111201 -0.689211
-4.096916 -2.099689 -0.688023
-4.097022 -2.087185 -0.688210
-4.097620 -2.074558 -0.688531
-4.099403 -2.061651 -0.689178
-4.093652 -2.050356 -0.687750
-4.091200 -2.038358 -0.687228
-4.092928 -2.025406 -0.687858
-4.091395 -2.013179 -0.687588
-4.092666 -2.000274 -0.688090
-4.091271 -1.987986 -0.687857
-4.084510 -1.977028 -0.686143
-4.079144 -1.965760 -0.684811
-4.085039 -1.951599 -0.686585
-4.089234 -1.937803 -0.687889
-4.092294 -1.924246 -0.688880
-4.090131 -1.912070 -0.688428
-4.086552 -1.900288 -0.687583
-4.077599 -1.890050 -0.685253
-4.073594 -1.878440 -0.684288
-4.077314 -1.864558 -0.685455
-4.072802 -1.853088 -0.684346
-4.069654 -1.841220 -0.683612
-4.074902 -1.826738 -0.685198
-4.078365 -1.812737 -0.686289
-4.069951 -1.802494 -0.684094
-4.061015 -1.792479 -0.681752
-4.060962 -1.779570 -0.681866
-4.061922 -1.766288 -0.682258
-4.058615 -1.754425 -0.681467
-4.061148 -1.740527 -0.682291
-4.054837 -1.729696 -0.680664
-4.058431 -1.715336 -0.681778
-4.052345 -1.704430 -0.680209
-4.044739 -1.694111 -0.678216
-4.043208 -1.681555 -0.677904
-4.042909 -1.668505 -0.677930
-4.040784 -1.656121 -0.677448
-4.036995 -1.644368 -0.676502
-4.036197 -1.631424 -0.676382
-4.031983 -1.619817 -0.675313
-4.032066 -1.606457 -0.675433
-4.029638 -1.594084 -0.674853
-4.028266 -1.581245 -0.674563
-4.026164 -1.568679 -0.674068
-4.031981 -1.552676 -0.675766
-4.031889 -1.539128 -0.675823
-4.028489 -1.526985 -0.674958
-4.030543 -1.512382 -0.675604
-4.023168 -1.501967 -0.673629
-4.015582 -1.491670 -0.671591
-4.013061 -1.479044 -0.670956
-4.022997 -1.460524 -0.673777
-4.013491 -1.451075 -0.671195
-4.011898 -1.437856 -0.670806
-4.009878 -1.424790 -0.670295
-4.005884 -1.412649 -0.669232
-4.006488 -1.398182 -0.669442
-4.002128 -1.386140 -0.668269
-4.000456 -1.372694 -0.667839
-4.002682 -1.357170 -0.668487
-4.000189 -1.344004 -0.667820
-3.995826 -1.331772 -0.666629
-3.994717 -1.317761 -0.666338
-3.991471 -1.304830 -0.665448
-3.986538 -1.292771 -0.664086
-3.981070 -1.280973 -0.662570
-3.978368 -1.267597 -0.661818
-3.968896 -1.257992 -0.659180
-3.966566 -1.244312 -0.658523
-3.963546 -1.230958 -0.657669
-3.967503 -1.213449 -0.658749
-3.973850 -1.194365 -0.660489
-3.975861 -1.177688 -0.661019
-3.971888 -1.164498 -0.659883
-3.970234 -1.149830 -0.659386
-3.966835 -1.136150 -0.658401
-3.963433 -1.122406 -0.657411
-3.964512 -1.105760 -0.657662
-3.966619 -1.088328 -0.658195
-3.962865 -1.074544 -0.657097
-3.958643 -1.061006 -0.655866
-3.952022 -1.049001 -0.653966
-3.948983 -1.034593 -0.653059
-3.946416 -1.019805 -0.652282
-3.956774 -0.996146 -0.655090
-3.955185 -0.980471 -0.654582
-3.952951 -0.965179 -0.653895
-3.953485 -0.947890 -0.653976
-3.948848 -0.934192 -0.652624
-3.940742 -0.922984 -0.650312
-3.938842 -0.907339 -0.649725
-3.936659 -0.891885 -0.649064
-3.935895 -0.875380 -0.648801
-3.932581 -0.860772 -0.647837
-3.929151 -0.846295 -0.646848
-3.932649 -0.826601 -0.647789
-3.941953 -0.802416 -0.650348
-3.932953 -0.792346 -0.647843
-3.918498 -0.786741 -0.643837
-3.919919 -0.768867 -0.644246
-3.930577 -0.743694 -0.647229
-3.923522 -0.732744 -0.645316
-3.888219 -0.744970 -0.635583
-3.559918 -3.314898 -0.526456
-3.517704 -3.289148 -0.515420
-3.512368 -3.277046 -0.514277
-3.517590 -3.268692 -0.515973
-3.520306 -3.259369 -0.517005
-3.520938 -3.249270 -0.517482
-3.516231 -3.237338 -0.516527
-3.515823 -3.226871 -0.516731
-3.514451 -3.216087 -0.516679
-3.512240 -3.205048 -0.516401
-3.510740 -3.194262 -0.516316
-3.507754 -3.183042 -0.515830
-3.506116 -3.172282 -0.515706
-3.506908 -3.162288 -0.516238
-3.507132 -3.152142 -0.516615
-3.508924 -3.142474 -0.517415
-3.509096 -3.132356 -0.517775
-3.506413 -3.121474 -0.517360
-3.502052 -3.110196 -0.516487
-3.498231 -3.099144 -0.515755
-3.493396 -3.087901 -0.514744
-3.496567 -3.078807 -0.515902
-3.500517 -3.069912 -0.517269
-3.505176 -3.061190 -0.518826
-3.519167 -3.054711 -0.522919
-3.923018 -3.022772 -0.636298
-3.918296 -3.010381 -0.635301
-3.962608 -3.006681 -0.647721
-4.006907 -3.002571 -0.660144
-4.136086 -2.999654 -0.696132
-4.188178 -2.982680 -0.711016
-4.202155 -2.972091 -0.715148
-4.209942 -2.960518 -0.717580
-4.216980 -2.948794 -0.719803
-4.211850 -2.935427 -0.718681
-4.210515 -2.922613 -0.718596
-4.204728 -2.909291 -0.717283
-4.206114 -2.896883 -0.717938
-4.198660 -2.883492 -0.716157
-4.195445 -2.870643 -0.715537
-4.201816 -2.858822 -0.717554
-4.200652 -2.846219 -0.717492
-4.197132 -2.833423 -0.716778
-4.188324 -2.820209 -0.714602
-4.191434 -2.808079 -0.715708
-4.197120 -2.796131 -0.717522
-4.201464 -2.784038 -0.718964
-4.198149 -2.771386 -0.718289
-4.198736 -2.759020 -0.718689
-4.190632 -2.746142 -0.716685
-4.185651 -2.733515 -0.715540
-4.189175 -2.721359 -0.716743
-4.190348 -2.709068 -0.717294
-4.186584 -2.696569 -0.716477
-4.180554 -2.684028 -0.715031
-4.180074 -2.671712 -0.715117
-4.177297 -2.659341 -0.714565
-4.174416 -2.646993 -0.713982
-4.170527 -2.634654 -0.713118
-4.173213 -2.622421 -0.714073
-4.172215 -2.610135 -0.714005
-4.166606 -2.597847 -0.712657
-4.162323 -2.585603 -0.711675
-4.170230 -2.573295 -0.714072
-4.169199 -2.561019 -0.713988
-4.161941 -2.548856 -0.712174
-4.159731 -2.536642 -0.711759
-4.163527 -2.524276 -0.713011
-4.168404 -2.511829 -0.714563
-4.168873 -2.499489 -0.714889
-4.170489 -2.487086 -0.715533
-4.160002 -2.475221 -0.712810
-4.145154 -2.463670 -0.708872
-4.149965 -2.451146 -0.710400
-4.144056 -2.439218 -0.708945
-4.140497 -2.427180 -0.708142
-4.136824 -2.415172 -0.707305
-4.136533 -2.402930 -0.707410
-4.135452 -2.390742 -0.707293
-4.135899 -2.378421 -0.707601
-4.136518 -2.366065 -0.707957
-4.138874 -2.353523 -0.708796
-4.136716 -2.341396 -0.708376
-4.136211 -2.329102 -0.708416
-4.129228 -2.317508 -0.706648
-4.128584 -2.305240 -0.706648
-4.128944 -2.292843 -0.706927
-4.126444 -2.280783 -0.706407
-4.128477 -2.268144 -0.707152
-4.121336 -2.256701 -0.705334
-4.117703 -2.244824 -0.704495
-4.117667 -2.232446 -0.704660
-4.117023 -2.220142 -0.704654
-4.117399 -2.207671 -0.704933
-4.118150 -2.195118 -0.705317
-4.119127 -2.182502 -0.705763
-4.114669 -2.170778 -0.704688
-4.111272 -2.158895 -0.703910
-4.112928 -2.146123 -0.704544
-4.116213 -2.133015 -0.705635
-4.112641 -2.121153 -0.704805
-4.103786 -2.110332 -0.702493
-4.097024 -2.099163 -0.700767
-4.093984 -2.087283 -0.700082
-4.095663 -2.074426 -0.700719
-4.097003 -2.061605 -0.701261
-4.097089 -2.049024 -0.701452
-4.091424 -2.037712 -0.700027
-4.090520 -2.025343 -0.699937
