ply
format ascii 1.0
comment ---
element vertex 1594
property float x
property float y
property float z
element face 0
property list uchar uint vertex_indices
end_header
-3.972023 -0.788733 -0.387216
-3.986905 -0.777065 -0.385338
-3.978981 -0.755186 -0.385018
-3.994088 -0.743771 -0.382862
-3.990076 -0.733210 -0.382507
-4.233649 -3.237834 -0.287608
-4.228312 -3.188328 -0.286968
-4.194347 -3.141987 -0.290474
-4.214106 -3.111251 -0.287001
-4.225142 -3.096688 -0.285165
-4.229465 -3.077610 -0.284170
-4.234959 -3.059394 -0.283062
-4.247351 -3.045789 -0.281143
-4.240660 -3.019712 -0.281572
-4.214002 -2.980963 -0.284464
-4.213668 -2.959519 -0.284180
-4.207804 -2.934708 -0.284598
-4.204322 -2.911589 -0.284753
-4.206259 -2.891999 -0.284273
-4.211950 -2.874810 -0.283360
-4.222501 -2.860620 -0.281878
-4.231420 -2.845434 -0.280619
-4.224858 -2.821041 -0.281280
-4.219946 -2.797814 -0.281762
-4.205523 -2.769217 -0.283435
-4.200981 -2.746602 -0.283921
-4.208588 -2.731080 -0.282943
-4.207863 -2.710867 -0.283008
-4.203406 -2.688683 -0.283552
-4.170338 -2.650846 -0.287622
-4.178294 -2.635922 -0.286690
-4.175182 -2.615017 -0.287134
-4.157642 -2.586530 -0.289365
-4.172094 -2.575260 -0.287700
-4.199691 -2.570787 -0.284449
-4.199878 -2.551908 -0.284572
-4.180409 -2.523065 -0.287118
-4.215949 -2.522347 -0.282959
-4.175541 -2.483342 -0.288100
-4.220217 -2.486931 -0.282870
-4.186244 -2.451675 -0.287258
-4.178492 -2.429546 -0.288464
-4.173533 -2.408919 -0.289348
-4.180783 -2.394183 -0.288762
-4.166741 -2.369522 -0.290785
-4.158803 -2.347903 -0.292082
-4.157240 -2.329348 -0.292621
-4.150051 -2.308354 -0.293860
-4.135467 -2.284228 -0.296011
-4.131768 -2.265105 -0.296859
-4.130351 -2.247080 -0.297447
-4.139740 -2.233759 -0.296746
-4.147231 -2.219602 -0.296294
-4.136281 -2.197743 -0.298084
-4.132126 -2.178862 -0.299070
-4.129741 -2.160808 -0.299860
-4.121287 -2.140409 -0.301394
-4.116763 -2.121714 -0.302472
-4.106783 -2.100998 -0.304218
-4.097569 -2.080741 -0.305886
-4.100081 -2.065090 -0.306170
-4.111545 -2.052820 -0.305404
-4.114567 -2.037369 -0.305665
-4.114327 -2.020753 -0.306332
-4.118735 -2.005861 -0.306465
-4.116197 -1.988517 -0.307440
-4.107732 -1.969185 -0.309132
-4.106600 -1.952509 -0.309973
-4.104606 -1.935600 -0.310933
-4.096794 -1.916821 -0.312594
-4.086446 -1.897335 -0.314566
-4.079407 -1.879069 -0.316164
-4.077085 -1.862418 -0.317227
-4.071748 -1.844889 -0.318658
-4.073456 -1.829626 -0.319287
-4.083954 -1.817048 -0.318916
-4.089463 -1.802919 -0.319147
-4.085564 -1.786018 -0.320486
-4.078493 -1.768280 -0.322206
-4.079948 -1.753061 -0.322963
-4.096473 -1.742053 -0.322015
-4.093499 -1.725592 -0.323323
-4.091130 -1.709356 -0.324580
-4.083693 -1.691842 -0.326430
-4.076584 -1.674518 -0.328259
-4.084537 -1.661110 -0.328402
-4.093305 -1.647856 -0.328479
-4.097987 -1.633550 -0.329040
-4.065331 -1.610314 -0.333801
-4.090125 -1.600856 -0.332153
-4.079875 -1.583159 -0.334437
-4.060561 -1.563556 -0.337737
-4.069887 -1.550443 -0.337881
-4.069162 -1.535108 -0.339157
-4.070676 -1.520273 -0.340206
-4.075300 -1.506081 -0.340935
-4.074406 -1.490764 -0.342287
-4.073993 -1.475569 -0.343604
-4.069712 -1.459664 -0.345355
-4.042510 -1.439567 -0.349586
-4.040090 -1.424229 -0.351154
-4.036316 -1.408696 -0.352881
-4.027248 -1.392312 -0.355181
-4.037185 -1.379195 -0.355475
-4.041453 -1.365087 -0.356388
-4.034032 -1.349125 -0.358543
-4.031693 -1.334026 -0.360171
-4.025333 -1.318378 -0.362223
-4.018216 -1.302703 -0.364356
-4.018795 -1.288179 -0.365693
-4.023169 -1.274178 -0.366645
-4.023304 -1.259616 -0.368035
-4.013268 -1.243821 -0.370461
-4.006376 -1.228522 -0.372556
-4.002866 -1.213705 -0.374298
-3.998952 -1.198907 -0.376070
-3.994394 -1.184114 -0.377891
-4.012568 -1.171679 -0.377431
-4.021542 -1.158236 -0.377882
-4.021714 -1.143952 -0.379190
-3.991641 -1.127101 -0.383446
-3.992263 -1.113088 -0.384646
-3.995496 -1.099325 -0.385561
-3.999277 -1.085631 -0.386391
-4.005803 -1.072152 -0.386920
-4.008844 -1.058461 -0.387747
-3.999767 -1.044099 -0.389693
-3.987431 -1.029717 -0.391895
-3.976611 -1.015603 -0.393891
-3.972435 -1.001975 -0.395192
-4.008569 -0.990142 -0.392609
-3.996829 -0.976319 -0.394506
-3.980306 -0.962543 -0.396780
-3.976176 -0.949368 -0.397811
-3.973728 -0.936380 -0.398609
-3.978776 -0.923676 -0.398628
-3.955837 -0.910608 -0.401190
-3.950316 -0.898057 -0.402038
-3.958184 -0.885777 -0.401554
-4.018860 -0.873748 -0.396060
-3.950940 -0.861432 -0.402484
-3.958311 -0.849455 -0.401798
-3.966390 -0.837553 -0.400960
-3.980089 -0.825661 -0.399512
-4.001461 -0.813683 -0.397259
-3.992343 -0.802293 -0.397771
-3.981952 -0.791149 -0.398319
-3.969406 -0.769276 -0.398404
-3.960555 -0.758717 -0.398573
-4.000296 -0.746522 -0.394073
-4.001251 -0.735805 -0.393153
-4.785557 -5.087040 -0.297650
-4.652266 -4.671296 -0.307106
-4.247397 -3.044643 -0.300044
-4.240786 -3.018640 -0.300367
-4.227090 -2.988284 -0.301543
-4.217213 -2.960678 -0.302307
-4.221408 -2.942228 -0.301464
-4.217600 -2.918840 -0.301579
-4.189434 -2.880527 -0.304562
-4.184003 -2.856639 -0.304924
-4.215149 -2.855146 -0.301045
-4.224004 -2.839985 -0.299790
-4.232112 -2.824384 -0.298647
-4.219588 -2.796653 -0.299940
-4.206919 -2.769103 -0.301276
-4.198848 -2.744467 -0.302100
-4.204889 -2.728083 -0.301296
-4.220541 -2.717152 -0.299391
-4.225686 -2.700271 -0.298739
-4.212822 -2.673486 -0.300217
-4.201815 -2.647968 -0.301500
-4.148085 -2.599593 -0.307806
-4.149152 -2.581234 -0.307720
-4.187190 -2.582496 -0.303328
-4.215605 -2.578376 -0.300085
-4.210188 -2.556527 -0.300822
-4.184929 -2.524688 -0.303899
-4.185699 -2.506382 -0.303951
-4.214244 -2.502033 -0.300780
-4.175503 -2.464204 -0.305488
-4.181223 -2.448610 -0.305022
-4.156542 -2.418359 -0.308122
-4.160806 -2.402274 -0.307864
-4.169883 -2.388488 -0.307064
-4.184193 -2.377116 -0.305677
-4.146672 -2.341803 -0.310338
-4.150568 -2.325815 -0.310198
-4.150586 -2.308115 -0.310527
-4.137301 -2.284583 -0.312418
-4.134211 -2.265735 -0.313142
-4.134041 -2.248253 -0.313546
-4.135687 -2.231618 -0.313757
-4.141374 -2.216737 -0.313520
-4.138755 -2.198399 -0.314261
-4.118036 -2.172708 -0.317105
-4.111525 -2.153070 -0.318325
-4.120405 -2.139730 -0.317792
-4.123666 -2.124135 -0.317925
-4.121268 -2.106357 -0.318725
-4.106888 -2.084051 -0.320913
-4.095241 -2.062990 -0.322801
-4.095164 -2.046439 -0.323384
-4.101876 -2.032450 -0.323211
-4.109124 -2.018639 -0.322998
-4.113117 -2.003639 -0.323175
-4.107598 -1.985284 -0.324449
-4.106566 -1.968601 -0.325233
-4.106831 -1.952422 -0.325888
-4.106160 -1.935973 -0.326666
-4.099276 -1.917508 -0.328161
-4.082434 -1.895892 -0.330789
-4.094693 -1.883892 -0.330170
-4.094124 -1.867733 -0.331009
-4.089497 -1.850352 -0.332319
-4.084138 -1.832835 -0.333727
-4.079907 -1.815754 -0.335026
-4.085021 -1.801537 -0.335308
-4.089325 -1.787072 -0.335702
-4.086605 -1.770578 -0.336891
-4.078077 -1.752505 -0.338735
-4.086171 -1.739173 -0.338774
-4.101081 -1.727655 -0.338094
-4.093253 -1.709928 -0.339919
-4.076484 -1.689957 -0.342729
-4.080618 -1.675582 -0.343287
-4.096148 -1.664083 -0.342636
-4.103854 -1.650518 -0.342857
-4.103290 -1.634892 -0.343992
-4.103568 -1.619501 -0.345055
-4.064970 -1.595043 -0.350283
-4.060551 -1.578813 -0.351872
-4.057301 -1.562912 -0.353354
-4.050273 -1.546239 -0.355251
-4.055624 -1.532312 -0.355860
-4.059698 -1.518089 -0.356626
-4.063363 -1.503764 -0.357456
-4.064320 -1.488885 -0.358589
-4.064636 -1.473892 -0.359805
-4.077136 -1.461237 -0.359783
-4.071218 -1.445065 -0.361679
-4.051797 -1.426529 -0.364968
-4.029114 -1.407625 -0.368587
-4.035198 -1.393883 -0.369281
-4.051531 -1.381809 -0.368958
-4.051893 -1.367017 -0.370267
-4.048959 -1.351726 -0.371917
-4.033104 -1.334518 -0.374862
-4.020093 -1.317901 -0.377518
-4.021520 -1.303491 -0.378741
-4.032766 -1.290445 -0.379003
-4.028109 -1.275200 -0.380834
-4.023452 -1.260024 -0.382661
-4.022342 -1.245360 -0.384137
-4.013862 -1.229859 -0.386319
-3.999492 -1.213795 -0.389053
-3.993189 -1.198785 -0.390992
-3.993279 -1.184543 -0.392302
-4.001689 -1.171175 -0.392806
-4.018544 -1.158581 -0.392500
-4.011115 -1.143663 -0.394470
-3.999665 -1.128515 -0.396783
-3.983302 -1.113122 -0.399517
-3.986084 -1.099419 -0.400425
-3.982332 -1.085275 -0.401903
-3.991212 -1.072096 -0.402173
-3.993589 -1.058491 -0.403001
-3.994661 -1.044862 -0.403902
-3.985790 -1.030756 -0.405658
-3.977508 -1.016844 -0.407300
-3.966538 -1.002970 -0.409121
-3.963748 -0.989627 -0.410134
-3.970187 -0.976752 -0.410249
-3.971137 -0.963743 -0.410791
-3.965603 -0.950645 -0.411844
-3.974327 -0.938059 -0.411543
-3.972779 -0.925305 -0.412087
-3.977078 -0.912780 -0.412029
-3.962172 -0.900108 -0.413606
-3.970605 -0.887877 -0.413017
-3.948828 -0.875582 -0.415041
-3.965767 -0.863601 -0.413528
-3.975513 -0.851650 -0.412571
-3.979419 -0.839805 -0.412051
-3.983926 -0.828065 -0.411391
-3.986312 -0.816464 -0.410836
-3.981718 -0.805122 -0.410823
-3.984374 -0.782663 -0.409487
-3.988580 -0.771551 -0.408438
-3.985047 -0.750118 -0.407181
-4.240640 -3.017408 -0.319197
-4.233680 -2.991424 -0.319492
-4.223461 -2.963578 -0.320179
-4.224547 -2.943141 -0.319647
-4.225163 -2.922522 -0.319194
-4.217199 -2.896704 -0.319721
-4.206471 -2.869414 -0.320584
-4.211559 -2.851975 -0.319718
-4.226933 -2.840768 -0.317734
-4.228464 -2.821256 -0.317315
-4.219849 -2.795870 -0.318051
-4.201936 -2.765289 -0.319850
-4.183979 -2.735009 -0.321681
-4.189291 -2.718317 -0.320943
-4.219146 -2.715505 -0.317491
-4.215745 -2.693882 -0.317771
-4.222672 -2.678102 -0.316922
-4.209021 -2.651104 -0.318394
-4.175511 -2.613640 -0.322106
-4.151227 -2.581594 -0.324810
-4.191152 -2.583851 -0.320369
-4.204205 -2.571693 -0.318949
-4.209236 -2.555329 -0.318447
-4.197411 -2.530382 -0.319847
-4.191537 -2.508667 -0.320603
-4.168939 -2.478752 -0.323245
-4.169934 -2.460829 -0.323276
-4.170353 -2.442696 -0.323391
-4.164316 -2.421524 -0.324245
-4.151165 -2.397108 -0.325910
-4.200089 -2.402172 -0.320688
-4.160554 -2.365571 -0.325326
-4.145535 -2.340766 -0.327253
-4.152313 -2.326111 -0.326778
-4.152125 -2.308327 -0.327096
-4.137868 -2.284373 -0.328991
-4.135627 -2.265912 -0.329572
-4.139750 -2.250297 -0.329468
-4.132195 -2.229715 -0.330673
-4.126421 -2.210032 -0.331698
-4.129400 -2.194123 -0.331776
-4.126886 -2.175987 -0.332477
-4.117809 -2.155276 -0.333918
-4.110108 -2.135275 -0.335223
-4.126407 -2.124903 -0.333913
-4.120615 -2.105802 -0.335045
-4.106176 -2.083493 -0.337139
-4.093898 -2.062212 -0.339011
-4.091229 -2.044711 -0.339849
-4.100057 -2.031537 -0.339454
-4.102831 -2.016121 -0.339738
-4.103166 -1.999853 -0.340306
-4.097565 -1.981535 -0.341536
-4.105515 -1.968046 -0.341318
-4.105583 -1.951818 -0.341972
-4.108690 -1.936666 -0.342318
-4.104661 -1.919152 -0.343451
-4.105198 -1.903222 -0.344112
-4.098341 -1.884944 -0.345583
-4.104063 -1.870777 -0.345727
-4.102927 -1.854451 -0.346625
-4.097780 -1.836942 -0.347967
-4.090806 -1.818973 -0.349520
-4.089048 -1.802666 -0.350537
-4.084913 -1.785719 -0.351824
-4.086371 -1.770460 -0.352541
-4.081634 -1.753471 -0.353927
-4.088552 -1.739804 -0.354113
-4.102858 -1.728119 -0.353552
-4.092251 -1.709648 -0.355610
-4.072813 -1.688990 -0.358597
-4.088452 -1.677613 -0.357967
-4.098635 -1.664731 -0.357929
-4.108649 -1.651736 -0.357935
-4.110171 -1.636605 -0.358838
-4.061426 -1.609486 -0.364890
-4.074569 -1.597342 -0.364636
-4.049868 -1.576430 -0.368245
-4.046248 -1.560508 -0.369727
-4.047224 -1.545653 -0.370763
-4.043830 -1.529876 -0.372257
-4.044347 -1.514974 -0.373376
-4.046256 -1.500375 -0.374374
-4.040948 -1.484336 -0.376107
-4.088136 -1.478616 -0.372670
-4.072965 -1.460592 -0.375418
-4.062456 -1.443600 -0.377713
-4.063501 -1.428819 -0.378887
-4.071507 -1.415275 -0.379400
-4.045105 -1.395782 -0.383259
-4.040516 -1.380194 -0.385008
-4.055364 -1.367815 -0.384901
-4.054266 -1.352814 -0.386336
-4.042144 -1.336167 -0.388825
-4.025040 -1.318923 -0.391781
-4.017299 -1.303203 -0.393845
-4.039497 -1.291715 -0.393099
-4.037692 -1.276843 -0.394611
-4.017894 -1.259702 -0.397789
-4.017346 -1.245164 -0.399167
-4.016343 -1.230608 -0.400579
-4.005207 -1.214935 -0.402908
-4.004830 -1.200585 -0.404235
-4.028304 -1.188790 -0.403382
-4.013285 -1.172944 -0.406005
-3.997700 -1.157229 -0.408644
-3.994610 -1.142849 -0.410128
-3.998266 -1.129135 -0.410979
-3.985755 -1.114114 -0.413234
-3.972347 -1.099197 -0.415524
-3.975575 -1.085685 -0.416300
-3.979619 -1.072267 -0.416963
-3.988128 -1.059173 -0.417192
-3.992262 -1.045819 -0.417756
-3.991215 -1.032223 -0.418717
-3.986498 -1.018538 -0.419937
-3.968570 -1.004370 -0.422232
-3.913125 -0.988868 -0.427683
-3.968906 -0.978166 -0.423496
-3.957241 -0.964818 -0.425038
-3.954516 -0.951942 -0.425739
-3.967892 -0.939608 -0.424989
-3.982631 -0.927309 -0.424049
-3.988032 -0.914850 -0.423827
-3.999865 -0.902556 -0.422978
-3.962943 -0.889863 -0.426196
-4.006532 -0.877990 -0.422478
-3.998119 -0.865856 -0.423101
-3.990959 -0.853923 -0.423535
-3.993230 -0.842119 -0.423080
-3.988393 -0.830514 -0.423148
-3.978155 -0.819164 -0.423596
-3.970395 -0.807989 -0.423752
-3.972144 -0.785799 -0.422344
-4.002045 -0.774068 -0.419014
-3.997015 -0.763406 -0.418617
-4.222341 -3.004375 -0.339928
-4.225797 -2.985246 -0.339037
-4.223132 -2.962296 -0.338818
-4.200456 -2.926864 -0.340732
-4.215577 -2.915490 -0.338703
-4.225588 -2.900883 -0.337238
-4.226019 -2.880400 -0.336809
-4.219810 -2.856004 -0.337108
-4.222101 -2.836905 -0.336538
-4.224454 -2.817930 -0.335987
-4.224774 -2.797844 -0.335679
-4.216157 -2.772664 -0.336343
-4.197808 -2.742095 -0.338065
-4.210771 -2.729695 -0.336495
-4.191982 -2.699345 -0.338316
-4.194711 -2.681323 -0.337880
-4.189739 -2.659121 -0.338286
-4.204052 -2.647601 -0.336667
-4.206323 -2.629509 -0.336351
-4.179072 -2.595722 -0.339194
-4.171152 -2.572556 -0.340006
-4.196337 -2.566866 -0.337324
-4.196732 -2.548170 -0.337297
-4.196970 -2.529478 -0.337310
-4.184496 -2.504452 -0.338694
-4.183402 -2.485336 -0.338891
-4.166621 -2.458573 -0.340775
-4.161340 -2.437695 -0.341458
-4.181300 -2.429132 -0.339482
-4.191089 -2.415575 -0.338608
-4.180243 -2.392265 -0.339943
-4.155462 -2.362668 -0.342772
-4.144242 -2.339658 -0.344183
-4.154401 -2.326564 -0.343350
-4.161396 -2.312009 -0.342873
-4.147505 -2.288185 -0.344622
-4.144884 -2.269521 -0.345200
-4.144403 -2.251880 -0.345570
-4.125475 -2.226431 -0.347902
-4.114951 -2.204797 -0.349365
-4.126267 -2.192437 -0.348550
-4.132688 -2.178006 -0.348270
-4.121308 -2.156346 -0.349877
-4.118857 -2.138444 -0.350565
-4.112200 -2.118967 -0.351710
-4.115162 -2.103369 -0.351869
-4.105803 -2.083058 -0.353332
-4.105671 -2.066403 -0.353851
-4.108742 -2.051003 -0.354055
-4.108681 -2.034470 -0.354604
-4.102770 -2.015862 -0.355779
-4.094362 -1.996472 -0.357228
-4.089449 -1.978455 -0.358333
-4.102586 -1.966827 -0.357596
-4.102774 -1.950668 -0.358214
-4.108177 -1.936318 -0.358318
-4.107231 -1.919846 -0.359092
-4.102600 -1.902220 -0.360262
-4.092809 -1.883019 -0.361976
-4.098680 -1.868939 -0.362113
-4.106401 -1.855421 -0.362084
-4.103269 -1.838526 -0.363177
-4.098019 -1.821062 -0.364503
-4.078742 -1.799512 -0.367259
-4.073744 -1.782374 -0.368590
-4.078589 -1.768156 -0.368952
-4.087944 -1.755202 -0.368887
-4.094163 -1.741319 -0.369160
-4.102350 -1.727946 -0.369261
-4.099744 -1.711632 -0.370457
-4.096604 -1.695235 -0.371724
-4.081686 -1.675859 -0.374168
-4.087899 -1.662013 -0.374550
-4.103864 -1.650559 -0.374003
-4.100266 -1.634213 -0.375393
-4.104914 -1.619898 -0.375999
-4.047975 -1.591163 -0.382590
-4.053110 -1.577222 -0.383173
-4.045175 -1.560327 -0.385036
-4.044541 -1.545134 -0.386212
-4.045619 -1.530339 -0.387243
-4.038559 -1.513851 -0.389066
-4.014774 -1.494027 -0.392484
-4.111915 -1.498644 -0.384504
-4.080066 -1.477167 -0.388722
-4.074915 -1.461103 -0.390435
-4.067635 -1.444714 -0.392357
-4.075061 -1.431076 -0.392924
-4.058792 -1.413217 -0.395696
-4.065175 -1.399417 -0.396386
-4.061774 -1.383948 -0.397987
-4.052567 -1.367595 -0.400122
-4.044832 -1.351583 -0.402124
-4.057633 -1.338798 -0.402273
-4.055213 -1.323670 -0.403804
-4.032362 -1.305671 -0.407160
-4.039232 -1.292022 -0.407854
-4.036029 -1.276992 -0.409444
-4.019227 -1.260272 -0.412225
-4.005457 -1.244118 -0.414719
-4.025776 -1.232198 -0.414217
-4.018544 -1.216963 -0.416113
-4.034654 -1.204405 -0.415970
-4.030976 -1.189653 -0.417524
-4.020013 -1.174245 -0.419678
-3.988486 -1.157007 -0.423551
-3.991593 -1.143286 -0.424432
-3.999905 -1.130045 -0.424845
-3.998168 -1.115958 -0.426073
-3.980318 -1.100692 -0.428612
-4.009824 -1.089136 -0.427143
-4.005945 -1.075083 -0.428423
-3.994943 -1.060680 -0.430240
-3.985271 -1.046535 -0.431889
-3.975351 -1.032548 -0.433496
-3.974891 -1.019222 -0.434261
-3.984858 -1.006485 -0.434108
-4.022814 -0.994956 -0.431606
-3.995582 -0.980699 -0.434363
-3.961027 -0.966530 -0.437635
-3.947827 -0.953405 -0.439088
-3.968431 -0.941378 -0.437719
-3.995020 -0.929428 -0.435791
-4.009564 -0.917170 -0.434761
-3.976494 -0.904275 -0.437507
-4.046455 -0.892760 -0.431824
-3.994897 -0.880140 -0.435903
-3.988394 -0.868137 -0.436248
-4.005567 -0.856269 -0.434588
-4.008768 -0.844491 -0.433978
-3.991343 -0.833031 -0.434962
-3.964035 -0.810794 -0.436086
-3.968862 -0.799652 -0.435020
-3.974135 -0.767157 -0.432107
-3.720019 -3.440904 -0.443703
-3.782572 -3.474894 -0.437117
-4.193868 -2.984750 -0.361464
-4.210022 -2.974005 -0.359282
-4.202713 -2.948214 -0.359454
-4.200079 -2.925596 -0.359193
-4.206100 -2.908549 -0.358101
-4.223044 -2.898307 -0.355947
-4.226997 -2.880016 -0.355114
-4.213729 -2.851354 -0.356030
-4.209540 -2.828422 -0.356069
-4.220269 -2.814516 -0.354641
-4.232314 -2.801364 -0.353107
-4.224869 -2.776840 -0.353554
-4.213748 -2.750401 -0.354398
-4.226754 -2.737943 -0.352843
-4.186278 -2.695301 -0.356695
-4.183047 -2.674008 -0.356826
-4.186633 -2.656613 -0.356296
-4.192575 -2.640560 -0.355552
-4.203584 -2.627268 -0.354321
-4.194891 -2.603426 -0.355100
-4.171330 -2.571931 -0.357404
-4.167226 -2.550960 -0.357768
-4.172640 -2.535041 -0.357194
-4.182662 -2.521500 -0.356178
-4.198319 -2.510777 -0.354616
-4.182878 -2.484438 -0.356213
-4.175901 -2.462537 -0.356979
-4.172900 -2.442736 -0.357364
-4.177051 -2.426498 -0.357050
-4.186501 -2.412818 -0.356223
-4.162399 -2.383311 -0.358798
-4.138913 -2.354436 -0.361329
-4.137365 -2.335984 -0.361671
-4.152212 -2.325071 -0.360384
-4.160796 -2.311257 -0.359749
-4.152845 -2.290089 -0.360796
-4.147126 -2.270054 -0.361637
-4.142606 -2.250670 -0.362377
-4.129410 -2.227696 -0.364006
-4.111325 -2.202869 -0.366140
-4.122137 -2.190332 -0.365402
-4.128509 -2.175917 -0.365129
-4.126288 -2.158011 -0.365735
-4.118815 -2.138087 -0.366882
-4.122569 -2.122738 -0.366930
-4.111457 -2.101613 -0.368475
-4.115091 -2.086333 -0.368574
-4.120112 -2.071597 -0.368557
-4.116848 -2.053765 -0.369379
-4.117510 -2.037469 -0.369833
-4.101748 -2.015246 -0.371925
-4.099683 -1.998149 -0.372683
-4.095592 -1.980408 -0.373659
-4.106685 -1.968047 -0.373166
-4.104262 -1.950983 -0.374019
-4.104257 -1.934809 -0.374654
-4.095250 -1.915683 -0.376186
-4.094072 -1.899262 -0.376973
-4.081790 -1.879311 -0.378857
-4.088123 -1.865444 -0.378954
-4.103211 -1.854295 -0.378230
-4.112931 -1.841382 -0.378050
-4.065759 -1.811187 -0.383356
-4.066089 -1.795647 -0.384111
-4.075629 -1.782839 -0.384007
-4.078215 -1.767971 -0.384591
-4.085909 -1.754559 -0.384711
-4.085942 -1.738976 -0.385581
-4.088207 -1.724036 -0.386261
-4.086826 -1.708129 -0.387305
-4.072142 -1.688767 -0.389618
-4.077160 -1.674670 -0.390099
-4.074440 -1.658592 -0.391325
-4.079651 -1.644542 -0.391832
-4.100669 -1.634319 -0.390900
-4.043926 -1.605356 -0.397173
-4.050214 -1.591713 -0.397636
-4.054235 -1.577516 -0.398329
-4.055843 -1.562765 -0.399264
-4.047915 -1.545931 -0.401085
-4.047666 -1.530846 -0.402223
-4.038794 -1.513979 -0.404155
-4.097171 -1.510998 -0.400062
-4.031814 -1.482723 -0.407089
-4.045860 -1.470604 -0.407014
-4.063285 -1.459017 -0.406666
-4.074872 -1.446201 -0.406860
-4.072567 -1.430784 -0.408296
-4.056114 -1.412920 -0.410979
-4.055172 -1.397895 -0.412310
-4.064996 -1.384695 -0.412716
-4.049418 -1.367314 -0.415328
-4.037997 -1.350759 -0.417578
-4.047349 -1.337503 -0.418047
-4.063825 -1.325238 -0.417921
-4.026849 -1.305203 -0.422332
-4.046530 -1.293379 -0.421940
-4.049379 -1.279153 -0.422970
-4.009585 -1.259436 -0.427552
-4.029331 -1.247522 -0.427152
-4.057604 -1.236481 -0.426053
-4.040742 -1.220029 -0.428669
-4.024494 -1.203843 -0.431205
-4.028915 -1.190037 -0.432024
-4.010853 -1.173965 -0.434645
-4.002507 -1.159048 -0.436441
-4.001018 -1.144892 -0.437649
-4.019834 -1.132582 -0.437198
-4.024981 -1.119031 -0.437810
-4.027092 -1.105263 -0.438624
-4.025911 -1.091304 -0.439653
-4.029477 -1.077759 -0.440260
-4.011017 -1.062832 -0.442543
-3.990446 -1.048024 -0.444926
-3.969494 -1.033463 -0.447270
-3.954452 -1.019483 -0.449082
-3.953890 -1.006416 -0.449701
-3.993573 -0.995192 -0.447137
-4.037826 -0.983913 -0.444161
-3.959248 -0.955463 -0.450890
-3.972524 -0.943292 -0.450082
-4.006845 -0.931600 -0.447578
-4.023071 -0.919422 -0.446388
-4.002917 -0.906721 -0.447914
-4.004233 -0.894532 -0.447706
-3.993089 -0.858724 -0.447747
-4.009140 -0.847015 -0.446067
-3.985436 -0.835679 -0.447383
-3.943486 -0.824890 -0.450045
-3.936049 -0.813985 -0.449956
-3.963188 -0.802582 -0.447088
-4.860187 -4.967286 -0.386174
-3.780715 -3.132352 -0.436619
-4.179798 -2.974531 -0.381338
-4.189167 -2.959521 -0.379828
-4.200512 -2.945779 -0.378160
-4.200207 -2.924664 -0.377611
-4.216218 -2.913874 -0.375559
-4.231449 -2.902521 -0.373605
-4.224144 -2.877301 -0.373800
-4.192937 -2.837807 -0.376283
-4.185950 -2.813345 -0.376513
-4.209597 -2.807267 -0.373873
-4.224336 -2.795778 -0.372099
-4.219227 -2.772680 -0.372233
-4.207977 -2.746222 -0.372978
-4.186180 -2.714004 -0.374755
-4.178598 -2.690157 -0.375210
-4.190203 -2.677195 -0.373863
-4.201536 -2.664044 -0.372566
-4.186621 -2.636545 -0.373797
-4.186284 -2.617182 -0.373662
-4.163207 -2.585787 -0.375724
-4.161202 -2.565873 -0.375798
-4.172762 -2.553154 -0.374600
-4.166023 -2.530946 -0.375174
-4.174275 -2.516555 -0.374339
-4.187251 -2.504540 -0.373075
-4.174957 -2.479855 -0.374248
-4.167029 -2.457547 -0.375027
-4.172275 -2.441834 -0.374570
-4.172394 -2.423673 -0.374623
-4.168423 -2.403641 -0.375090
-4.206748 -2.403644 -0.371540
-4.147236 -2.357781 -0.377351
-4.142881 -2.338009 -0.377917
-4.148734 -2.322994 -0.377531
-4.157832 -2.291832 -0.377070
-4.147001 -2.269549 -0.378335
-4.145962 -2.251686 -0.378689
-4.135068 -2.229694 -0.379998
-4.120592 -2.206374 -0.381666
-4.119418 -2.188811 -0.382090
-4.129771 -2.176061 -0.381443
-4.118799 -2.154613 -0.382835
-4.126299 -2.140737 -0.382500
-4.123954 -2.122952 -0.383116
-4.123030 -2.105805 -0.383616
-4.117125 -2.086809 -0.384606
-4.123615 -2.072633 -0.384450
-4.119560 -2.054500 -0.385304
-4.114417 -2.036062 -0.386279
-4.108931 -2.017605 -0.387305
-4.110610 -2.001826 -0.387680
-4.110302 -1.985377 -0.388262
-4.115129 -1.970770 -0.388386
-4.106895 -1.951681 -0.389744
-4.102742 -1.934102 -0.390740
-4.095667 -1.915639 -0.392026
-4.099208 -1.900774 -0.392351
-4.086556 -1.880690 -0.394186
-4.087449 -1.865080 -0.394795
-4.102132 -1.853817 -0.394162
-4.102786 -1.838129 -0.394837
-4.078684 -1.814981 -0.397786
-4.063765 -1.794847 -0.399910
-4.072006 -1.781679 -0.399951
-4.080218 -1.768458 -0.400019
-4.085338 -1.754317 -0.400391
-4.074378 -1.735691 -0.402228
-4.074711 -1.720290 -0.403070
-4.072366 -1.704201 -0.404171
-4.051154 -1.683202 -0.406968
-4.056946 -1.669416 -0.407381
-4.072373 -1.658045 -0.406967
-4.066553 -1.641273 -0.408451
-4.050107 -1.621998 -0.410882
-4.050796 -1.607001 -0.411826
-4.048001 -1.591210 -0.413093
-4.054398 -1.577578 -0.413580
-4.068001 -1.565526 -0.413468
-4.070491 -1.550929 -0.414338
-4.042904 -1.529881 -0.417803
-4.071465 -1.520898 -0.416478
-4.049961 -1.501406 -0.419441
-4.037948 -1.484044 -0.421601
-4.064342 -1.474321 -0.420534
-4.045294 -1.455711 -0.423308
-4.067872 -1.445039 -0.422609
-4.076155 -1.431588 -0.423126
-4.067610 -1.415116 -0.425051
-4.050389 -1.397263 -0.427691
-4.040296 -1.380786 -0.429742
-4.037696 -1.365644 -0.431181
-4.028687 -1.349545 -0.433143
-4.033394 -1.335649 -0.433993
-4.039109 -1.321887 -0.434766
-4.046838 -1.308388 -0.435382
-4.050684 -1.294311 -0.436309
-4.041541 -1.278494 -0.438260
-4.034976 -1.263130 -0.439992
-4.013521 -1.246011 -0.442873
-4.023967 -1.232952 -0.443238
-4.033238 -1.219701 -0.443685
-4.003470 -1.202096 -0.447131
-4.005932 -1.188226 -0.448056
-4.012347 -1.174784 -0.448654
-4.002934 -1.159806 -0.450431
-4.027554 -1.148108 -0.449589
-4.011308 -1.132667 -0.451809
-4.025613 -1.119977 -0.451682
-4.033366 -1.106714 -0.452010
-4.037291 -1.093170 -0.452580
-4.025250 -1.078556 -0.454286
-4.009984 -1.063921 -0.456170
-3.996073 -1.049588 -0.457888
-3.966343 -1.034572 -0.460704
-3.958729 -1.021063 -0.461820
-3.974903 -1.008858 -0.461125
-4.004314 -0.997196 -0.459396
-3.987300 -0.983558 -0.460993
-4.001522 -0.971276 -0.460235
-3.984956 -0.958031 -0.461645
-3.996202 -0.945792 -0.460951
-4.020709 -0.933886 -0.459211
-3.992912 -0.920916 -0.461201
-4.001438 -0.908839 -0.460463
-4.008369 -0.896805 -0.459759
-3.986535 -0.884645 -0.461072
-3.973397 -0.872814 -0.461671
-4.008220 -0.826808 -0.456852
-3.924397 -0.816916 -0.462298
-3.738942 -3.161524 -0.460806
-3.765934 -3.162011 -0.457438
-3.842814 -3.137125 -0.446470
-3.908936 -3.145136 -0.438745
-3.942249 -3.127148 -0.433753
-3.962563 -3.120752 -0.430975
-3.971922 -3.106129 -0.429129
-3.851646 -2.976262 -0.437261
-4.171802 -2.968288 -0.400525
-4.196896 -2.963468 -0.397634
-4.210722 -2.951271 -0.395756
-4.210060 -2.929883 -0.395180
-4.231349 -2.922339 -0.392695
-4.237818 -2.905487 -0.391546
-4.225364 -2.877095 -0.392102
-4.190723 -2.835539 -0.394663
-4.192575 -2.816409 -0.394015
-4.191093 -2.795391 -0.393694
-4.210169 -2.786575 -0.391566
-4.208499 -2.765581 -0.391315
-4.204844 -2.743574 -0.391270
-4.193437 -2.717308 -0.391948
-4.186899 -2.694024 -0.392218
-4.176282 -2.668649 -0.392882
-4.178705 -2.650686 -0.392402
-4.187174 -2.636088 -0.391403
-4.175800 -2.610788 -0.392215
-4.163002 -2.584958 -0.393181
-4.162602 -2.565909 -0.393056
-4.160385 -2.546008 -0.393120
-4.212130 -2.554060 -0.388341
-4.179215 -2.518418 -0.391220
-4.178889 -2.499678 -0.391184
-4.157429 -2.470488 -0.393079
-4.151783 -2.449421 -0.393570
-4.169090 -2.439689 -0.392012
-4.173268 -2.423516 -0.391662
-4.171776 -2.404676 -0.391846
-4.164928 -2.383411 -0.392535
-4.232680 -2.396991 -0.386519
-4.164046 -2.347224 -0.392824
-4.157172 -2.326329 -0.393580
-4.163737 -2.311609 -0.393147
-4.146930 -2.286533 -0.394840
-4.151638 -2.271126 -0.394617
-4.140796 -2.249015 -0.395814
-4.130190 -2.227190 -0.397008
-4.125728 -2.208133 -0.397671
-4.133177 -2.194145 -0.397287
-4.126110 -2.174178 -0.398224
-4.129728 -2.158680 -0.398225
-4.120400 -2.138025 -0.399403
-4.124790 -2.122944 -0.399377
-4.107895 -2.099582 -0.401268
-4.111023 -2.084152 -0.401394
-4.121069 -2.071368 -0.400928
-4.122409 -2.055278 -0.401257
-4.117646 -2.036978 -0.402147
-4.116289 -2.020019 -0.402755
-4.120434 -2.005097 -0.402898
-4.125498 -1.990508 -0.402982
-4.120718 -1.972489 -0.403954
-4.104790 -1.950743 -0.405922
-4.097110 -1.931995 -0.407184
-4.096490 -1.915720 -0.407847
-4.108581 -1.903664 -0.407423
-4.097920 -1.884186 -0.409002
-4.099730 -1.868821 -0.409516
-4.097489 -1.852213 -0.410402
-4.102185 -1.837803 -0.410710
-4.075363 -1.813845 -0.413752
-4.071689 -1.797085 -0.414816
-4.079453 -1.783748 -0.414921
-4.086026 -1.770027 -0.415152
-4.093473 -1.756525 -0.415333
-4.099927 -1.742707 -0.415623
-4.084898 -1.722997 -0.417752
-4.072930 -1.704288 -0.419635
-4.061793 -1.685947 -0.421463
-4.062649 -1.670843 -0.422301
-4.076436 -1.659038 -0.422082
-4.047752 -1.636575 -0.425417
-4.044326 -1.620573 -0.426665
-4.052849 -1.607485 -0.426945
-4.061985 -1.594485 -0.427199
-4.058513 -1.578535 -0.428509
-4.061149 -1.564014 -0.429337
-4.073231 -1.551566 -0.429418
-4.069208 -1.535572 -0.430824
-4.058771 -1.518296 -0.432760
-4.089182 -1.509517 -0.431435
-4.100564 -1.496661 -0.431662
-4.061669 -1.473900 -0.435900
-4.071514 -1.460824 -0.436274
-4.070308 -1.445624 -0.437536
-4.074890 -1.431509 -0.438354
-4.067675 -1.415296 -0.440104
-4.047574 -1.396967 -0.442854
-4.027542 -1.378866 -0.445589
-4.040348 -1.366303 -0.445795
-4.008462 -1.346615 -0.449424
-4.021955 -1.334182 -0.449584
-4.038736 -1.322138 -0.449505
-4.053891 -1.309735 -0.449558
-4.042840 -1.293592 -0.451576
-4.043048 -1.279096 -0.452739
-4.017992 -1.261370 -0.455761
-4.007939 -1.245785 -0.457645
-3.982248 -1.228461 -0.460651
-3.987936 -1.215034 -0.461332
-4.022160 -1.204761 -0.459923
-3.992878 -1.187485 -0.463098
-3.985252 -1.172729 -0.464667
-4.040381 -1.164185 -0.461708
-4.024538 -1.148640 -0.463803
-4.005116 -1.132987 -0.466103
-4.003678 -1.119078 -0.467077
-4.029737 -1.107425 -0.466068
-4.014670 -1.092551 -0.467907
-4.007615 -1.078453 -0.469125
-4.017966 -1.065645 -0.469069
-4.008177 -1.051600 -0.470357
-3.989823 -1.037243 -0.472172
-3.990679 -1.024154 -0.472586
-4.002183 -1.011675 -0.472197
-4.001907 -0.998681 -0.472552
-3.994752 -0.985522 -0.473307
-3.993971 -0.972763 -0.473548
-4.020227 -0.960985 -0.471853
-4.015312 -0.948247 -0.472223
-3.989437 -0.935176 -0.473954
-3.973961 -0.922641 -0.474891
-3.988647 -0.910828 -0.473672
-3.970671 -0.898644 -0.474622
-3.987982 -0.887007 -0.473058
-3.960528 -0.875188 -0.474507
-4.037561 -0.829273 -0.466529
-3.968187 -0.808241 -0.469634
-3.799526 -3.101974 -0.467243
-3.920971 -3.153070 -0.455631
-3.953804 -3.112991 -0.449634
-3.948690 -3.066509 -0.447848
-4.049931 -3.075492 -0.436759
-4.131495 -2.982849 -0.423831
-4.151189 -2.974820 -0.421428
-4.191116 -2.979816 -0.417391
-4.229808 -2.962427 -0.412744
-4.235630 -2.924038 -0.410908
-4.234987 -2.902778 -0.410330
-4.216174 -2.870535 -0.411291
-4.196980 -2.838415 -0.412321
-4.192238 -2.815310 -0.412182
-4.193200 -2.795761 -0.411597
-4.196295 -2.777564 -0.410862
-4.197309 -2.758230 -0.410329
-4.203921 -2.742209 -0.409353
-4.205076 -2.723112 -0.408863
-4.201104 -2.701219 -0.408832
-4.189428 -2.675189 -0.409478
-4.172994 -2.646777 -0.410556
-4.180640 -2.631779 -0.409627
-4.196774 -2.621361 -0.408006
-4.192883 -2.600174 -0.408103
-4.150199 -2.558672 -0.411513
-4.185034 -2.558180 -0.408381
-4.186299 -2.540064 -0.408118
-4.221984 -2.539574 -0.404958
-4.166918 -2.493004 -0.409525
-4.165016 -2.473652 -0.409604
-4.158690 -2.452224 -0.410083
-4.172268 -2.440647 -0.408894
-4.200517 -2.436064 -0.406483
-4.177187 -2.406692 -0.408476
-4.162162 -2.381565 -0.409786
-4.152685 -2.359262 -0.410648
-4.151317 -2.340862 -0.410843
-4.176748 -2.334715 -0.408787
-4.171671 -2.314682 -0.409342
-4.173186 -2.297695 -0.409360
-4.139217 -2.265237 -0.412407
-4.142280 -2.249218 -0.412336
-4.120841 -2.222776 -0.414360
-4.125610 -2.207674 -0.414188
-4.127377 -2.191335 -0.414291
-4.125314 -2.173468 -0.414739
-4.124205 -2.156071 -0.415127
-4.126175 -2.139978 -0.415277
-4.109745 -2.116660 -0.416996
-4.101518 -2.096769 -0.418043
-4.107058 -2.082311 -0.417955
-4.113594 -2.068228 -0.417807
-4.116831 -2.052899 -0.417956
-4.112199 -2.034688 -0.418785
-4.106013 -2.016013 -0.419762
-4.111973 -2.001806 -0.419749
-4.116923 -1.987231 -0.419842
-4.113830 -1.969854 -0.420625
-4.094972 -1.947151 -0.422730
-4.090819 -1.929655 -0.423637
-4.102548 -1.917533 -0.423257
-4.106138 -1.902670 -0.423570
-4.107783 -1.887186 -0.424065
-4.105221 -1.870393 -0.424926
-4.094466 -1.851105 -0.426475
-4.092938 -1.834805 -0.427289
-4.096824 -1.820198 -0.427686
-4.093494 -1.803444 -0.428689
-4.093567 -1.787756 -0.429437
-4.088058 -1.770498 -0.430654
-4.097122 -1.757452 -0.430723
-4.103054 -1.743481 -0.431067
-4.090666 -1.724485 -0.432892
-4.074868 -1.704731 -0.435002
-4.075076 -1.689375 -0.435859
-4.106833 -1.682195 -0.434253
-4.063529 -1.655720 -0.438571
-4.054024 -1.638096 -0.440243
-4.048359 -1.621528 -0.441630
-4.065904 -1.610584 -0.441233
-4.068179 -1.595926 -0.442044
-4.070238 -1.581224 -0.442892
-4.040860 -1.559481 -0.446164
-4.059864 -1.548662 -0.445747
-4.067001 -1.535139 -0.446259
-4.071929 -1.521109 -0.446959
-4.073790 -1.506429 -0.447907
-4.095155 -1.495660 -0.447411
-4.096827 -1.480865 -0.448410
-4.066616 -1.460003 -0.451785
-4.064810 -1.444733 -0.453054
-4.037141 -1.424823 -0.456229
-4.061399 -1.414358 -0.455599
-4.047973 -1.397223 -0.457731
-4.026024 -1.378822 -0.460475
-4.000011 -1.359998 -0.463497
-4.022164 -1.349029 -0.463055
-4.015019 -1.333408 -0.464713
-4.059346 -1.325504 -0.462718
-4.051830 -1.309787 -0.464402
-4.053671 -1.295474 -0.465417
-4.055300 -1.281153 -0.466437
-4.046317 -1.265484 -0.468180
-4.020352 -1.247822 -0.471071
-4.014384 -1.232846 -0.472553
-4.012120 -1.218399 -0.473755
-4.024102 -1.205602 -0.473962
-4.012712 -1.190264 -0.475729
-3.975254 -1.172433 -0.479212
-4.010140 -1.162035 -0.477787
-4.001806 -1.147377 -0.479229
-3.994154 -1.132921 -0.480579
-4.001677 -1.119874 -0.480874
-3.992901 -1.105543 -0.482198
-3.981517 -1.091172 -0.483638
-3.969825 -1.076962 -0.485038
-4.017948 -1.066894 -0.482466
-4.017998 -1.053529 -0.482983
-4.007130 -1.039631 -0.484145
-4.000999 -1.026176 -0.484928
-4.006022 -1.013422 -0.484918
-4.005411 -1.000480 -0.485202
-3.994386 -0.987230 -0.486084
-3.997513 -0.974699 -0.485975
-4.037399 -0.950865 -0.483351
-4.001678 -0.937536 -0.485519
-4.006736 -0.925445 -0.484970
-3.960512 -0.889172 -0.486831
-3.995222 -0.877821 -0.484027
-3.933297 -0.866234 -0.487463
-4.077317 -0.831733 -0.475631
-4.029851 -0.821099 -0.477836
-3.924171 -3.154230 -0.473259
-3.927652 -3.135211 -0.471790
-3.943644 -3.104203 -0.468273
-4.052095 -3.119071 -0.457007
-4.050919 -3.096563 -0.455988
-4.058894 -3.080714 -0.454327
-4.076281 -3.050120 -0.450975
-4.143985 -3.032538 -0.443015
-4.213269 -2.950903 -0.432684
-4.240410 -2.947058 -0.429855
-4.237603 -2.924308 -0.429354
-4.207755 -2.885014 -0.430975
-4.206634 -2.863780 -0.430414
-4.198589 -2.838488 -0.430421
-4.201628 -2.820051 -0.429598
-4.196465 -2.796829 -0.429444
-4.194266 -2.775521 -0.429089
-4.191786 -2.754187 -0.428786
-4.197104 -2.737470 -0.427901
-4.208542 -2.724274 -0.426561
-4.203831 -2.701962 -0.426518
-4.200450 -2.680550 -0.426399
-4.194876 -2.658071 -0.426481
-4.194001 -2.638315 -0.426221
-4.218723 -2.632457 -0.423961
-4.226672 -2.617467 -0.423052
-4.204148 -2.586419 -0.424586
-4.185179 -2.557577 -0.425866
-4.207946 -2.550558 -0.423859
-4.190685 -2.522963 -0.425057
-4.178214 -2.498067 -0.425901
-4.180811 -2.480908 -0.425571
-4.173650 -2.458995 -0.426042
-4.172476 -2.440161 -0.426061
-4.205624 -2.437945 -0.423371
-4.217257 -2.425200 -0.422417
-4.170775 -2.385074 -0.426117
-4.148140 -2.356624 -0.427940
-4.148798 -2.339194 -0.427931
-4.162767 -2.327870 -0.426885
-4.173640 -2.315078 -0.426109
-4.145710 -2.285056 -0.428444
-4.164789 -2.275967 -0.427061
-4.131824 -2.244259 -0.429838
-4.137975 -2.229660 -0.429527
-4.133318 -2.210508 -0.430097
-4.133102 -2.193316 -0.430337
-4.123841 -2.172476 -0.431314
-4.122409 -2.154969 -0.431692
-4.129012 -2.140751 -0.431457
-4.119609 -2.120205 -0.432509
-4.112268 -2.100620 -0.433417
-4.110759 -2.083409 -0.433886
-4.107130 -2.065466 -0.434544
-4.100168 -2.046369 -0.435483
-4.098981 -2.029526 -0.435990
-4.099848 -2.013494 -0.436357
-4.106144 -1.999450 -0.436321
-4.110833 -1.984823 -0.436435
-4.095721 -1.963307 -0.438111
-4.091912 -1.945868 -0.438927
-4.111120 -1.936291 -0.437980
-4.105392 -1.918266 -0.438988
-4.100446 -1.900601 -0.439955
-4.105598 -1.886288 -0.440165
-4.105592 -1.870327 -0.440795
-4.086155 -1.848334 -0.442931
-4.085087 -1.832227 -0.443681
-4.094635 -1.819382 -0.443643
-4.102529 -1.805988 -0.443757
-4.089716 -1.786494 -0.445460
-4.084006 -1.769207 -0.446643
-4.076543 -1.751516 -0.447976
-4.091157 -1.740068 -0.447674
-4.089759 -1.724140 -0.448594
-4.074356 -1.704506 -0.450575
-4.064858 -1.686609 -0.452131
-4.078917 -1.674919 -0.451963
-4.054622 -1.653406 -0.454641
-4.068875 -1.641737 -0.454503
-4.084535 -1.630302 -0.454290
-4.073147 -1.612286 -0.456069
-4.072608 -1.596946 -0.457075
-4.068235 -1.580762 -0.458373
-4.081429 -1.568584 -0.458427
-4.061733 -1.549092 -0.460852
-4.062543 -1.534216 -0.461824
-4.053179 -1.517224 -0.463530
-4.064184 -1.504522 -0.463811
-4.080880 -1.492881 -0.463714
-4.063829 -1.474512 -0.465991
-4.058400 -1.458548 -0.467461
-4.020566 -1.436639 -0.471170
-4.052441 -1.427742 -0.470079
-4.057930 -1.413916 -0.470818
-4.061613 -1.399757 -0.471687
-4.037755 -1.380995 -0.474422
-4.049704 -1.368295 -0.474736
-4.024864 -1.349720 -0.477515
-4.052793 -1.339474 -0.476767
-4.046141 -1.323878 -0.478318
-4.053192 -1.310345 -0.478957
-4.051373 -1.295554 -0.480169
-4.062569 -1.282564 -0.480521
-4.060007 -1.267731 -0.481754
-4.044132 -1.251304 -0.483823
-4.033458 -1.235696 -0.485527
-4.023335 -1.220300 -0.487163
-4.014748 -1.205219 -0.488667
-3.981549 -1.187650 -0.491688
-3.988391 -1.174525 -0.492140
-3.984041 -1.160309 -0.493257
-3.988144 -1.146983 -0.493805
-4.003918 -1.134723 -0.493587
-4.002682 -1.120965 -0.494379
-3.994844 -1.106769 -0.495525
-4.017385 -1.095009 -0.494750
-4.020340 -1.081748 -0.495124
-3.978099 -1.065543 -0.498196
-3.996172 -1.053549 -0.497520
-4.012231 -1.041379 -0.496905
-4.000417 -1.027675 -0.497915
-3.993515 -1.014419 -0.498556
-4.010606 -1.002414 -0.497670
-3.984268 -0.976072 -0.499338
-4.036306 -0.965388 -0.496109
-3.969115 -0.915013 -0.499088
-3.999059 -0.891969 -0.496236
-3.956162 -0.868850 -0.497539
-3.952040 -0.846681 -0.496167
-3.977268 -3.149730 -0.485130
-3.962070 -3.116708 -0.484892
-4.052947 -3.075364 -0.473000
-4.067219 -3.064033 -0.470934
-4.125187 -3.040064 -0.463819
-4.151278 -3.036407 -0.461016
-4.216334 -3.015516 -0.453633
-4.214138 -2.971550 -0.452035
-4.202128 -2.942838 -0.452060
-4.202463 -2.922185 -0.451243
-4.166636 -2.879098 -0.453041
-4.212273 -2.886879 -0.449048
-4.204479 -2.861556 -0.448908
-4.208334 -2.843494 -0.447961
-4.208583 -2.823341 -0.447305
-4.217424 -2.808391 -0.446056
-4.203686 -2.780204 -0.446474
-4.194433 -2.754898 -0.446599
-4.193450 -2.734561 -0.446154
-4.199718 -2.718462 -0.445208
-4.196777 -2.697215 -0.444963
-4.197422 -2.678099 -0.444484
-4.197311 -2.658661 -0.444089
-4.214899 -2.648957 -0.442418
-4.209754 -2.626903 -0.442447
-4.204149 -2.604759 -0.442538
-4.178885 -2.572417 -0.444111
-4.187050 -2.557878 -0.443240
-4.205627 -2.548700 -0.441623
-4.207515 -2.530893 -0.441267
-4.202838 -2.509845 -0.441423
-4.187697 -2.483724 -0.442383
-4.168497 -2.455858 -0.443671
-4.159087 -2.433059 -0.444257
-4.163884 -2.417282 -0.443811
-4.188404 -2.410912 -0.441924
-4.173683 -2.385899 -0.442978
-4.149704 -2.356825 -0.444746
-4.141275 -2.335230 -0.445381
-4.148129 -2.320731 -0.444902
-4.133091 -2.296420 -0.446075
-4.152910 -2.287773 -0.444679
-4.138290 -2.263921 -0.445867
-4.139268 -2.247032 -0.445917
-4.141495 -2.230731 -0.445898
-4.146911 -2.215814 -0.445665
-4.137444 -2.194716 -0.446559
-4.122295 -2.171451 -0.447895
-4.124200 -2.155316 -0.447989
-4.121310 -2.137305 -0.448460
-4.132566 -2.124964 -0.447909
-4.126309 -2.105745 -0.448673
-4.123863 -2.088112 -0.449178
-4.104428 -2.064124 -0.450952
-4.096881 -2.044834 -0.451872
-4.094577 -2.027608 -0.452428
-4.098141 -2.012590 -0.452577
-4.112838 -2.001574 -0.451935
-4.104519 -1.982330 -0.452996
-4.094935 -1.962780 -0.454168
-4.095520 -1.946863 -0.454621
-4.106521 -1.934504 -0.454343
-4.105588 -1.918109 -0.454951
-4.090656 -1.897181 -0.456590
-4.079433 -1.877644 -0.457978
-4.089169 -1.864918 -0.457882
-4.069279 -1.842877 -0.459927
-4.081878 -1.831066 -0.459672
-4.091320 -1.818214 -0.459667
-4.081551 -1.799590 -0.461049
-4.079385 -1.783325 -0.461910
-4.078205 -1.767402 -0.462722
-4.082504 -1.753076 -0.463170
-4.089762 -1.739563 -0.463435
-4.092524 -1.724787 -0.464036
-4.069464 -1.703098 -0.466451
-4.061562 -1.685655 -0.467826
-4.073909 -1.673548 -0.467822
-4.096895 -1.664046 -0.467116
-4.047840 -1.636455 -0.471360
-4.072072 -1.627220 -0.470612
-4.066007 -1.610547 -0.471947
-4.067715 -1.595779 -0.472772
-4.095701 -1.587041 -0.471852
-4.082119 -1.568741 -0.473742
-4.045502 -1.545546 -0.477170
-4.050864 -1.531738 -0.477812
-4.056571 -1.517978 -0.478449
-4.068029 -1.505369 -0.478726
-4.082173 -1.493216 -0.478847
-4.071913 -1.476185 -0.480570
-4.009189 -1.449277 -0.485679
-4.020289 -1.436717 -0.486017
-4.048017 -1.427093 -0.485308
-4.075558 -1.417201 -0.484635
-4.062798 -1.400159 -0.486528
-4.068931 -1.386423 -0.487226
-4.058537 -1.369980 -0.488960
-4.061835 -1.355824 -0.489833
-4.053926 -1.339959 -0.491395
-4.055483 -1.325607 -0.492363
-4.044422 -1.309467 -0.494092
-4.037091 -1.293988 -0.495574
-4.040601 -1.280074 -0.496380
-4.052090 -1.267206 -0.496692
-4.057285 -1.253493 -0.497365
-4.028628 -1.235704 -0.500029
-4.019621 -1.220506 -0.501485
-3.999174 -1.204172 -0.503579
-4.016086 -1.192072 -0.503439
-3.997680 -1.176267 -0.505330
-4.015612 -1.164247 -0.505062
-4.110151 -1.159281 -0.500328
-3.983769 -1.133918 -0.508315
-4.020962 -1.123560 -0.506809
-4.064228 -1.113440 -0.504916
-4.046231 -1.098391 -0.506476
-4.045331 -1.084806 -0.506997
-4.009068 -1.068952 -0.509462
-4.020280 -1.056481 -0.509163
-4.009719 -1.042741 -0.510031
-3.992804 -1.028847 -0.511187
-4.038085 -0.980012 -0.508695
-4.018397 -0.966815 -0.509632
-4.027301 -0.942497 -0.508543
-4.015909 -0.860354 -0.504667
-3.999884 -3.143626 -0.500547
-4.059265 -3.078724 -0.490833
-4.112140 -3.030107 -0.483089
-4.212070 -3.011706 -0.472671
-4.221763 -2.996699 -0.471100
-4.218353 -2.973279 -0.470407
-4.208114 -2.945688 -0.470195
-4.214597 -2.908082 -0.468108
-4.207549 -2.883052 -0.467789
-4.211509 -2.864956 -0.466776
-4.198020 -2.836379 -0.466953
-4.223988 -2.831696 -0.464534
-4.239476 -2.820601 -0.462837
-4.228200 -2.793740 -0.462960
-4.209519 -2.762834 -0.463616
-4.187117 -2.730127 -0.464559
-4.186072 -2.709926 -0.464095
-4.182284 -2.688299 -0.463847
-4.185907 -2.670941 -0.463125
-4.208651 -2.664157 -0.461130
-4.216904 -2.649317 -0.460145
-4.205955 -2.624142 -0.460497
-4.186692 -2.594764 -0.461448
-4.173242 -2.568765 -0.462033
-4.180116 -2.553599 -0.461253
-4.195129 -2.542636 -0.459939
-4.194970 -2.523860 -0.459693
-4.224091 -2.519920 -0.457457
-4.196681 -2.487586 -0.459139
-4.172964 -2.457463 -0.460596
-4.152386 -2.429218 -0.461863
-4.151122 -2.410576 -0.461824
-4.155770 -2.394837 -0.461402
-4.169260 -2.383280 -0.460393
-4.149373 -2.356148 -0.461715
-4.131138 -2.330068 -0.462947
-4.128680 -2.311415 -0.463113
-4.128016 -2.293664 -0.463179
-4.137083 -2.280296 -0.462596
-4.147855 -2.267644 -0.461919
-4.148595 -2.250613 -0.461959
-4.145833 -2.232147 -0.462264
-4.142648 -2.213598 -0.462622
-4.133067 -2.192489 -0.463443
-4.120752 -2.170423 -0.464474
-4.116804 -2.151937 -0.464952
-4.121950 -2.120415 -0.465077
-4.131199 -2.107299 -0.464716
-4.119015 -2.085913 -0.465847
-4.104708 -2.063905 -0.467144
-4.103140 -2.046860 -0.467591
-4.113668 -2.034340 -0.467235
-4.114717 -2.018320 -0.467548
-4.118910 -2.003465 -0.467671
-4.106403 -1.982723 -0.468949
-4.100828 -1.964570 -0.469778
-4.102582 -1.949032 -0.470131
-4.111768 -1.936034 -0.470008
-4.102137 -1.916729 -0.471173
-4.073849 -1.891454 -0.473607
-4.072878 -1.875319 -0.474228
-4.072609 -1.859459 -0.474823
-4.096438 -1.851172 -0.473838
-4.106238 -1.838374 -0.473814
-4.098526 -1.820220 -0.474972
-4.089879 -1.801904 -0.476209
-4.093806 -1.787390 -0.476640
-4.090376 -1.770758 -0.477574
-4.093133 -1.755944 -0.478124
-4.091796 -1.740002 -0.478962
-4.075905 -1.720136 -0.480762
-4.073577 -1.704094 -0.481700
-4.061738 -1.685605 -0.483267
-4.057712 -1.669281 -0.484347
-4.100265 -1.664824 -0.482481
-4.090923 -1.647093 -0.483944
-4.047579 -1.621202 -0.487566
-4.052819 -1.607358 -0.488129
-4.073760 -1.597164 -0.487731
-4.102678 -1.588622 -0.486865
-4.058397 -1.563420 -0.490564
-4.054555 -1.547544 -0.491759
-4.049501 -1.531472 -0.493040
-4.066355 -1.520073 -0.492995
-4.083816 -1.508664 -0.492935
-4.093218 -1.495504 -0.493383
-4.078277 -1.477524 -0.495308
-4.053851 -1.457906 -0.497796
-4.037344 -1.440023 -0.499805
-4.037106 -1.425273 -0.500847
-4.068937 -1.416216 -0.500010
-4.071207 -1.401812 -0.500921
-4.058061 -1.384844 -0.502726
-4.062460 -1.370881 -0.503507
-4.057314 -1.355408 -0.504834
-4.057791 -1.340879 -0.505829
-4.049838 -1.325134 -0.507292
-4.027570 -1.307446 -0.509544
-4.010952 -1.290792 -0.511451
-4.031562 -1.279340 -0.511253
-4.079050 -1.271234 -0.509556
-4.043835 -1.252384 -0.512425
-4.035058 -1.237099 -0.513796
-4.012256 -1.220321 -0.515897
-4.004707 -1.205510 -0.517123
-3.993411 -1.190426 -0.518512
-4.072624 -1.184788 -0.514983
-4.046325 -1.168161 -0.517104
-4.054250 -1.155045 -0.517338
-4.011713 -1.137434 -0.520211
-4.006305 -1.123424 -0.521047
-4.020909 -1.111153 -0.520767
-4.047207 -1.099729 -0.519816
-4.049119 -1.086418 -0.520094
-4.052840 -1.073307 -0.520212
-4.001090 -1.056756 -0.523172
-4.010349 -1.044341 -0.522861
-4.004687 -1.031135 -0.523262
-3.949490 -1.003144 -0.526142
-3.986132 -0.992377 -0.524109
-3.954920 -0.966710 -0.525289
-4.017168 -0.944482 -0.521245
-4.034434 -0.852012 -0.514109
-4.162724 -3.020686 -0.496363
-4.195407 -2.999787 -0.492388
-4.215450 -2.991618 -0.490215
-4.221622 -2.932374 -0.487052
-4.205044 -2.901212 -0.487181
-4.217285 -2.888159 -0.485609
-4.212277 -2.864541 -0.485110
-4.200860 -2.837229 -0.485036
-4.225840 -2.831947 -0.482772
-4.214911 -2.805212 -0.482732
-4.242312 -2.801180 -0.480368
-4.202245 -2.757808 -0.482190
-4.171631 -2.720453 -0.483472
-4.187781 -2.710122 -0.481891
-4.185548 -2.689374 -0.481478
-4.186132 -2.670321 -0.480920
-4.225250 -2.672547 -0.477978
-4.230262 -2.655859 -0.477194
-4.207660 -2.624352 -0.478173
-4.182230 -2.591700 -0.479364
-4.179563 -2.571419 -0.479153
-4.191405 -2.558816 -0.478053
-4.170667 -2.437537 -0.477823
-4.141397 -2.405337 -0.479524
-4.171102 -2.401575 -0.477491
-4.160002 -2.378391 -0.478085
-4.157036 -2.359182 -0.478185
-4.126029 -2.327217 -0.480102
-4.123546 -2.308594 -0.480222
-4.136358 -2.296917 -0.479389
-4.146377 -2.283936 -0.478759
-4.172310 -2.277869 -0.477137
-4.185140 -2.265935 -0.476376
-4.137423 -2.228126 -0.479505
-4.120079 -2.203676 -0.480717
-4.117186 -2.185479 -0.481030
-4.118000 -2.168896 -0.481131
-4.118548 -2.152257 -0.481271
-4.110066 -2.132064 -0.482009
-4.106719 -2.114044 -0.482443
-4.112481 -2.099661 -0.482321
-4.102599 -2.079268 -0.483215
-4.100259 -2.061890 -0.483652
-4.110405 -2.049253 -0.483323
-4.114604 -2.034374 -0.483394
-4.111153 -2.016724 -0.483970
-4.112331 -2.000819 -0.484277
-4.097293 -1.979229 -0.485625
-4.097456 -1.963128 -0.486039
-4.113671 -1.952573 -0.485474
-4.125300 -1.940352 -0.485221
-4.102624 -1.916651 -0.487126
-4.075498 -1.891766 -0.489322
-4.083156 -1.878414 -0.489381
-4.085888 -1.863464 -0.489768
-4.089976 -1.848951 -0.490094
-4.098046 -1.835662 -0.490201
-4.105113 -1.822029 -0.490393
-4.101547 -1.805202 -0.491256
-4.088421 -1.785651 -0.492719
-4.095980 -1.772215 -0.492948
-4.088076 -1.754370 -0.494132
-4.033197 -1.723594 -0.498149
-4.068203 -1.717911 -0.496792
-4.067834 -1.702441 -0.497576
-4.058864 -1.684746 -0.498889
-4.058210 -1.669317 -0.499726
-4.079936 -1.659594 -0.499267
-4.085659 -1.645715 -0.499773
-4.051165 -1.622017 -0.502639
-4.052250 -1.607176 -0.503443
-4.069005 -1.596019 -0.503361
-4.055789 -1.577864 -0.505022
-4.065308 -1.564964 -0.505394
-4.072966 -1.551592 -0.505890
-4.071698 -1.536260 -0.506907
-4.069195 -1.520710 -0.508005
-4.079321 -1.507803 -0.508406
-4.093819 -1.495704 -0.508581
-4.076431 -1.477263 -0.510532
-4.064638 -1.460084 -0.512171
-4.061721 -1.444699 -0.513323
-4.073924 -1.432113 -0.513657
-4.063397 -1.415432 -0.515225
-4.060483 -1.400190 -0.516377
-4.055462 -1.384659 -0.517636
-4.061211 -1.370960 -0.518318
-4.066183 -1.357121 -0.519035
-4.062895 -1.342010 -0.520179
-4.040781 -1.324175 -0.522288
-4.009658 -1.305292 -0.524834
-4.009345 -1.291030 -0.525759
-4.064222 -1.284245 -0.523840
-4.058186 -1.269086 -0.525028
-4.054301 -1.254304 -0.526076
-4.043896 -1.238825 -0.527421
-4.002820 -1.219930 -0.530263
-3.980426 -1.203556 -0.532118
-4.029630 -1.195129 -0.530372
-4.017583 -1.180029 -0.531631
-4.048474 -1.169331 -0.530727
-4.041690 -1.127590 -0.532617
-4.055664 -1.088288 -0.532978
-3.995125 -1.045057 -0.536347
-4.033374 -1.034422 -0.534510
-3.985883 -1.006692 -0.536599
-4.043433 -0.923591 -0.530687
-3.576969 -3.205091 -0.580664
-4.149643 -3.010935 -0.515597
-4.223247 -2.995699 -0.508502
-4.224020 -2.974992 -0.507446
-4.211235 -2.924913 -0.506205
-4.204890 -2.900212 -0.505637
-4.210711 -2.883215 -0.504437
-4.209496 -2.861969 -0.503654
-4.209095 -2.841348 -0.502858
-4.205835 -2.819139 -0.502252
-4.189189 -2.789161 -0.502426
-4.191898 -2.770834 -0.501555
-4.198199 -2.754665 -0.500512
