ply
format ascii 1.0
comment ---
element vertex 1594
property float x
property float y
property float z
element face 0
property list uchar uint vertex_indices
end_header
-3.977547 -1.162644 -0.193304
-3.971093 -1.151313 -0.193177
-3.968250 -1.138510 -0.193535
-3.962821 -1.126741 -0.193570
-3.964515 -1.111977 -0.194551
-3.958248 -1.100511 -0.194504
-3.955988 -1.087321 -0.194995
-3.954213 -1.073878 -0.195563
-3.948020 -1.062342 -0.195558
-3.946908 -1.048534 -0.196235
-3.950310 -1.032629 -0.197521
-3.955033 -1.016016 -0.198994
-3.947690 -1.004898 -0.198866
-3.946184 -0.991060 -0.199519
-3.945107 -0.976980 -0.200232
-3.941857 -0.963910 -0.200652
-3.941949 -0.949199 -0.201519
-3.942068 -0.934431 -0.202386
-3.938257 -0.921590 -0.202712
-3.938406 -0.906759 -0.203564
-3.936463 -0.892971 -0.204116
-3.937022 -0.877893 -0.204992
-3.935133 -0.864080 -0.205512
-3.930498 -0.851742 -0.205629
-3.921746 -0.841669 -0.205149
-3.920144 -0.827844 -0.205616
-3.929113 -0.808277 -0.207504
-3.937775 -0.788808 -0.209315
-3.933603 -0.776459 -0.209306
-3.928542 -0.764716 -0.209124
-3.918341 -0.756032 -0.208173
-3.908209 -0.747502 -0.207173
-3.900577 -0.737720 -0.206458
-3.912908 -0.716383 -0.208460
-3.916597 -0.700143 -0.209195
-3.920134 -0.684068 -0.209841
-3.924027 -0.667863 -0.210467
-3.924654 -0.653743 -0.210564
-3.918710 -0.643803 -0.209672
-3.895427 -0.644849 -0.206287
-3.884093 -0.638812 -0.204496
-3.884751 -0.625475 -0.204301
-3.886170 -0.611810 -0.204137
-3.894571 -0.593815 -0.204868
-3.898348 -0.578899 -0.204879
-4.245794 -3.505821 -0.294905
-4.273232 -3.506764 -0.299619
-4.282269 -3.498724 -0.301429
-4.245706 -3.469400 -0.296134
-4.234519 -3.451801 -0.294660
-4.257506 -3.449571 -0.298368
-4.285022 -3.448982 -0.302693
-4.287640 -3.436942 -0.303093
-4.268773 -3.415295 -0.300095
-4.271917 -3.403203 -0.300407
-4.268496 -3.388110 -0.299625
-4.257862 -3.369846 -0.297651
-4.262594 -3.357980 -0.297964
-4.257632 -3.341923 -0.296709
-4.251184 -3.325183 -0.295154
-4.247526 -3.309520 -0.293958
-4.249681 -3.296107 -0.293585
-4.244498 -3.279688 -0.292028
-4.231626 -3.260250 -0.289243
-4.235805 -3.247406 -0.289002
-4.242248 -3.235309 -0.289050
-4.241526 -3.220417 -0.287964
-4.247725 -3.208031 -0.287880
-4.247391 -3.193176 -0.286769
-4.234593 -3.173844 -0.283754
-4.227282 -3.156558 -0.281541
-4.228788 -3.142394 -0.280627
-4.222193 -3.125443 -0.278483
-4.221702 -3.110617 -0.277235
-4.226203 -3.097458 -0.276714
-4.229764 -3.083960 -0.276040
-4.231364 -3.069817 -0.275068
-4.226489 -3.053640 -0.273141
-4.222764 -3.037901 -0.271385
-4.221886 -3.023101 -0.270051
-4.217542 -3.007308 -0.268217
-4.212591 -2.991420 -0.266305
-4.208200 -2.975786 -0.264487
-4.204840 -2.960532 -0.262832
-4.201348 -2.945321 -0.261172
-4.198932 -2.930486 -0.259683
-4.200319 -2.916743 -0.258754
-4.206710 -2.904352 -0.258553
-4.199512 -2.888430 -0.256430
-4.194623 -2.873214 -0.254658
-4.192278 -2.858726 -0.253267
-4.187994 -2.843837 -0.251623
-4.184043 -2.829116 -0.250047
-4.184035 -2.815401 -0.249047
-4.184695 -2.801884 -0.248159
-4.185597 -2.788458 -0.247325
-4.178587 -2.773338 -0.245407
-4.168340 -2.757638 -0.243064
-4.168906 -2.744337 -0.242246
-4.178336 -2.732877 -0.242674
-4.182270 -2.720271 -0.242356
-4.178630 -2.706194 -0.241013
-4.172354 -2.691692 -0.239330
-4.168706 -2.677770 -0.238029
-4.166795 -2.664230 -0.236987
-4.165240 -2.650804 -0.236013
-4.161346 -2.637028 -0.234741
-4.155012 -2.622916 -0.233156
-4.151218 -2.609302 -0.231937
-4.158335 -2.597450 -0.232216
-4.171718 -2.586504 -0.233357
-4.170669 -2.573348 -0.232559
-4.159362 -2.558776 -0.230397
-4.150437 -2.544662 -0.228576
-4.148867 -2.531624 -0.227764
-4.146000 -2.518457 -0.226794
-4.141727 -2.505167 -0.225652
-4.138907 -2.492106 -0.224722
-4.135122 -2.478982 -0.223678
-4.135724 -2.466386 -0.223235
-4.145881 -2.454791 -0.224078
-4.144266 -2.441951 -0.223367
-4.141356 -2.429018 -0.222497
-4.132452 -2.415590 -0.220848
-4.129085 -2.402727 -0.219947
-4.133916 -2.390566 -0.220145
-4.143023 -2.378695 -0.220918
-4.137875 -2.365737 -0.219820
-4.124741 -2.352305 -0.217683
-4.119931 -2.339518 -0.216657
-4.118706 -2.326989 -0.216116
-4.125757 -2.314912 -0.216672
-4.128712 -2.302580 -0.216701
-4.128428 -2.290087 -0.216315
-4.120321 -2.277299 -0.214915
-4.115766 -2.264711 -0.213992
-4.119457 -2.252411 -0.214158
-4.122409 -2.240062 -0.214236
-4.116741 -2.227515 -0.213199
-4.105263 -2.214932 -0.211414
-4.105468 -2.202583 -0.211164
-4.105611 -2.190233 -0.210915
-4.104595 -2.177879 -0.210524
-4.103641 -2.165535 -0.210150
-4.106584 -2.153168 -0.210291
-4.106842 -2.140806 -0.210091
-4.103837 -2.128495 -0.209477
-4.098967 -2.116249 -0.208630
-4.095840 -2.104000 -0.208018
-4.096013 -2.091675 -0.207842
-4.101853 -2.079144 -0.208407
-4.098920 -2.066905 -0.207844
-4.099729 -2.054522 -0.207774
-4.091107 -2.042591 -0.206493
-4.086473 -2.030519 -0.205736
-4.090056 -2.018002 -0.206048
-4.086849 -2.005875 -0.205492
-4.089116 -1.993399 -0.205649
-4.095235 -1.980616 -0.206311
-4.080784 -1.969355 -0.204329
-4.078339 -1.957237 -0.203902
-4.075982 -1.945126 -0.203495
-4.071683 -1.933205 -0.202846
-4.077291 -1.920364 -0.203481
-4.078257 -1.907928 -0.203525
-4.081017 -1.895283 -0.203809
-4.070533 -1.884056 -0.202396
-4.077492 -1.870918 -0.203236
-4.074497 -1.858889 -0.202803
-4.069942 -1.847069 -0.202178
-4.069794 -1.834712 -0.202128
-4.071309 -1.822120 -0.202301
-4.071971 -1.809618 -0.202373
-4.068900 -1.797628 -0.201973
-4.066297 -1.785583 -0.201642
-4.063524 -1.773572 -0.201298
-4.062037 -1.761369 -0.201129
-4.063978 -1.748609 -0.201410
-4.061053 -1.736622 -0.201075
-4.058106 -1.724649 -0.200746
-4.054141 -1.712864 -0.200296
-4.046992 -1.701672 -0.199447
-4.047675 -1.689076 -0.199615
-4.043249 -1.677424 -0.199135
-4.036448 -1.666256 -0.198360
-4.034596 -1.654142 -0.198233
-4.040024 -1.640533 -0.199055
-4.042989 -1.627364 -0.199572
-4.045462 -1.614246 -0.200037
-4.042897 -1.602183 -0.199864
-4.035081 -1.591293 -0.199024
-4.024692 -1.581042 -0.197863
-4.029788 -1.567244 -0.198715
-4.030397 -1.554438 -0.199000
-4.034445 -1.540758 -0.199744
-4.031112 -1.528841 -0.199545
-4.025477 -1.517506 -0.199062
-4.020657 -1.505984 -0.198696
-4.020983 -1.493121 -0.199012
-4.020263 -1.480499 -0.199207
-4.018253 -1.468201 -0.199249
-4.011164 -1.457296 -0.198644
-4.014988 -1.443335 -0.199475
-4.017264 -1.429742 -0.200121
-4.006200 -1.419993 -0.199041
-4.001779 -1.408334 -0.198843
-4.007059 -1.393734 -0.199929
-4.011057 -1.379431 -0.200867
-4.004846 -1.368240 -0.200483
-4.004980 -1.355044 -0.200948
-3.999870 -1.343494 -0.200740
-3.996427 -1.331399 -0.200769
-3.990967 -1.319961 -0.200547
-3.988357 -1.307561 -0.200719
-3.984911 -1.295421 -0.200797
-3.982968 -1.282737 -0.201092
-3.974953 -1.272171 -0.200598
-3.979762 -1.257013 -0.201825
-3.997629 -1.236973 -0.204814
-3.974936 -1.231722 -0.202415
-3.968594 -1.220500 -0.202210
-3.979827 -1.202580 -0.204377
-3.988012 -1.185654 -0.206159
-3.979232 -1.175231 -0.205681
-3.978431 -1.161664 -0.206292
-3.969578 -1.151286 -0.205832
-3.966856 -1.138433 -0.206215
-3.965043 -1.125167 -0.206736
-3.963257 -1.111842 -0.207276
-3.956859 -1.100433 -0.207202
-3.957368 -1.086051 -0.208082
-3.956068 -1.072388 -0.208728
-3.954997 -1.058573 -0.209417
-3.940561 -1.050694 -0.208276
-3.948554 -1.032740 -0.210230
-3.952854 -1.016331 -0.211687
-3.944727 -1.005596 -0.211429
-3.941970 -0.992370 -0.211916
-3.939870 -0.978810 -0.212495
-3.941755 -0.963303 -0.213628
-3.947195 -0.945993 -0.215258
-3.942379 -0.933650 -0.215444
-3.937354 -0.921435 -0.215589
-3.936617 -0.907081 -0.216323
-3.936936 -0.892173 -0.217190
-3.933512 -0.879186 -0.217507
-3.937362 -0.862422 -0.218832
-3.935366 -0.848711 -0.219300
-3.927914 -0.837958 -0.218957
-3.920651 -0.827209 -0.218602
-3.929574 -0.807714 -0.220522
-3.935311 -0.789917 -0.221946
-3.932782 -0.776723 -0.222138
-3.926866 -0.765533 -0.221790
-3.923249 -0.753169 -0.221717
-3.911803 -0.745439 -0.220455
-3.904100 -0.735752 -0.219668
-3.905363 -0.720981 -0.220111
-3.910423 -0.704049 -0.221036
-3.910727 -0.690030 -0.221204
-3.913139 -0.674858 -0.221605
-3.915278 -0.659962 -0.221893
-3.915972 -0.646074 -0.221897
-3.908869 -0.637169 -0.220699
-3.893248 -0.633830 -0.218195
-3.885568 -0.625800 -0.216765
-3.880415 -0.616403 -0.215625
-3.873461 -0.608382 -0.214153
-3.892369 -0.583874 -0.216325
-4.243848 -3.503155 -0.307489
-4.296024 -3.515774 -0.316296
-4.286856 -3.499253 -0.315316
-4.232648 -3.461888 -0.307104
-4.218758 -3.443204 -0.305197
-4.240113 -3.440382 -0.308803
-4.275777 -3.443588 -0.314599
-4.282231 -3.433373 -0.315671
-4.296936 -3.426542 -0.317967
-4.264096 -3.398820 -0.312624
-4.259256 -3.383244 -0.311647
-4.264877 -3.371994 -0.312248
-4.266788 -3.358994 -0.312178
-4.259470 -3.342022 -0.310567
-4.249727 -3.324006 -0.308498
-4.246120 -3.308446 -0.307330
-4.243875 -3.293357 -0.306309
-4.238575 -3.276991 -0.304743
-4.231521 -3.259908 -0.302840
-4.234825 -3.246788 -0.302510
-4.235325 -3.232506 -0.301685
-4.237527 -3.218792 -0.301076
-4.235376 -3.203406 -0.299742
-4.239466 -3.190263 -0.299339
-4.234122 -3.173674 -0.297434
-4.226770 -3.156412 -0.295191
-4.222874 -3.140410 -0.293460
-4.226126 -3.126881 -0.292808
-4.222685 -3.111068 -0.291108
-4.223544 -3.096719 -0.290053
-4.228096 -3.083576 -0.289550
-4.229160 -3.069284 -0.288503
-4.227335 -3.054093 -0.287012
-4.223276 -3.038254 -0.285182
-4.218596 -3.022299 -0.283262
-4.214758 -3.006679 -0.281477
-4.209997 -2.990863 -0.279561
-4.209049 -2.976239 -0.278227
-4.208186 -2.961689 -0.276916
-4.195469 -2.943885 -0.273854
-4.193612 -2.929228 -0.272425
-4.198917 -2.916561 -0.272071
-4.196391 -2.901820 -0.270572
-4.192507 -2.886800 -0.268892
-4.193255 -2.873040 -0.267910
-4.188770 -2.858019 -0.266180
-4.182188 -2.842578 -0.264165
-4.185088 -2.829510 -0.263554
-4.186635 -2.816143 -0.262763
-4.183407 -2.801714 -0.261300
-4.183898 -2.788193 -0.260394
-4.185391 -2.774929 -0.259653
-4.166315 -2.757297 -0.255973
-4.168242 -2.744279 -0.255338
-4.174253 -2.732115 -0.255307
-4.178178 -2.719516 -0.254993
-4.174332 -2.705409 -0.253590
-4.174202 -2.692079 -0.252736
-4.175181 -2.678991 -0.252060
-4.172801 -2.665325 -0.250926
-4.167905 -2.651276 -0.249458
-4.164334 -2.637532 -0.248197
-4.156128 -2.623087 -0.246305
-4.154204 -2.609758 -0.245318
-4.165558 -2.598542 -0.246212
-4.173842 -2.586782 -0.246688
-4.163783 -2.572290 -0.244613
-4.147732 -2.557073 -0.241725
-4.145898 -2.543973 -0.240841
-4.145366 -2.531085 -0.240156
-4.144312 -2.518159 -0.239414
-4.144408 -2.505403 -0.238848
-4.139690 -2.492099 -0.237631
-4.135449 -2.478912 -0.236497
-4.134854 -2.466178 -0.235883
-4.142102 -2.454279 -0.236365
-4.145078 -2.441905 -0.236270
-4.141475 -2.428897 -0.235283
-4.132906 -2.415492 -0.233630
-4.122277 -2.402004 -0.231711
-4.130442 -2.390137 -0.232382
-4.137783 -2.378143 -0.232951
-4.132335 -2.365183 -0.231782
-4.125861 -2.352215 -0.230487
-4.123510 -2.339571 -0.229768
-4.126307 -2.327250 -0.229763
-4.128846 -2.314897 -0.229733
-4.132791 -2.302594 -0.229905
-4.121230 -2.289591 -0.227982
-4.124375 -2.277267 -0.228068
-4.121448 -2.264713 -0.227340
-4.119903 -2.252230 -0.226810
-4.124413 -2.239913 -0.227111
-4.120292 -2.227386 -0.226253
-4.109146 -2.214789 -0.224458
-4.110151 -2.202429 -0.224314
-4.110203 -2.190054 -0.224051
-4.108266 -2.177675 -0.223530
-4.110092 -2.165303 -0.223524
-4.112508 -2.152909 -0.223607
-4.107684 -2.140580 -0.222725
-4.102174 -2.128306 -0.221760
-4.099616 -2.116016 -0.221201
-4.089965 -2.103934 -0.219699
-4.093219 -2.091539 -0.219938
-4.096675 -2.079103 -0.220213
-4.105400 -2.066420 -0.221202
-4.090235 -2.054720 -0.218996
-4.085445 -2.042643 -0.218191
-4.085351 -2.030351 -0.218023
-4.084703 -2.018086 -0.217789
-4.095337 -2.005107 -0.219072
-4.094582 -1.992795 -0.218839
-4.083041 -1.981267 -0.217173
-4.076935 -1.969418 -0.216242
-4.072433 -1.957485 -0.215534
-4.078678 -1.944656 -0.216270
-4.076098 -1.932564 -0.215835
-4.074931 -1.920351 -0.215597
-4.079918 -1.907519 -0.216189
-4.069154 -1.896289 -0.214687
-4.074946 -1.883327 -0.215402
-4.074746 -1.870986 -0.215327
-4.076163 -1.858442 -0.215475
-4.071019 -1.846686 -0.214757
-4.067838 -1.834712 -0.214310
-4.065509 -1.822640 -0.213985
-4.065474 -1.810260 -0.213975
-4.066604 -1.797698 -0.214129
-4.063701 -1.785705 -0.213755
-4.062217 -1.773508 -0.213579
-4.059730 -1.761465 -0.213279
-4.059248 -1.749104 -0.213256
-4.057940 -1.736869 -0.213133
-4.058989 -1.724223 -0.213333
-4.049105 -1.713472 -0.212086
-4.048206 -1.701171 -0.212047
-4.043023 -1.689654 -0.211446
-4.042287 -1.677318 -0.211450
-4.036989 -1.665858 -0.210856
-4.031971 -1.654370 -0.210309
-4.032868 -1.641695 -0.210564
-4.034461 -1.628843 -0.210924
-4.032850 -1.616636 -0.210868
-4.037100 -1.603135 -0.211607
-4.030695 -1.591953 -0.210933
-4.031991 -1.579042 -0.211302
-4.028490 -1.567212 -0.211041
-4.031694 -1.553786 -0.211693
-4.032868 -1.540793 -0.212086
-4.028433 -1.529150 -0.211739
-4.017144 -1.519255 -0.210484
-4.018163 -1.506258 -0.210897
-4.018575 -1.493377 -0.211243
-4.016279 -1.481182 -0.211239
-4.017419 -1.468035 -0.211713
-4.017895 -1.455022 -0.212114
-4.015171 -1.442872 -0.212098
-4.009047 -1.431688 -0.211637
-4.005998 -1.419623 -0.211607
-4.005415 -1.406811 -0.211927
-4.008430 -1.392869 -0.212752
-4.006125 -1.380491 -0.212873
-4.005397 -1.367597 -0.213225
-3.997695 -1.356884 -0.212643
-3.995644 -1.344372 -0.212848
-3.991820 -1.332412 -0.212828
-3.991733 -1.319193 -0.213337
-3.990770 -1.306218 -0.213743
-3.993272 -1.292006 -0.214645
-3.983997 -1.281831 -0.213945
-3.973160 -1.272251 -0.213046
-3.968819 -1.260388 -0.213056
-3.991753 -1.238537 -0.216856
-3.971194 -1.232518 -0.214661
-3.964270 -1.221526 -0.214366
-3.959722 -1.209639 -0.214416
-3.969713 -1.192109 -0.216510
-3.985226 -1.172239 -0.219398
-3.976992 -1.161587 -0.218991
-3.971339 -1.149919 -0.218958
-3.965641 -1.138264 -0.218932
-3.965358 -1.124362 -0.219683
-3.963293 -1.111145 -0.220197
-3.959537 -1.098606 -0.220485
-3.954400 -1.086639 -0.220590
-3.958378 -1.070682 -0.222000
-3.950061 -1.060057 -0.221672
-3.942335 -1.049201 -0.221433
-3.935125 -1.038138 -0.221271
-3.936457 -1.023172 -0.222337
-3.944583 -1.004971 -0.224387
-3.940894 -0.992192 -0.224741
-3.939492 -0.978315 -0.225423
-3.942062 -0.962491 -0.226678
-3.945507 -0.946167 -0.228056
-3.943659 -0.932386 -0.228659
-3.938980 -0.920013 -0.228835
-3.936656 -0.906478 -0.229339
-3.933703 -0.893275 -0.229730
-3.934879 -0.877957 -0.230705
-3.937589 -0.861819 -0.231882
-3.936857 -0.847478 -0.232522
-3.928340 -0.837333 -0.231977
-3.921478 -0.826416 -0.231635
-3.921751 -0.811705 -0.232307
-3.935208 -0.789739 -0.234893
-3.933259 -0.776284 -0.235142
-3.928869 -0.764295 -0.234973
-3.928806 -0.749961 -0.235390
-3.921190 -0.740066 -0.234619
-3.910942 -0.731883 -0.233388
-3.909799 -0.718567 -0.233451
-3.911166 -0.703885 -0.233821
-3.907973 -0.692040 -0.233436
-3.909191 -0.677692 -0.233639
-3.909204 -0.664202 -0.233587
-3.910024 -0.650358 -0.233579
-3.900945 -0.642800 -0.232014
-3.901564 -0.629421 -0.231823
-3.900140 -0.617485 -0.231250
-3.897985 -0.606193 -0.230492
-3.890805 -0.598312 -0.228910
-3.860405 -0.605682 -0.223804
-4.303052 -3.517330 -0.330565
-4.269464 -3.477284 -0.326051
-4.209560 -3.437572 -0.316617
-4.203846 -3.422655 -0.315946
-4.263528 -3.436820 -0.325886
-4.249002 -3.391257 -0.323540
-4.255354 -3.380630 -0.324419
-4.253469 -3.366307 -0.323867
-4.259109 -3.355004 -0.324462
-4.249832 -3.337344 -0.322541
-4.242641 -3.320499 -0.320885
-4.232353 -3.302356 -0.318653
-4.234533 -3.289173 -0.318381
-4.232955 -3.274388 -0.317430
-4.231348 -3.259516 -0.316411
-4.224828 -3.242696 -0.314537
-4.228007 -3.229536 -0.314178
-4.227847 -3.215034 -0.313226
-4.224259 -3.199220 -0.311676
-4.226810 -3.185624 -0.311070
-4.224290 -3.170153 -0.309612
-4.213799 -3.151875 -0.306849
-4.223583 -3.140718 -0.307294
-4.229076 -3.127982 -0.307023
-4.225485 -3.112129 -0.305288
-4.224957 -3.097330 -0.304021
-4.225935 -3.083035 -0.302978
-4.222651 -3.067377 -0.301255
-4.221170 -3.052341 -0.299809
-4.218317 -3.036920 -0.298147
-4.212874 -3.020766 -0.296083
-4.208865 -3.005129 -0.294247
-4.209588 -2.990963 -0.293152
-4.209545 -2.976604 -0.291945
-4.204793 -2.960946 -0.290020
-4.198832 -2.945041 -0.287923
-4.198183 -2.930695 -0.286657
-4.197081 -2.916278 -0.285334
-4.192938 -2.901114 -0.283564
-4.196259 -2.887969 -0.282947
-4.192844 -2.873126 -0.281322
-4.188513 -2.858137 -0.279578
-4.179475 -2.842090 -0.277146
-4.185972 -2.829885 -0.277076
-4.192255 -2.817609 -0.276988
-4.186887 -2.802653 -0.275170
-4.183498 -2.788236 -0.273671
-4.180811 -2.774050 -0.272299
-4.177790 -2.759860 -0.270898
-4.173011 -2.745375 -0.269259
-4.168582 -2.731048 -0.267695
-4.169901 -2.717947 -0.267002
-4.171564 -2.704938 -0.266379
-4.176173 -2.692508 -0.266208
-4.176334 -2.679249 -0.265401
-4.177645 -2.666229 -0.264782
-4.176591 -2.652817 -0.263835
-4.169010 -2.638339 -0.261957
-4.161582 -2.623990 -0.260123
-4.152979 -2.609554 -0.258142
-4.159248 -2.597543 -0.258340
-4.163309 -2.585167 -0.258233
-4.149096 -2.570109 -0.255501
-4.144880 -2.556625 -0.254236
-4.137776 -2.542810 -0.252574
-4.140242 -2.530348 -0.252308
-4.137408 -2.517210 -0.251296
-4.141893 -2.505016 -0.251351
-4.147204 -2.492897 -0.251538
-4.141231 -2.479472 -0.250125
-4.135563 -2.466154 -0.248773
-4.138099 -2.453755 -0.248608
-4.136303 -2.440921 -0.247841
-4.135886 -2.428248 -0.247283
-4.128963 -2.415010 -0.245817
-4.119140 -2.401604 -0.243955
-4.127507 -2.389762 -0.244687
-4.130623 -2.377456 -0.244685
-4.128271 -2.364744 -0.243923
-4.128089 -2.352208 -0.243481
-4.130711 -2.339854 -0.243447
-4.129905 -2.327290 -0.242941
-4.131078 -2.314844 -0.242725
-4.127685 -2.302176 -0.241879
-4.114783 -2.289136 -0.239709
-4.124113 -2.277076 -0.240675
-4.121818 -2.264540 -0.240018
-4.120054 -2.252046 -0.239447
-4.124128 -2.239715 -0.239705
-4.119380 -2.227172 -0.238738
-4.113773 -2.214663 -0.237662
-4.111116 -2.202239 -0.237009
-4.109447 -2.189846 -0.236505
-4.109383 -2.177472 -0.236234
-4.114075 -2.165082 -0.236636
-4.114237 -2.152685 -0.236415
-4.111141 -2.140325 -0.235750
-4.108780 -2.127979 -0.235198
-4.105319 -2.115677 -0.234501
-4.100955 -2.103427 -0.233688
-4.093147 -2.091322 -0.232407
-4.094980 -2.078942 -0.232474
-4.099131 -2.066448 -0.232871
-4.087310 -2.054627 -0.231061
-4.084774 -2.042451 -0.230547
-4.079754 -2.030427 -0.229699
-4.101087 -2.016894 -0.232509
-4.097363 -2.004746 -0.231857
-4.095730 -1.992484 -0.231503
-4.089128 -1.980590 -0.230469
-4.073099 -1.969479 -0.228141
-4.077943 -1.956797 -0.228709
-4.079824 -1.944318 -0.228875
-4.074121 -1.932504 -0.228002
-4.072515 -1.920341 -0.227703
-4.070342 -1.908240 -0.227334
-4.072173 -1.895725 -0.227528
-4.071119 -1.883500 -0.227331
-4.075450 -1.870656 -0.227887
-4.073155 -1.858549 -0.227537
-4.067888 -1.846821 -0.226785
-4.060884 -1.835352 -0.225803
-4.057938 -1.823393 -0.225390
-4.059443 -1.810832 -0.225600
-4.059922 -1.798389 -0.225679
-4.059157 -1.786110 -0.225595
-4.059012 -1.773727 -0.225606
-4.059545 -1.761222 -0.225721
-4.058434 -1.748961 -0.225618
-4.061299 -1.736030 -0.226076
-4.055692 -1.724505 -0.225373
-4.052435 -1.712600 -0.225004
-4.048336 -1.700859 -0.224530
-4.045480 -1.688905 -0.224239
-4.041871 -1.677100 -0.223854
-4.039802 -1.665007 -0.223693
-4.035389 -1.653380 -0.223219
-4.030304 -1.641909 -0.222663
-4.028299 -1.629818 -0.222545
-4.032120 -1.616471 -0.223247
-4.032105 -1.603902 -0.223430
-4.037136 -1.590175 -0.224325
-4.033344 -1.578392 -0.224010
-4.033497 -1.565694 -0.224255
-4.031330 -1.553519 -0.224191
-4.033410 -1.540299 -0.224732
-4.025853 -1.529423 -0.223945
-4.020489 -1.518033 -0.223477
-4.017406 -1.506072 -0.223340
-4.018268 -1.493067 -0.223768
-4.016429 -1.480742 -0.223835
-4.019089 -1.467170 -0.224545
-4.025209 -1.452568 -0.225757
-4.013504 -1.442917 -0.224489
-4.005189 -1.432365 -0.223709
-4.006796 -1.418944 -0.224337
-4.006006 -1.406179 -0.224645
-4.003439 -1.393917 -0.224720
-4.005159 -1.380313 -0.225416
-3.997333 -1.369639 -0.224784
-4.002513 -1.354851 -0.226004
-3.991114 -1.345330 -0.224898
-3.985336 -1.334028 -0.224603
-3.984709 -1.321010 -0.225056
-3.989387 -1.306146 -0.226280
-3.985314 -1.294194 -0.226280
-3.980323 -1.282552 -0.226167
-3.968102 -1.273474 -0.225037
-3.967790 -1.260173 -0.225624
-3.986003 -1.240038 -0.228886
-3.994578 -1.223226 -0.230792
-3.969620 -1.218890 -0.227897
-3.961150 -1.208462 -0.227385
-3.974081 -1.189772 -0.229977
-3.965716 -1.179244 -0.229513
-3.985278 -1.157619 -0.233112
-3.969808 -1.149860 -0.231650
-3.970897 -1.135429 -0.232606
-3.969751 -1.121847 -0.233253
-3.968254 -1.108360 -0.233864
-3.965477 -1.095371 -0.234300
-3.968169 -1.079987 -0.235552
-3.960698 -1.068953 -0.235321
-3.950495 -1.059152 -0.234692
-3.946563 -1.046592 -0.234993
-3.943599 -1.033579 -0.235444
-3.937541 -1.021967 -0.235437
-3.938241 -1.007222 -0.236437
-3.942470 -0.990755 -0.237967
-3.946209 -0.974426 -0.239425
-3.946500 -0.959677 -0.240364
-3.941227 -0.947607 -0.240459
-3.941149 -0.932995 -0.241325
-3.940809 -0.918488 -0.242138
-3.935394 -0.906537 -0.242164
-3.932342 -0.893424 -0.242526
-3.937683 -0.875990 -0.244139
-3.936774 -0.861771 -0.244774
-3.931769 -0.849745 -0.244751
-3.922225 -0.840230 -0.243995
-3.912684 -0.830853 -0.243193
-3.921242 -0.811713 -0.245123
-3.928058 -0.793484 -0.246741
-3.929835 -0.778052 -0.247534
-3.925062 -0.766369 -0.247261
-3.920532 -0.754678 -0.246965
-3.918795 -0.741516 -0.247036
-3.916417 -0.728844 -0.246943
-3.915837 -0.715247 -0.247058
-3.914710 -0.702096 -0.247018
-3.909768 -0.691363 -0.246314
-3.903486 -0.681627 -0.245328
-3.903810 -0.668067 -0.245289
-3.896148 -0.659558 -0.243937
-3.895251 -0.647085 -0.243556
-3.898239 -0.632344 -0.243697
-3.905806 -0.614843 -0.244466
-3.902577 -0.604293 -0.243492
-3.895193 -0.596604 -0.241803
-3.895555 -0.584156 -0.241232
-4.214905 -3.238609 -0.326464
-4.199956 -3.218710 -0.323138
-4.225915 -3.199715 -0.325610
-4.220859 -3.183402 -0.323780
-4.198851 -3.161045 -0.319117
-4.194064 -3.144948 -0.317268
-4.210933 -3.136388 -0.318945
-4.220962 -3.125300 -0.319461
-4.215761 -3.108976 -0.317457
-4.216779 -3.094765 -0.316450
-4.218968 -3.080929 -0.315616
-4.220347 -3.066822 -0.314638
-4.210685 -3.049233 -0.311864
-4.210292 -3.034641 -0.310586
-4.208192 -3.019557 -0.309032
-4.200546 -3.002861 -0.306591
-4.204519 -2.989700 -0.306016
-4.207671 -2.976295 -0.305312
-4.204599 -2.961125 -0.303622
-4.203303 -2.946523 -0.302225
-4.202645 -2.932149 -0.300941
-4.203579 -2.918252 -0.299921
-4.197466 -2.902530 -0.297805
-4.188018 -2.886051 -0.295185
-4.195904 -2.874111 -0.295301
-4.191517 -2.859084 -0.293512
-4.189060 -2.844615 -0.292045
-4.189076 -2.830807 -0.290981
-4.191625 -2.817635 -0.290328
-4.189128 -2.803327 -0.288913
-4.182812 -2.788234 -0.286929
-4.180268 -2.774071 -0.285551
-4.179629 -2.760383 -0.284486
-4.175447 -2.746001 -0.282899
-4.166803 -2.730792 -0.280653
-4.162179 -2.716506 -0.279046
-4.177617 -2.706198 -0.280514
-4.178277 -2.692980 -0.279749
-4.175008 -2.679067 -0.278407
-4.174174 -2.665657 -0.277456
-4.168862 -2.651507 -0.275848
-4.173312 -2.639100 -0.275734
-4.180206 -2.627085 -0.276004
-4.155355 -2.609944 -0.271524
-4.155634 -2.596979 -0.270841
-4.157269 -2.584244 -0.270380
-4.151817 -2.570486 -0.268877
-4.142417 -2.556247 -0.266806
-4.150674 -2.544532 -0.267384
-4.141967 -2.530527 -0.265456
-4.139564 -2.517427 -0.264483
-4.150598 -2.506016 -0.265518
-4.148656 -2.492994 -0.264646
-4.142168 -2.479496 -0.263118
-4.138019 -2.466331 -0.261954
-4.135722 -2.453413 -0.261080
-4.135235 -2.440712 -0.260488
-4.132847 -2.427851 -0.259631
-4.133195 -2.415273 -0.259191
-4.135430 -2.402864 -0.259041
-4.131740 -2.389972 -0.258037
-4.127008 -2.377048 -0.256896
-4.120029 -2.364019 -0.255441
-4.133190 -2.352399 -0.256939
-4.132400 -2.339807 -0.256414
-4.128706 -2.327065 -0.255477
-4.125000 -2.314364 -0.254553
-4.126556 -2.301956 -0.254406
-4.126339 -2.289464 -0.254013
-4.121817 -2.276813 -0.253007
-4.118916 -2.264264 -0.252248
-4.117742 -2.251796 -0.251752
-4.116288 -2.239336 -0.251226
-4.116473 -2.226926 -0.250948
-4.112293 -2.214449 -0.250050
-4.106579 -2.201996 -0.248941
-4.106567 -2.189631 -0.248667
-4.109685 -2.177271 -0.248854
-4.113333 -2.164881 -0.249126
-4.112243 -2.152494 -0.248725
-4.103178 -2.140215 -0.247187
-4.099819 -2.127921 -0.246480
-4.103167 -2.115510 -0.246746
-4.099552 -2.103249 -0.246022
-4.096912 -2.090988 -0.245447
-4.094927 -2.078725 -0.244975
-4.086779 -2.066724 -0.243629
-4.093580 -2.054122 -0.244436
-4.090770 -2.041928 -0.243874
-4.098423 -2.029188 -0.244820
-4.098845 -2.016796 -0.244738
-4.097728 -2.004492 -0.244444
-4.090532 -1.992605 -0.243290
-4.080442 -1.980988 -0.241730
-4.073430 -1.969218 -0.240621
-4.073964 -1.956886 -0.240599
-4.071452 -1.944804 -0.240152
-4.069581 -1.932678 -0.239804
-4.075043 -1.919855 -0.240513
-4.069999 -1.908028 -0.239730
-4.070725 -1.895630 -0.239781
-4.072222 -1.883129 -0.239950
-4.073147 -1.870667 -0.240047
-4.070136 -1.858655 -0.239590
-4.064130 -1.847030 -0.238715
-4.053029 -1.836105 -0.237122
-4.047163 -1.824571 -0.236286
-4.055926 -1.811054 -0.237549
-4.056808 -1.798567 -0.237696
-4.056027 -1.786301 -0.237615
-4.057057 -1.773751 -0.237803
-4.059945 -1.760881 -0.238266
-4.062175 -1.748074 -0.238646
-4.060457 -1.735885 -0.238473
-4.056365 -1.724101 -0.237970
-4.049715 -1.712786 -0.237112
-4.047845 -1.700650 -0.236949
-4.048613 -1.688021 -0.237174
-4.047475 -1.675726 -0.237137
-4.044605 -1.663758 -0.236865
-4.038726 -1.652397 -0.236173
-4.034976 -1.640632 -0.235797
-4.032514 -1.628608 -0.235618
-4.034671 -1.615591 -0.236114
-4.034723 -1.602989 -0.236320
-4.035763 -1.590137 -0.236682
-4.035015 -1.577657 -0.236800
-4.029922 -1.566172 -0.236308
-4.034706 -1.552346 -0.237249
-4.034139 -1.539747 -0.237435
-4.027874 -1.528539 -0.236814
-4.021754 -1.517323 -0.236228
-4.016938 -1.505796 -0.235844
-4.017837 -1.492775 -0.236299
-4.015315 -1.480627 -0.236276
-4.022201 -1.465894 -0.237629
-4.020825 -1.453355 -0.237804
-4.011249 -1.443115 -0.236805
-4.011506 -1.430092 -0.237248
-4.007130 -1.418385 -0.237035
-4.004498 -1.406158 -0.237092
-4.005157 -1.392914 -0.237644
-3.999596 -1.381537 -0.237308
-3.991351 -1.371014 -0.236595
-3.998330 -1.355669 -0.238124
-3.997879 -1.342612 -0.238587
-3.980112 -1.335212 -0.236528
-3.983164 -1.320980 -0.237538
-3.982217 -1.308021 -0.237981
-3.979296 -1.295698 -0.238151
-3.973718 -1.284281 -0.237947
-3.965445 -1.273825 -0.237361
-3.960431 -1.262223 -0.237273
-3.984352 -1.240021 -0.241494
-3.979238 -1.228289 -0.241432
-3.978467 -1.214915 -0.242033
-3.968370 -1.205052 -0.241260
-3.953842 -1.196954 -0.239838
-3.975388 -1.174768 -0.243830
-3.970465 -1.162834 -0.243879
-3.973934 -1.147498 -0.245205
-3.972350 -1.134130 -0.245787
-3.969270 -1.121336 -0.246159
-3.969037 -1.107313 -0.246975
-3.967796 -1.093659 -0.247651
-3.967110 -1.079716 -0.248424
-3.959320 -1.068827 -0.248125
-3.955187 -1.056344 -0.248390
-3.952454 -1.043221 -0.248874
-3.948653 -1.030558 -0.249199
-3.945527 -1.017573 -0.249629
-3.939083 -1.006120 -0.249548
-3.941035 -0.990731 -0.250760
-3.948126 -0.972820 -0.252768
-3.946075 -0.959207 -0.253354
-3.939500 -0.947798 -0.253227
-3.941416 -0.932231 -0.254407
-3.934486 -0.921050 -0.254191
-3.934789 -0.906268 -0.255084
-3.932316 -0.892896 -0.255520
-3.932779 -0.878029 -0.256389
-3.933784 -0.862877 -0.257314
-3.925733 -0.852531 -0.256774
-3.920833 -0.840613 -0.256690
-3.919879 -0.826646 -0.257186
-3.916489 -0.814067 -0.257249
-3.918985 -0.798319 -0.258195
-3.919613 -0.783651 -0.258791
-3.918688 -0.769922 -0.259081
-3.915069 -0.757823 -0.258881
-3.917431 -0.742407 -0.259569
-3.922256 -0.725630 -0.260584
-3.921993 -0.711897 -0.260716
-3.917333 -0.700892 -0.260072
-3.912360 -0.690251 -0.259303
-3.902001 -0.683051 -0.257598
-3.887877 -0.678394 -0.255215
-3.887050 -0.665856 -0.254880
-3.895599 -0.647663 -0.255964
-3.900517 -0.631805 -0.256389
-3.891699 -0.624714 -0.254546
-3.889732 -0.613522 -0.253718
-3.894071 -0.598474 -0.253817
-3.895123 -0.585672 -0.253318
-4.185630 -3.127661 -0.328333
-4.173318 -3.109108 -0.325154
-4.159530 -3.090176 -0.321710
-4.144276 -3.070897 -0.318009
-4.140891 -3.055647 -0.316290
-4.162255 -3.048376 -0.318693
-4.199894 -3.046030 -0.323778
-4.209621 -3.034649 -0.324184
-4.188694 -3.013836 -0.319499
-4.196415 -3.001858 -0.319564
-4.200254 -2.988685 -0.318983
-4.202835 -2.975141 -0.318195
-4.205975 -2.961764 -0.317503
-4.206097 -2.947550 -0.316322
-4.205967 -2.933305 -0.315109
-4.206731 -2.919342 -0.314053
-4.205431 -2.904870 -0.312675
-4.191499 -2.887184 -0.309267
-4.188055 -2.872344 -0.307579
-4.195704 -2.860342 -0.307695
-4.192646 -2.845699 -0.306103
-4.192032 -2.831713 -0.304922
-4.189961 -2.817437 -0.303527
-4.188577 -2.803382 -0.302262
-4.186780 -2.789291 -0.300952
-4.184004 -2.775047 -0.299507
-4.178629 -2.760317 -0.297673
-4.168423 -2.744670 -0.295099
-4.159750 -2.729478 -0.292794
-4.166593 -2.717498 -0.292955
-4.172341 -2.705276 -0.292960
-4.176608 -2.692755 -0.292750
-4.170971 -2.678402 -0.291008
-4.166570 -2.664360 -0.289483
-4.165486 -2.650975 -0.288496
-4.172609 -2.639027 -0.288806
-4.172289 -2.625813 -0.287975
-4.169519 -2.612240 -0.286785
-4.160167 -2.597699 -0.284597
-4.156253 -2.584095 -0.283273
-4.161750 -2.571931 -0.283419
-4.159528 -2.558649 -0.282392
-4.152070 -2.544698 -0.280581
-4.154653 -2.532165 -0.280330
-4.148533 -2.518524 -0.278763
-4.145036 -2.505283 -0.277616
-4.136286 -2.491478 -0.275685
-4.137142 -2.478860 -0.275239
-4.138115 -2.466264 -0.274826
-4.137486 -2.453511 -0.274185
-4.134531 -2.440551 -0.273207
-4.138335 -2.428270 -0.273269
-4.142337 -2.415985 -0.273375
-4.145143 -2.403576 -0.273313
-4.139530 -2.390478 -0.271992
-4.133581 -2.377419 -0.270636
-4.132194 -2.364750 -0.269983
-4.133801 -2.352302 -0.269795
-4.132762 -2.339686 -0.269222
-4.124397 -2.326672 -0.267561
-4.121070 -2.314006 -0.266671
-4.123070 -2.301632 -0.266593
-4.125072 -2.289247 -0.266528
-4.118733 -2.276528 -0.265224
-4.118711 -2.264086 -0.264879
-4.120285 -2.251695 -0.264785
-4.120783 -2.239267 -0.264540
-4.114330 -2.226700 -0.263268
-4.106789 -2.214179 -0.261847
-4.104992 -2.201790 -0.261294
-4.107007 -2.189441 -0.261320
-4.110425 -2.177076 -0.261564
-4.115232 -2.164675 -0.262025
-4.109265 -2.152315 -0.260893
-4.100182 -2.140048 -0.259309
-4.092570 -2.127838 -0.257954
-4.091056 -2.115564 -0.257516
-4.093402 -2.103199 -0.257661
-4.095585 -2.090814 -0.257790
-4.095464 -2.078488 -0.257586
-4.093286 -2.066242 -0.257088
-4.091249 -2.054005 -0.256619
-4.095397 -2.041475 -0.257076
-4.095870 -2.029100 -0.256998
-4.099281 -2.016541 -0.257363
-4.092106 -2.004617 -0.256172
-4.084176 -1.992805 -0.254878
-4.077374 -1.980977 -0.253761
-4.078990 -1.968551 -0.253898
-4.068501 -1.957096 -0.252255
-4.071445 -1.944564 -0.252606
-4.076050 -1.931843 -0.253211
-4.081011 -1.919034 -0.253878
-4.073533 -1.907424 -0.252717
-4.068707 -1.895593 -0.251958
-4.068144 -1.883325 -0.251837
-4.067014 -1.871116 -0.251641
-4.064285 -1.859096 -0.251220
-4.063438 -1.846855 -0.251085
-4.050837 -1.836125 -0.249226
-4.049122 -1.824043 -0.248983
-4.054952 -1.810919 -0.249862
-4.061112 -1.797678 -0.250801
-4.057061 -1.785872 -0.250243
-4.056630 -1.773535 -0.250230
-4.057826 -1.760930 -0.250467
-4.059571 -1.748207 -0.250796
-4.059515 -1.735749 -0.250870
-4.054778 -1.724076 -0.250264
-4.048206 -1.712752 -0.249397
-4.044767 -1.700902 -0.249004
-4.043928 -1.688582 -0.249007
-4.051200 -1.674700 -0.250222
-4.043944 -1.663567 -0.249299
-4.040987 -1.651618 -0.249024
-4.037768 -1.639728 -0.248723
-4.035847 -1.627571 -0.248626
-4.035356 -1.615100 -0.248754
-4.038353 -1.601841 -0.249412
-4.036600 -1.589592 -0.249379
-4.030466 -1.578336 -0.248709
-4.036278 -1.564312 -0.249828
-4.031630 -1.552702 -0.249406
-4.026830 -1.541143 -0.248976
-4.028652 -1.527951 -0.249545
-4.023451 -1.516490 -0.249083
-4.018403 -1.505007 -0.248658
-4.015447 -1.492986 -0.248561
-4.023712 -1.477943 -0.250155
-4.022069 -1.465491 -0.250285
-4.019312 -1.453328 -0.250265
-4.017024 -1.441019 -0.250332
-4.010160 -1.430013 -0.249728
-4.013916 -1.415914 -0.250735
-4.004279 -1.405735 -0.249746
-4.000627 -1.393791 -0.249673
-4.001282 -1.380507 -0.250267
-3.996959 -1.368732 -0.250127
-3.995249 -1.356120 -0.250400
-3.989230 -1.344873 -0.250038
-3.989012 -1.331726 -0.250572
-3.986609 -1.319260 -0.250793
-3.985576 -1.306300 -0.251241
-3.980715 -1.294618 -0.251125
-3.979711 -1.281580 -0.251614
-3.986584 -1.265693 -0.253326
-3.959510 -1.261933 -0.249863
-3.950176 -1.251902 -0.249126
-3.977672 -1.228220 -0.254064
-3.984890 -1.211830 -0.255914
-3.972204 -1.202913 -0.254716
-3.950114 -1.197721 -0.252075
-3.956866 -1.181360 -0.253906
-3.965611 -1.164066 -0.256069
-3.970756 -1.148070 -0.257693
-3.968744 -1.134886 -0.258222
-3.962799 -1.123296 -0.258151
-3.964503 -1.108487 -0.259287
-3.960078 -1.096212 -0.259477
-3.955204 -1.084119 -0.259604
-3.955768 -1.069640 -0.260597
-3.952618 -1.056742 -0.261011
-3.955062 -1.041310 -0.262317
-3.954933 -1.026966 -0.263221
-3.951648 -1.014026 -0.263626
-3.946653 -1.001871 -0.263757
-3.944222 -0.988518 -0.264293
-3.947514 -0.972417 -0.265739
-3.946419 -0.958364 -0.266475
-3.943165 -0.945349 -0.266853
-3.932472 -0.936032 -0.266015
-3.935899 -0.919742 -0.267434
-3.932257 -0.906984 -0.267689
-3.930850 -0.893116 -0.268280
-3.931482 -0.878210 -0.269172
-3.926494 -0.866254 -0.269117
-3.925341 -0.852342 -0.269648
-3.922386 -0.839437 -0.269842
-3.925800 -0.823151 -0.271033
-3.919189 -0.812364 -0.270532
-3.915080 -0.800323 -0.270386
-3.912096 -0.787765 -0.270368
-3.917590 -0.770526 -0.271682
-3.914950 -0.757951 -0.271595
-3.919205 -0.741524 -0.272578
-3.923842 -0.724930 -0.273554
-3.923956 -0.711052 -0.273713
-3.915198 -0.702553 -0.272334
-3.912389 -0.690716 -0.271861
-3.903724 -0.682579 -0.270344
-3.890825 -0.677255 -0.268053
-3.881438 -0.670052 -0.266264
-3.895537 -0.648542 -0.268265
-3.893184 -0.637320 -0.267478
-3.882699 -0.631403 -0.265278
-3.881086 -0.620118 -0.264460
-3.889780 -0.602417 -0.265255
-3.894396 -0.587425 -0.265302
-4.206888 -3.178157 -0.348641
-4.193017 -3.158876 -0.345235
-4.176511 -3.110271 -0.339205
-4.148756 -3.086656 -0.333286
-4.133257 -3.067380 -0.329483
-4.124912 -3.050596 -0.326905
-4.153609 -3.031627 -0.329510
-4.207772 -2.991151 -0.333928
-4.193205 -2.972607 -0.330242
-4.205740 -2.961956 -0.331149
-4.210124 -2.948935 -0.330679
-4.205247 -2.933367 -0.328657
-4.203535 -2.918740 -0.327180
-4.199580 -2.903579 -0.325341
-4.197066 -2.888873 -0.323759
-4.195286 -2.874421 -0.322315
-4.190108 -2.859185 -0.320325
-4.192937 -2.845996 -0.319681
-4.190443 -2.831551 -0.318172
-4.189325 -2.817497 -0.316911
-4.187847 -2.803413 -0.315609
-4.188095 -2.789773 -0.314610
-4.184030 -2.775230 -0.312925
-4.179618 -2.760694 -0.311207
-4.160895 -2.743252 -0.307180
-4.164494 -2.730588 -0.306814
-4.166249 -2.717561 -0.306167
-4.166810 -2.704322 -0.305346
-4.167922 -2.691219 -0.304633
-4.171196 -2.678541 -0.304289
-4.168480 -2.664789 -0.302998
-4.175777 -2.652848 -0.303337
-4.166619 -2.638072 -0.301054
-4.165463 -2.624738 -0.300077
-4.164407 -2.611462 -0.299135
-4.156598 -2.597174 -0.297136
-4.157300 -2.584273 -0.296516
-4.158451 -2.571459 -0.295984
-4.156298 -2.558192 -0.294946
-4.155510 -2.545157 -0.294144
-4.152303 -2.531836 -0.292978
-4.146900 -2.518287 -0.291484
-4.139564 -2.504576 -0.289704
-4.134795 -2.491256 -0.288349
-4.133856 -2.478433 -0.287615
-4.135911 -2.465962 -0.287368
-4.137962 -2.453488 -0.287135
-4.137944 -2.440808 -0.286593
-4.140326 -2.428370 -0.286441
-4.143933 -2.416033 -0.286496
-4.146121 -2.403557 -0.286342
-4.145315 -2.390833 -0.285736
-4.139248 -2.377732 -0.284325
-4.136354 -2.364923 -0.283423
-4.135272 -2.352272 -0.282818
-4.130572 -2.339418 -0.281665
-4.118709 -2.326210 -0.279416
-4.115200 -2.313555 -0.278477
-4.120656 -2.301368 -0.278940
-4.116450 -2.288722 -0.277919
-4.114952 -2.276224 -0.277331
-4.118173 -2.263904 -0.277483
-4.129183 -2.251785 -0.278847
-4.126079 -2.239223 -0.278045
-4.119799 -2.226631 -0.276766
-4.110052 -2.214048 -0.274966
-4.109916 -2.201657 -0.274658
-4.112514 -2.189285 -0.274780
-4.113907 -2.176888 -0.274728
-4.115570 -2.164478 -0.274727
-4.110148 -2.152109 -0.273649
-4.100734 -2.139840 -0.271971
-4.093277 -2.127623 -0.270604
-4.093862 -2.115296 -0.270480
-4.095393 -2.102937 -0.270511
-4.095866 -2.090593 -0.270390
-4.095859 -2.078258 -0.270205
-4.096056 -2.065912 -0.270060
-4.095920 -2.053573 -0.269875
-4.092425 -2.041399 -0.269185
-4.097603 -2.028779 -0.269830
-4.091299 -2.016783 -0.268731
-4.085726 -2.004792 -0.267754
-4.081905 -1.992727 -0.267054
-4.088571 -1.979924 -0.267963
-4.080709 -1.968179 -0.266666
-4.082925 -1.955670 -0.266915
-4.080936 -1.943496 -0.266532
-4.078797 -1.931345 -0.266136
-4.080203 -1.918863 -0.266290
-4.082150 -1.906303 -0.266536
-4.074298 -1.894748 -0.265299
-4.064059 -1.883519 -0.263707
-4.062993 -1.871319 -0.263523
-4.064269 -1.858836 -0.263706
-4.058803 -1.847166 -0.262871
-4.055261 -1.835286 -0.262340
-4.056059 -1.822844 -0.262480
-4.058074 -1.810212 -0.262815
-4.060127 -1.797539 -0.263166
-4.059341 -1.785251 -0.263096
-4.056335 -1.773294 -0.262698
-4.054700 -1.761131 -0.262519
-4.056477 -1.748413 -0.262872
-4.055518 -1.736116 -0.262818
-4.052660 -1.724135 -0.262487
-4.047689 -1.712534 -0.261844
-4.044057 -1.700718 -0.261417
-4.042858 -1.688462 -0.261373
-4.043358 -1.675871 -0.261601
-4.047451 -1.662551 -0.262389
-4.045516 -1.650375 -0.262270
-4.040413 -1.638844 -0.261679
-4.032756 -1.627873 -0.260709
-4.037793 -1.614222 -0.261695
-4.039610 -1.601203 -0.262202
-4.036989 -1.589135 -0.262043
-4.033568 -1.577248 -0.261775
-4.032312 -1.564857 -0.261853
-4.031818 -1.552266 -0.262063
-4.025100 -1.541167 -0.261331
-4.020928 -1.529467 -0.261004
-4.025384 -1.515583 -0.262020
-4.023665 -1.503219 -0.262101
-4.022995 -1.490561 -0.262360
-4.023608 -1.477526 -0.262833
-4.019863 -1.465641 -0.262650
-4.018559 -1.453074 -0.262860
-4.013886 -1.441435 -0.262565
-4.012255 -1.428924 -0.262758
-3.998477 -1.419956 -0.261082
-3.997523 -1.407250 -0.261413
-3.999091 -1.393742 -0.262153
-3.991229 -1.383088 -0.261444
-3.990350 -1.370271 -0.261840
-3.988153 -1.357836 -0.262048
-3.988697 -1.344485 -0.262703
-3.989016 -1.331151 -0.263342
-3.989366 -1.317751 -0.264005
-3.988916 -1.304566 -0.264563
-3.987294 -1.291736 -0.264956
-3.990828 -1.277060 -0.266180
-3.991819 -1.263194 -0.267024
-3.990190 -1.250206 -0.267474
-3.979449 -1.240518 -0.266498
-3.984637 -1.224959 -0.268065
-3.980513 -1.212798 -0.268172
-3.980348 -1.199105 -0.268927
-3.962014 -1.192405 -0.266799
-3.944562 -1.185495 -0.264818
-3.962640 -1.164532 -0.268539
-3.964389 -1.149916 -0.269666
-3.959102 -1.138103 -0.269676
-3.956299 -1.125255 -0.270099
-3.953568 -1.112345 -0.270545
-3.951366 -1.099179 -0.271087
-3.952974 -1.084330 -0.272258
-3.952479 -1.070326 -0.273097
-3.951143 -1.056644 -0.273807
-3.952491 -1.041715 -0.274960
-3.957712 -1.024955 -0.276754
-3.954440 -1.012001 -0.277157
-3.948675 -1.000202 -0.277148
-3.946703 -0.986634 -0.277756
-3.948024 -0.971478 -0.278901
-3.951033 -0.955454 -0.280318
-3.938684 -0.946892 -0.279172
-3.941004 -0.931179 -0.280444
-3.936618 -0.918788 -0.280579
-3.932429 -0.906339 -0.280721
-3.928086 -0.894016 -0.280806
-3.926038 -0.880559 -0.281243
-3.922133 -0.868115 -0.281331
-3.919686 -0.854966 -0.281622
-3.921312 -0.839693 -0.282556
-3.919720 -0.826187 -0.282899
-3.921883 -0.810691 -0.283826
-3.918130 -0.798506 -0.283696
-3.912575 -0.787441 -0.283200
-3.915339 -0.771817 -0.284051
-3.916265 -0.757298 -0.284525
-3.915768 -0.743684 -0.284689
-3.914392 -0.730692 -0.284633
-3.919238 -0.714174 -0.285560
-3.916068 -0.702475 -0.285049
-3.917613 -0.688118 -0.285263
-3.913251 -0.677445 -0.284394
-3.907794 -0.667624 -0.283261
-3.898781 -0.660191 -0.281446
-3.897973 -0.647920 -0.280945
-3.892152 -0.638942 -0.279516
-3.883285 -0.632097 -0.277496
-3.880678 -0.621528 -0.276460
-3.891532 -0.602539 -0.277619
-3.885208 -0.594675 -0.275805
-4.198759 -3.160859 -0.359794
-4.186548 -3.142285 -0.356609
-4.194395 -2.973214 -0.344099
-4.208229 -2.962933 -0.345288
-4.218497 -2.951546 -0.345852
-4.207864 -2.934356 -0.342799
-4.196878 -2.917218 -0.339704
-4.197714 -2.903353 -0.338663
-4.200251 -2.889961 -0.337925
-4.198192 -2.875416 -0.336412
-4.188650 -2.859072 -0.333637
-4.191699 -2.845937 -0.333031
-4.190265 -2.831743 -0.331678
-4.186546 -2.817072 -0.329955
-4.184538 -2.802872 -0.328543
-4.184433 -2.789160 -0.327473
-4.184668 -2.775565 -0.326479
-4.179133 -2.760774 -0.324535
-4.176576 -2.746701 -0.323114
-4.171629 -2.732205 -0.321315
-4.170274 -2.718512 -0.320139
-4.165414 -2.704189 -0.318400
-4.163118 -2.690436 -0.317112
-4.168511 -2.678160 -0.317122
-4.178184 -2.666636 -0.317857
-4.171339 -2.652164 -0.315875
-4.163104 -2.637555 -0.313687
-4.156319 -2.623296 -0.311763
-4.154530 -2.609935 -0.310684
-4.153625 -2.596758 -0.309771
-4.152660 -2.583609 -0.308868
-4.157208 -2.571302 -0.308887
-4.159063 -2.558598 -0.308482
-4.155259 -2.545128 -0.307171
-4.142659 -2.530559 -0.304446
-4.135625 -2.516840 -0.302651
-4.139190 -2.504506 -0.302599
-4.138873 -2.491702 -0.301933
-4.137346 -2.478785 -0.301088
-4.136693 -2.465996 -0.300401
-4.136563 -2.453284 -0.299816
-4.136790 -2.440627 -0.299304
-4.136452 -2.427929 -0.298717
-4.135363 -2.415183 -0.298024
-4.138634 -2.402831 -0.298048
-4.138746 -2.390208 -0.297579
-4.140001 -2.377684 -0.297308
-4.132154 -2.364514 -0.295591
-4.134800 -2.352123 -0.295571
-4.128432 -2.339162 -0.294123
-4.122417 -2.326291 -0.292746
-4.119725 -2.313656 -0.291915
-4.117759 -2.301089 -0.291214
-4.114974 -2.288512 -0.290395
-4.112549 -2.275980 -0.289648
-4.116161 -2.263680 -0.289873
-4.120010 -2.251357 -0.290148
-4.121082 -2.238935 -0.289992
-4.120310 -2.226470 -0.289555
-4.120224 -2.214026 -0.289239
-4.112695 -2.201507 -0.287754
-4.113293 -2.189106 -0.287570
-4.116450 -2.176704 -0.287802
-4.109989 -2.164306 -0.286521
-4.105965 -2.151949 -0.285639
-4.102600 -2.139619 -0.284872
-4.098927 -2.127324 -0.284067
-4.100069 -2.114956 -0.284034
-4.098549 -2.102646 -0.283590
-4.096073 -2.090376 -0.283006
-4.095287 -2.078065 -0.282699
-4.098275 -2.065605 -0.282997
-4.096475 -2.053329 -0.282550
-4.095557 -2.041020 -0.282253
-4.092733 -2.028818 -0.281665
-4.085949 -2.016871 -0.280464
-4.078660 -2.005013 -0.279193
-4.084242 -1.992334 -0.279958
-4.083683 -1.980045 -0.279766
-4.085388 -1.967577 -0.279940
-4.084951 -1.955261 -0.279787
-4.084799 -1.942915 -0.279689
-4.077706 -1.931198 -0.278509
-4.073922 -1.919218 -0.277860
-4.081523 -1.906112 -0.279009
-4.078314 -1.894067 -0.278470
-4.068515 -1.882768 -0.276906
-4.066914 -1.870605 -0.276640
-4.062094 -1.858830 -0.275878
-4.057583 -1.847049 -0.275176
-4.071543 -1.832910 -0.277384
-4.062446 -1.821713 -0.275982
-4.057017 -1.810078 -0.275166
-4.061007 -1.797128 -0.275841
-4.057822 -1.785187 -0.275399
-4.056640 -1.772954 -0.275283
-4.055232 -1.760750 -0.275143
-4.056256 -1.748146 -0.275396
-4.053687 -1.736115 -0.275095
-4.051658 -1.723995 -0.274892
-4.050698 -1.711686 -0.274868
-4.049551 -1.699399 -0.274827
-4.043215 -1.688068 -0.273981
-4.040982 -1.675992 -0.273793
-4.042355 -1.663208 -0.274185
-4.054628 -1.648201 -0.276310
-4.041453 -1.638278 -0.274436
-4.037954 -1.626422 -0.274099
-4.040100 -1.613360 -0.274668
-4.039914 -1.600763 -0.274882
-4.037389 -1.588665 -0.274741
-4.030781 -1.577500 -0.273968
-4.033208 -1.564251 -0.274639
-4.032540 -1.551688 -0.274835
-4.030493 -1.539437 -0.274828
-4.024797 -1.528082 -0.274257
-4.022262 -1.515946 -0.274202
-4.028681 -1.501480 -0.275586
-4.024950 -1.489595 -0.275373
-4.017246 -1.478778 -0.274544
-4.017531 -1.465811 -0.275003
-4.016658 -1.453124 -0.275294
-4.014248 -1.440843 -0.275357
-4.005387 -1.430408 -0.274405
-4.000639 -1.418811 -0.274127
-3.996182 -1.407130 -0.273912
-3.988829 -1.396332 -0.273249
-3.983502 -1.384935 -0.272927
-3.981703 -1.372436 -0.273190
-3.986704 -1.357733 -0.274567
-3.985210 -1.345038 -0.274917
-3.984078 -1.332188 -0.275345
-3.983504 -1.319111 -0.275882
-3.984983 -1.305288 -0.276771
-3.985237 -1.291817 -0.277482
-3.986831 -1.277819 -0.278431
-3.984729 -1.265064 -0.278798
-3.984354 -1.251648 -0.279465
-3.981537 -1.239074 -0.279752
-3.978478 -1.226561 -0.280018
-3.976263 -1.213702 -0.280438
-3.969786 -1.202438 -0.280176
-3.967994 -1.189363 -0.280699
-3.949774 -1.182719 -0.278525
-3.947313 -1.169917 -0.278964
-3.965522 -1.148711 -0.282845
-3.958664 -1.137532 -0.282588
-3.946307 -1.128655 -0.281425
-3.947180 -1.114278 -0.282474
-3.951030 -1.098560 -0.284033
-3.956890 -1.081869 -0.285942
-3.956556 -1.067773 -0.286823
-3.950701 -1.056077 -0.286782
-3.941500 -1.045900 -0.286176
-3.940889 -1.031865 -0.287019
-3.951923 -1.012418 -0.289835
-3.949325 -0.999168 -0.290341
-3.945791 -0.986351 -0.290680
-3.945607 -0.971937 -0.291581
-3.944408 -0.957987 -0.292296
-3.945111 -0.943094 -0.293321
-3.941348 -0.930390 -0.293562
-3.940142 -0.916435 -0.294217
-3.936652 -0.903649 -0.294452
-3.931788 -0.891611 -0.294418
-3.927871 -0.879149 -0.294510
-3.923951 -0.866753 -0.294561
-3.926724 -0.850877 -0.295730
-3.918717 -0.840790 -0.294980
-3.919256 -0.826205 -0.295664
-3.922669 -0.810094 -0.296795
-3.927171 -0.793404 -0.298059
-3.916210 -0.785387 -0.296563
-3.915399 -0.771839 -0.296773
-3.917171 -0.756917 -0.297367
-3.915493 -0.744062 -0.297287
-3.905282 -0.736297 -0.295640
-3.911320 -0.719218 -0.296763
-3.920128 -0.700552 -0.298293
-3.920604 -0.686903 -0.298287
-3.916322 -0.676257 -0.297368
-3.911756 -0.665969 -0.296321
-3.904056 -0.657798 -0.294647
-3.903161 -0.645645 -0.294083
-3.899667 -0.635277 -0.292986
-3.891533 -0.628018 -0.291005
-3.880336 -0.622943 -0.288417
-3.892809 -0.603014 -0.289868
-3.906999 -0.582020 -0.291533
-4.180655 -3.154303 -0.369998
-4.197278 -2.988577 -0.359513
-4.209573 -2.977885 -0.360495
-4.216039 -2.965434 -0.360425
-4.213123 -2.950327 -0.358680
-4.199384 -2.932312 -0.355018
-4.201326 -2.918698 -0.354158
-4.194880 -2.902884 -0.351821
-4.204878 -2.891437 -0.352405
-4.201096 -2.876427 -0.350565
-4.189739 -2.859610 -0.347412
-4.183593 -2.844219 -0.345196
-4.190174 -2.831973 -0.345228
-4.183220 -2.816537 -0.342909
-4.176529 -2.801272 -0.340659
-4.176807 -2.787675 -0.339644
-4.180648 -2.774898 -0.339264
-4.180859 -2.761346 -0.338274
-4.181073 -2.747832 -0.337303
-4.179779 -2.734048 -0.336093
-4.175595 -2.719740 -0.334406
-4.175581 -2.706321 -0.333459
-4.169862 -2.691858 -0.331554
-4.162749 -2.677229 -0.329436
-4.171972 -2.665641 -0.330129
-4.172670 -2.652506 -0.329385
-4.163008 -2.637636 -0.326901
-4.157296 -2.623543 -0.325111
-4.152153 -2.609628 -0.323442
-4.155341 -2.597088 -0.323204
-4.154225 -2.583897 -0.322257
-4.158871 -2.571586 -0.322300
-4.158877 -2.558602 -0.321580
-4.153475 -2.544904 -0.319970
-4.133267 -2.529330 -0.315897
-4.134580 -2.516706 -0.315457
-4.140346 -2.504637 -0.315779
-4.145875 -2.492506 -0.316077
-4.143520 -2.479453 -0.315073
-4.137652 -2.466062 -0.313503
-4.137964 -2.453382 -0.312981
-4.132743 -2.440171 -0.311555
-4.131074 -2.427360 -0.310737
-4.130247 -2.414654 -0.310074
-4.129950 -2.402016 -0.309516
-4.124818 -2.389006 -0.308173
-4.123356 -2.376334 -0.307453
-4.133973 -2.364542 -0.308743
-4.129170 -2.351642 -0.307500
-4.127738 -2.339005 -0.306829
-4.126055 -2.326376 -0.306130
-4.120498 -2.313570 -0.304808
-4.119782 -2.301052 -0.304298
-4.113947 -2.288330 -0.302960
-4.113867 -2.275887 -0.302581
-4.112103 -2.263394 -0.301938
-4.114051 -2.251030 -0.301916
-4.115196 -2.238632 -0.301775
-4.117566 -2.226252 -0.301845
-4.112067 -2.213734 -0.300642
-4.109438 -2.201300 -0.299919
-4.111422 -2.188918 -0.299962
-4.105205 -2.176509 -0.298679
-4.104686 -2.164139 -0.298336
-4.099573 -2.151811 -0.297256
-4.101758 -2.139436 -0.297376
-4.100009 -2.127108 -0.296867
-4.101530 -2.114722 -0.296901
-4.096318 -2.102501 -0.295850
-4.096383 -2.090158 -0.295668
-4.098117 -2.077752 -0.295768
-4.100971 -2.065280 -0.296059
-4.097427 -2.053067 -0.295323
-4.094455 -2.040854 -0.294689
-4.091316 -2.028671 -0.294039
-4.083507 -2.016788 -0.292643
-4.081775 -2.004583 -0.292242
-4.076758 -1.992613 -0.291319
-4.078812 -1.980164 -0.291552
-4.079261 -1.967813 -0.291535
-4.082585 -1.955212 -0.291994
-4.081295 -1.942973 -0.291715
-4.074402 -1.931251 -0.290540
-4.067994 -1.919537 -0.289454
-4.070247 -1.906995 -0.289780
-4.076155 -1.894035 -0.290707
-4.073313 -1.881974 -0.290229
-4.072334 -1.869714 -0.290063
-4.066284 -1.858058 -0.289087
-4.069979 -1.845231 -0.289698
-4.068563 -1.833016 -0.289493
-4.056014 -1.822292 -0.287497
-4.058567 -1.809576 -0.287956
-4.059088 -1.797112 -0.288098
-4.056864 -1.785034 -0.287806
