ply
format ascii 1.0
comment ---
element vertex 1649
property float x
property float y
property float z
element face 0
property list uchar uint vertex_indices
end_header
-3.000962 -6.218209 0.188633
-3.014336 -6.213085 0.189469
-3.026674 -6.205102 0.190262
-3.039203 -6.197781 0.191055
-3.040731 -6.160643 0.191438
-3.051378 -6.148944 0.192142
-3.064123 -6.143043 0.192914
-3.078506 -6.141490 0.193739
-3.091649 -6.136709 0.194509
-3.102225 -6.125479 0.195171
-3.107289 -6.100699 0.195613
-3.063518 -5.956129 0.194165
-3.079254 -5.960070 0.194983
-3.093200 -5.959533 0.195723
-3.105798 -5.955736 0.196401
-3.118448 -5.952078 0.197071
-3.130591 -5.947260 0.197712
-3.143603 -5.944458 0.198378
-3.162171 -5.954139 0.199253
-3.174147 -5.948847 0.199859
-3.186194 -5.943748 0.200458
-3.198845 -5.939986 0.201072
-3.212274 -5.937888 0.201707
-3.226238 -5.936872 0.202354
-3.239940 -5.935232 0.202981
-3.254745 -5.935805 0.203644
-3.267438 -5.931947 0.204213
-3.276113 -5.919963 0.204611
-3.291855 -5.922239 0.205285
-3.309525 -5.928154 0.206028
-3.325050 -5.929636 0.206675
-3.339310 -5.928531 0.207264
-3.354293 -5.928708 0.207873
-3.369906 -5.929944 0.208499
-3.386050 -5.932018 0.209139
-3.399209 -5.928419 0.209650
-3.413765 -5.927318 0.210209
-3.426072 -5.922050 0.210670
-3.441421 -5.922193 0.211246
-3.454960 -5.919002 0.211742
-3.470078 -5.918499 0.212293
-3.485500 -5.918394 0.212850
-3.506232 -5.927229 0.213611
-3.518574 -5.921544 0.214030
-3.530212 -5.914654 0.214414
-3.542457 -5.908766 0.214815
-3.557811 -5.907951 0.215334
-3.574202 -5.908687 0.215887
-3.583309 -5.897560 0.216145
-3.605975 -5.908062 0.216934
-3.624606 -5.911848 0.217557
-3.640244 -5.910741 0.218055
-3.654750 -5.907756 0.218502
-3.669194 -5.904576 0.218941
-3.679995 -5.895798 0.219231
-3.700117 -5.900979 0.219881
-3.727492 -5.916640 0.220809
-3.746851 -5.920074 0.221416
-3.762629 -5.918073 0.221878
-3.764449 -5.895876 0.221794
-3.776052 -5.887874 0.222085
-3.795042 -5.890278 0.222657
-3.808732 -5.885067 0.223020
-3.824532 -5.882705 0.223459
-3.847839 -5.890500 0.224181
-3.872313 -5.899555 0.224942
-3.890014 -5.899167 0.225438
-3.902436 -5.891592 0.225729
-3.919758 -5.890441 0.226201
-3.933009 -5.883824 0.226516
-3.952202 -5.884837 0.227050
-3.964617 -5.876978 0.227325
-3.976868 -5.868883 0.227590
-3.992835 -5.865428 0.227991
-4.034546 -5.893881 0.229350
-4.043810 -5.881639 0.229490
-4.057441 -5.874775 0.229791
-4.071953 -5.868923 0.230121
-4.093469 -5.871386 0.230706
-4.112876 -5.871115 0.231209
-4.129875 -5.867836 0.231618
-4.148097 -5.865855 0.232069
-4.165563 -5.862853 0.232488
-4.182383 -5.858981 0.232880
-4.210494 -5.867773 0.233678
-4.229395 -5.865884 0.234137
-4.243005 -5.857961 0.234400
-4.257597 -5.851075 0.234695
-4.275952 -5.848226 0.235122
-4.290884 -5.841541 0.235423
-4.310862 -5.840186 0.235900
-4.332342 -5.840253 0.236426
-4.350668 -5.836812 0.236836
-4.366914 -5.831073 0.237168
-4.380700 -5.822705 0.237409
-4.396915 -5.816775 0.237732
-4.412518 -5.810136 0.238030
-4.432057 -5.807366 0.238462
-4.449911 -5.802772 0.238830
-4.470201 -5.800459 0.239279
-4.494634 -5.802024 0.239866
-4.514728 -5.799164 0.240297
-4.531101 -5.792590 0.240594
-4.545965 -5.784498 0.240836
-4.561340 -5.776826 0.241090
-4.578613 -5.770854 0.241405
-4.591558 -5.760790 0.241567
-4.605066 -5.751215 0.241744
-4.611947 -5.735604 0.241693
-4.611638 -5.713621 0.241396
-4.608427 -5.689252 0.241000
-4.610166 -5.669476 0.240769
-4.606178 -5.644859 0.240344
-4.603017 -5.621198 0.239945
-4.603386 -5.600784 0.239662
-4.605458 -5.581979 0.239432
-4.605533 -5.561632 0.239134
-4.605502 -5.541360 0.238829
-4.610016 -5.524997 0.238670
-4.603007 -5.499312 0.238132
-4.608171 -5.483740 0.237987
-4.595211 -5.453715 0.237252
-4.606608 -5.443375 0.237301
-4.604363 -5.422282 0.236906
-4.605767 -5.404208 0.236624
-4.600244 -5.380909 0.236118
-4.587375 -5.352216 0.235377
-4.587019 -5.333318 0.235029
-4.590322 -5.317301 0.234792
-4.599902 -5.306027 0.234746
-4.569566 -5.265381 0.233450
-4.572579 -5.249585 0.233191
-4.587214 -5.242250 0.233284
-4.633683 -5.257578 0.234346
-4.675989 -5.269429 0.235262
-4.686950 -5.258849 0.235206
-4.697043 -5.247632 0.235115
-4.710721 -5.238851 0.235123
-4.712807 -5.222109 0.234773
-4.725231 -5.212410 0.234725
-4.729618 -5.197290 0.234427
-4.735598 -5.183266 0.234168
-4.790812 -5.111507 0.232972
-4.776068 -5.084726 0.232058
-4.760434 -5.057674 0.231115
-4.758326 -5.039046 0.230547
-4.760368 -5.022996 0.230088
-4.767436 -5.009958 0.229757
-4.765587 -4.991706 0.229171
-4.751943 -4.966743 0.228258
-4.754112 -4.951046 0.227768
-4.753751 -4.933959 0.227200
-4.744631 -4.912053 0.226391
-4.748856 -4.897692 0.225930
-4.735210 -4.873581 0.224991
-4.734179 -4.856510 0.224377
-4.721444 -4.833260 0.223454
-4.729533 -4.821215 0.223059
-4.734714 -4.807611 0.222579
-4.731058 -4.789442 0.221868
-4.726052 -4.770681 0.221118
-4.713638 -4.748302 0.220182
-4.709573 -4.730283 0.219447
-4.711257 -4.715195 0.218847
-4.701555 -4.694606 0.217970
-4.692017 -4.674264 0.217096
-4.690396 -4.657847 0.216407
-4.693102 -4.643533 0.215816
-4.691813 -4.627398 0.215130
-4.690192 -4.611189 0.214435
-4.681839 -4.592025 0.213590
-4.670973 -4.571907 0.212695
-4.671930 -4.557183 0.212066
-4.671298 -4.541835 0.211405
-4.674899 -4.528389 0.210841
-4.663532 -4.508661 0.209965
-4.659375 -4.492161 0.209254
-4.661715 -4.478483 0.208690
-4.664379 -4.465016 0.208144
-4.664391 -4.450574 0.207558
-4.652041 -4.431370 0.206742
-4.657612 -4.419419 0.206305
-4.651577 -4.403087 0.205660
-4.633290 -4.382322 0.204803
-4.633496 -4.368826 0.204334
-4.636578 -4.356558 0.203948
-4.642256 -4.345382 0.203639
-4.645533 -4.333477 0.203317
-4.632272 -4.315883 0.202720
-4.634336 -4.303974 0.202446
-4.647741 -4.296164 0.202417
-4.657508 -4.287214 0.202358
-4.676721 -4.281568 0.202510
-2.647556 -6.253662 0.157231
-2.659525 -6.253610 0.157507
-2.669103 -6.241961 0.157817
-2.685185 -6.257929 0.158211
-2.693579 -6.239686 0.158604
-2.707828 -6.245637 0.159077
-2.720250 -6.243052 0.159580
-2.732804 -6.240292 0.160123
-2.747507 -6.245362 0.160723
-2.760468 -6.242818 0.161343
-2.775718 -6.248418 0.162018
-2.788710 -6.244808 0.162701
-2.803038 -6.245676 0.163427
-2.817571 -6.246758 0.164180
-2.831018 -6.243517 0.164942
-2.843428 -6.236382 0.165707
-2.856115 -6.230076 0.166491
-2.869137 -6.224775 0.167293
-2.882367 -6.220043 0.168107
-2.896002 -6.216513 0.168937
-2.910141 -6.214467 0.169782
-2.926014 -6.217699 0.170664
-2.939936 -6.214623 0.171514
-2.957008 -6.221015 0.172427
-2.971406 -6.219075 0.173290
-2.986955 -6.220427 0.174176
-3.000349 -6.215378 0.175014
-3.013041 -6.208366 0.175832
-3.026903 -6.204731 0.176670
-3.037642 -6.192477 0.177430
-3.039247 -6.155638 0.177967
-3.050936 -6.146808 0.178725
-3.063606 -6.140734 0.179497
-3.077188 -6.137124 0.180282
-3.092411 -6.137743 0.181099
-3.103684 -6.128258 0.181807
-3.111424 -6.110126 0.182412
-3.063615 -5.955518 0.181544
-3.080451 -5.962131 0.182345
-3.093785 -5.960089 0.183044
-3.106868 -5.957425 0.183726
-3.118060 -5.950332 0.184347
-3.131513 -5.948550 0.185020
-3.142942 -5.942119 0.185627
-3.156444 -5.940425 0.186281
-3.172163 -5.943608 0.186990
-3.184964 -5.940220 0.187606
-3.198993 -5.939482 0.188247
-3.213536 -5.939767 0.188895
-3.226736 -5.937105 0.189494
-3.239300 -5.933076 0.190064
-3.252957 -5.931297 0.190658
-3.268841 -5.933999 0.191309
-3.280975 -5.928967 0.191839
-3.293873 -5.925463 0.192383
-3.308743 -5.925813 0.192977
-3.325271 -5.929271 0.193613
-3.337559 -5.924363 0.194113
-3.351574 -5.922738 0.194656
-3.367964 -5.925500 0.195264
-3.383803 -5.927052 0.195847
-3.399699 -5.928549 0.196423
-3.414139 -5.927230 0.196948
-3.427271 -5.923451 0.197424
-3.440289 -5.919418 0.197889
-3.456555 -5.921066 0.198447
-3.473642 -5.923978 0.199023
-3.490841 -5.926882 0.199595
-3.501432 -5.918293 0.199956
-3.514591 -5.914084 0.200390
-3.530349 -5.914169 0.200897
-3.545686 -5.913409 0.201384
-3.566842 -5.922057 0.202045
-3.571486 -5.903591 0.202188
-3.586579 -5.902132 0.202648
-3.600197 -5.898204 0.203057
-3.620326 -5.904448 0.203661
-3.637531 -5.905859 0.204169
-3.652349 -5.903405 0.204597
-3.664857 -5.897320 0.204948
-3.680879 -5.896508 0.205402
-3.699524 -5.899473 0.205932
-3.723292 -5.909808 0.206614
-3.744866 -5.916558 0.207222
-3.754801 -5.906114 0.207467
-3.757623 -5.885484 0.207489
-3.778668 -5.891032 0.208067
-3.793484 -5.887524 0.208448
-3.808453 -5.884133 0.208829
-3.823030 -5.880095 0.209194
-3.851584 -5.895102 0.209980
-3.872975 -5.899936 0.210543
-3.888196 -5.896221 0.210914
-3.900642 -5.888713 0.211196
-3.912478 -5.880370 0.211455
-3.932436 -5.882607 0.211957
-3.951170 -5.883046 0.212418
-3.967968 -5.880820 0.212815
-3.982571 -5.875678 0.213143
-4.003466 -5.878353 0.213656
-4.032525 -5.890951 0.214410
-4.051376 -5.890558 0.214853
-4.059148 -5.876469 0.214961
-4.072171 -5.868811 0.215223
-4.085048 -5.860938 0.215478
-4.112291 -5.870069 0.216155
-4.128766 -5.866191 0.216509
-4.147563 -5.864903 0.216928
-4.165078 -5.861976 0.217306
-4.183658 -5.860132 0.217711
-4.209767 -5.866653 0.218333
-4.230549 -5.866893 0.218794
-4.243887 -5.858669 0.219035
-4.260949 -5.854504 0.219380
-4.274995 -5.846936 0.219635
-4.288657 -5.838901 0.219875
-4.304420 -5.833070 0.220173
-4.333195 -5.840944 0.220843
-4.352123 -5.838138 0.221224
-4.368155 -5.832174 0.221518
-4.382065 -5.823934 0.221747
-4.397766 -5.817476 0.222024
-4.415283 -5.812777 0.222350
-4.434485 -5.809654 0.222719
-4.451503 -5.804219 0.223022
-4.471354 -5.801468 0.223401
-4.498242 -5.805427 0.223973
-4.519692 -5.803854 0.224387
-4.535375 -5.796585 0.224634
-4.548557 -5.786870 0.224807
-4.565583 -5.780737 0.225083
-4.580893 -5.772912 0.225306
-4.596543 -5.765332 0.225534
-4.606443 -5.752427 0.225599
-4.610578 -5.734327 0.225500
-4.609139 -5.711351 0.225246
-4.610153 -5.690764 0.225056
-4.609589 -5.668955 0.224820
-4.604618 -5.643494 0.224461
-4.599195 -5.617899 0.224088
-4.600999 -5.598751 0.223908
-4.602782 -5.579727 0.223724
-4.597452 -5.554866 0.223346
-4.603368 -5.539613 0.223265
-4.611415 -5.526186 0.223238
-4.616212 -5.510138 0.223118
-4.602937 -5.479551 0.222515
-4.603626 -5.460511 0.222279
-4.605291 -5.442385 0.222064
-4.608837 -5.425860 0.221894
-4.598380 -5.398517 0.221353
-4.602232 -5.382512 0.221182
-4.596770 -5.359468 0.220764
-4.578381 -5.326852 0.220010
-4.589664 -5.316884 0.220015
-4.577958 -5.289808 0.219426
-4.564522 -5.261753 0.218790
-4.564150 -5.243527 0.218482
-4.572723 -5.231881 0.218394
-4.597580 -5.231868 0.218706
-4.679901 -5.272288 0.220438
-4.679868 -5.253980 0.220101
-4.689712 -5.242638 0.220001
-4.714643 -5.241640 0.220262
-4.718042 -5.225766 0.219984
-4.724152 -5.211779 0.219763
-4.731796 -5.198839 0.219571
-4.712485 -5.168101 0.218722
-4.740304 -5.168527 0.218995
-4.757318 -5.161690 0.218996
-4.810046 -5.123547 0.218513
-4.760189 -5.075052 0.216916
-4.758405 -5.056526 0.216420
-4.757942 -5.038899 0.215946
-4.762776 -5.024513 0.215582
-4.767787 -5.010245 0.215212
-4.761759 -4.989552 0.214587
-4.749913 -4.965647 0.213828
-4.746241 -4.946625 0.213241
-4.741254 -4.926973 0.212618
-4.745223 -4.912451 0.212179
-4.757707 -4.902646 0.211910
-4.765450 -4.890160 0.211527
-4.734679 -4.856840 0.210335
-4.731579 -4.838729 0.209713
-4.729425 -4.821214 0.209104
-4.728911 -4.804636 0.208521
-4.727627 -4.787724 0.207914
-4.723923 -4.769648 0.207253
-4.715181 -4.749131 0.206488
-4.720308 -4.735681 0.205986
-4.715340 -4.717256 0.205284
-4.705113 -4.696388 0.204480
-4.699539 -4.677931 0.203762
-4.694045 -4.659633 0.203044
-4.687860 -4.641136 0.202312
-4.689572 -4.626425 0.201722
-4.685792 -4.609247 0.201032
-4.675360 -4.589176 0.200229
-4.672643 -4.572732 0.199563
-4.671693 -4.557169 0.198931
-4.680863 -4.546087 0.198472
-4.677773 -4.529732 0.197813
-4.670585 -4.511769 0.197096
-4.658920 -4.492112 0.196320
-4.652334 -4.474778 0.195640
-4.663202 -4.464715 0.195248
-4.653971 -4.446597 0.194558
-4.655953 -4.433136 0.194059
-4.656611 -4.419273 0.193560
-4.651357 -4.403273 0.192995
-4.633130 -4.382558 0.192267
-4.626610 -4.366578 0.191741
-4.631123 -4.354906 0.191403
-4.633298 -4.342517 0.191062
-4.625607 -4.326755 0.190616
-4.630784 -4.315823 0.190385
-4.647049 -4.308920 0.190342
-4.641620 -4.294603 0.190037
-4.654530 -4.286792 0.190023
-4.693200 -4.287729 0.190398
-2.651884 -6.268922 0.144347
-2.662461 -6.262524 0.144597
-2.676145 -6.269017 0.144855
-2.688833 -6.269961 0.145180
-2.698527 -6.257207 0.145595
-2.711468 -6.257547 0.146016
-2.725392 -6.261039 0.146473
-2.738214 -6.259176 0.146988
-2.750368 -6.254004 0.147551
-2.764272 -6.255077 0.148137
-2.776341 -6.248508 0.148774
-2.791049 -6.251407 0.149425
-2.804493 -6.249025 0.150116
-2.817210 -6.243618 0.150838
-2.830828 -6.241126 0.151579
-2.844983 -6.240161 0.152340
-2.861627 -6.247339 0.153117
-2.875463 -6.244530 0.153916
-2.888880 -6.240128 0.154728
-2.906190 -6.248198 0.155555
-2.913495 -6.223917 0.156373
-2.927036 -6.219728 0.157205
-2.940396 -6.214916 0.158040
-2.954789 -6.213209 0.158881
-2.969967 -6.213736 0.159728
-2.981626 -6.203771 0.160552
-2.996491 -6.203242 0.161394
-3.011930 -6.204234 0.162238
-3.026613 -6.202966 0.163072
-3.037184 -6.190282 0.163863
-3.038559 -6.152861 0.164548
-3.050228 -6.144015 0.165321
-3.062322 -6.136459 0.166088
-3.077123 -6.136077 0.166878
-3.091116 -6.133548 0.167649
-3.105538 -6.132090 0.168416
-3.114095 -6.115942 0.169095
-3.072245 -5.975974 0.169045
-3.081601 -5.964123 0.169681
-3.094667 -5.961403 0.170360
-3.106193 -5.955029 0.171004
-3.120093 -5.954284 0.171675
-3.133327 -5.951938 0.172326
-3.146828 -5.950175 0.172972
-3.159104 -5.945616 0.173587
-3.171143 -5.940552 0.174187
-3.185708 -5.941063 0.174821
-3.200378 -5.941695 0.175448
-3.214538 -5.941123 0.176057
-3.226993 -5.936864 0.176625
-3.240915 -5.935668 0.177210
-3.257714 -5.940337 0.177841
-3.271256 -5.938148 0.178402
-3.283555 -5.933392 0.178929
-3.297153 -5.931227 0.179472
-3.309916 -5.927352 0.179990
-3.323750 -5.925539 0.180520
-3.337108 -5.922729 0.181031
-3.351809 -5.922424 0.181562
-3.370440 -5.929405 0.182166
-3.382847 -5.924518 0.182633
-3.400901 -5.930012 0.183211
-3.414800 -5.927688 0.183694
-3.425419 -5.919373 0.184099
-3.442574 -5.922758 0.184636
-3.457068 -5.921241 0.185109
-3.474622 -5.924963 0.185640
-3.490965 -5.926377 0.186139
-3.504681 -5.923132 0.186574
-3.515054 -5.914161 0.186929
-3.526659 -5.907298 0.187303
-3.546896 -5.914721 0.187861
-3.560451 -5.910898 0.188265
-3.581347 -5.918909 0.188826
-3.588866 -5.905136 0.189083
-3.601472 -5.899573 0.189447
-3.613658 -5.893311 0.189796
-3.636345 -5.903368 0.190374
-3.654166 -5.905571 0.190838
-3.667657 -5.900968 0.191200
-3.683290 -5.899532 0.191604
-3.700972 -5.901031 0.192049
-3.716819 -5.899623 0.192448
-3.731968 -5.897057 0.192826
-3.763383 -5.917990 0.193566
-3.775983 -5.911304 0.193877
-3.784723 -5.899091 0.194096
-3.799536 -5.895505 0.194447
-3.809846 -5.885539 0.194692
-3.830232 -5.889522 0.195161
-3.852690 -5.896094 0.195673
-3.870936 -5.896661 0.196085
-3.886998 -5.894113 0.196444
-3.899833 -5.887150 0.196725
-3.915624 -5.884037 0.197069
-3.933417 -5.883422 0.197455
-3.956929 -5.890031 0.197967
-3.973645 -5.887641 0.198321
-3.993522 -5.889126 0.198742
-4.014834 -5.892204 0.199193
-4.032436 -5.890431 0.199556
-4.055899 -5.895729 0.200047
-4.069739 -5.889006 0.200319
-4.073256 -5.869749 0.200354
-4.087041 -5.862963 0.200618
-4.104508 -5.860487 0.200961
-4.133647 -5.871586 0.201562
-4.147092 -5.864028 0.201808
-4.169497 -5.866755 0.202252
-4.185012 -5.861373 0.202538
-4.198699 -5.853835 0.202779
-4.227041 -5.862678 0.203345
-4.244075 -5.858607 0.203655
-4.257971 -5.850968 0.203891
-4.273077 -5.844598 0.204152
-4.288366 -5.838352 0.204413
-4.307831 -5.836495 0.204763
-4.331732 -5.839181 0.205208
-4.350759 -5.836503 0.205541
-4.368169 -5.831995 0.205836
-4.381822 -5.823502 0.206043
-4.398536 -5.818093 0.206315
-4.414935 -5.812266 0.206576
-4.433046 -5.808063 0.206871
-4.449788 -5.802377 0.207132
-4.471088 -5.801079 0.207488
-4.494951 -5.802100 0.207895
-4.515419 -5.799619 0.208224
-4.532869 -5.794088 0.208483
-4.547760 -5.786026 0.208683
-4.561231 -5.776570 0.208847
-4.579769 -5.771795 0.209116
-4.593751 -5.762696 0.209283
-4.602386 -5.748668 0.209330
-4.600623 -5.725273 0.209152
-4.605547 -5.708096 0.209113
-4.607134 -5.688055 0.208999
-4.606881 -5.666553 0.208842
-4.602936 -5.642016 0.208604
-4.599193 -5.617893 0.208366
-4.598425 -5.596551 0.208188
-4.599985 -5.577364 0.208054
-4.600904 -5.557782 0.207903
-4.601542 -5.538115 0.207742
-4.609027 -5.524244 0.207717
-4.610599 -5.505586 0.207566
-4.605944 -5.482021 0.207281
-4.603420 -5.460388 0.207036
-4.600242 -5.438423 0.206773
-4.595911 -5.415744 0.206482
-4.600165 -5.399962 0.206360
-4.597820 -5.379165 0.206099
-4.602971 -5.364270 0.205984
-4.587029 -5.333463 0.205440
-4.578617 -5.308666 0.205044
-4.568077 -5.282537 0.204601
-4.566356 -5.263172 0.204327
-4.561458 -5.241637 0.203986
-4.565087 -5.226444 0.203806
-4.608482 -5.239734 0.204390
-4.652708 -5.253124 0.204974
-4.685327 -5.257884 0.205320
-4.698460 -5.248788 0.205279
-4.704774 -5.234941 0.205098
-4.712652 -5.222180 0.204938
-4.718609 -5.208127 0.204732
-4.704584 -5.180770 0.204145
-4.728705 -5.178891 0.204259
-4.741645 -5.169482 0.204153
-4.810981 -5.160165 0.204312
-4.807758 -5.122198 0.203466
-4.753868 -5.071235 0.202113
-4.761821 -5.058671 0.201842
-4.754059 -5.036626 0.201289
-4.760241 -5.023064 0.200967
-4.764230 -5.008208 0.200596
-4.751159 -4.983425 0.199928
-4.751076 -4.966372 0.199470
-4.746124 -4.946609 0.198923
-4.743093 -4.928061 0.198399
-4.747319 -4.913667 0.197983
-4.745980 -4.896212 0.197468
-4.746134 -4.879651 0.196968
-4.741690 -4.860663 0.196386
-4.741132 -4.843866 0.195857
-4.734129 -4.823731 0.195221
-4.729250 -4.804845 0.194612
-4.726136 -4.786985 0.194021
-4.725680 -4.770572 0.193463
-4.727695 -4.755466 0.192932
-4.728345 -4.739711 0.192375
-4.723562 -4.721330 0.191735
-4.710098 -4.698841 0.190972
-4.704556 -4.680371 0.190316
-4.706355 -4.665507 0.189756
-4.684294 -4.639501 0.188881
-4.681874 -4.622902 0.188264
-4.685236 -4.609039 0.187720
-4.679630 -4.591156 0.187063
-4.671453 -4.572262 0.186378
-4.677797 -4.559924 0.185873
-4.679129 -4.545416 0.185311
-4.673811 -4.528128 0.184677
-4.667186 -4.510439 0.184039
-4.651770 -4.489251 0.183316
-4.645840 -4.472245 0.182714
-4.650552 -4.459737 0.182241
-4.652426 -4.446160 0.181753
-4.642725 -4.428113 0.181164
-4.645664 -4.415236 0.180726
-4.645671 -4.401345 0.180281
-4.634352 -4.383310 0.179750
-4.621541 -4.364999 0.179237
-4.626288 -4.353474 0.178923
-4.626614 -4.340472 0.178598
-4.630365 -4.328888 0.178339
-4.638726 -4.319101 0.178157
-4.636136 -4.305613 0.177912
-4.651553 -4.298574 0.177869
-4.646843 -4.284769 0.177684
-4.604146 -4.258490 0.177204
-2.652514 -6.267205 0.131472
-2.664419 -6.267003 0.131653
-2.676290 -6.265619 0.131895
-2.687280 -6.259486 0.132222
-2.698830 -6.254996 0.132585
-2.711396 -6.253993 0.132969
-2.724050 -6.252530 0.133401
-2.737044 -6.251676 0.133873
-2.750761 -6.252943 0.134372
-2.764330 -6.252883 0.134919
-2.776968 -6.248642 0.135531
-2.788672 -6.240477 0.136201
-2.803736 -6.244327 0.136825
-2.817198 -6.241781 0.137518
-2.830992 -6.240032 0.138231
-2.845070 -6.238904 0.138963
-2.859824 -6.239734 0.139705
-2.873631 -6.237020 0.140482
-2.886827 -6.232081 0.141284
-2.900348 -6.228072 0.142092
-2.914171 -6.224910 0.142904
-2.933556 -6.239016 0.143660
-2.948694 -6.239395 0.144476
-2.962417 -6.235289 0.145312
-2.976163 -6.231215 0.146147
-2.994096 -6.239398 0.146950
-3.003126 -6.221476 0.147817
-3.015317 -6.212962 0.148652
-3.027728 -6.205204 0.149479
-3.036895 -6.188614 0.150310
-3.037346 -6.148718 0.151152
-3.046891 -6.134242 0.151944
-3.063056 -6.137574 0.152713
-3.075111 -6.130023 0.153479
-3.089802 -6.129362 0.154234
-3.104974 -6.129852 0.154981
-3.117414 -6.123423 0.155716
-3.074195 -5.980017 0.156327
-3.085182 -5.972067 0.157000
-3.094117 -5.959331 0.157653
-3.107756 -5.957975 0.158310
-3.119426 -5.951974 0.158948
-3.136337 -5.958127 0.159600
-3.150758 -5.958368 0.160233
-3.161521 -5.950296 0.160834
-3.172484 -5.942780 0.161425
-3.186451 -5.941942 0.162024
-3.201490 -5.943351 0.162621
-3.214991 -5.941341 0.163198
-3.227983 -5.938206 0.163761
-3.244658 -5.942734 0.164344
-3.259171 -5.942593 0.164902
-3.271104 -5.937087 0.165428
-3.282596 -5.930713 0.165939
-3.297787 -5.931746 0.166475
-3.309610 -5.926006 0.166970
-3.323464 -5.924241 0.167475
-3.337928 -5.923572 0.167978
-3.355529 -5.928773 0.168507
-3.369612 -5.927114 0.168991
-3.385396 -5.928534 0.169485
-3.400835 -5.929163 0.169969
-3.412736 -5.923203 0.170404
-3.427656 -5.922685 0.170866
-3.444816 -5.926039 0.171347
-3.458541 -5.923130 0.171781
-3.469754 -5.915763 0.172175
-3.489877 -5.923797 0.172674
-3.503762 -5.920868 0.173088
-3.513005 -5.910011 0.173436
-3.523051 -5.900584 0.173785
-3.537376 -5.898288 0.174184
-3.556197 -5.903260 0.174636
-3.574135 -5.906552 0.175071
-3.593913 -5.912581 0.175525
-3.606735 -5.907287 0.175880
-3.621325 -5.904729 0.176253
-3.634724 -5.900216 0.176604
-3.654627 -5.905658 0.177040
-3.674505 -5.910799 0.177472
-3.685873 -5.902826 0.177778
-3.700321 -5.899460 0.178123
-3.714146 -5.895076 0.178453
-3.725641 -5.887205 0.178746
-3.740822 -5.884674 0.179086
-3.771969 -5.904972 0.179654
-3.785701 -5.899929 0.179965
-3.799370 -5.894729 0.180270
-3.809732 -5.884850 0.180523
-3.822037 -5.877676 0.180799
-3.853211 -5.896295 0.181351
-3.870982 -5.896221 0.181701
-3.886730 -5.893260 0.182017
-3.902904 -5.890750 0.182336
-3.918969 -5.887972 0.182650
-3.947468 -5.901286 0.183147
-3.958820 -5.892023 0.183382
-3.975288 -5.889305 0.183692
-3.991952 -5.886708 0.184000
-4.009160 -5.884665 0.184314
-4.033988 -5.891953 0.184740
-4.056635 -5.896239 0.185130
-4.069423 -5.888235 0.185367
-4.079828 -5.877319 0.185565
-4.089534 -5.865587 0.185748
-4.117875 -5.875989 0.186213
-4.139300 -5.877888 0.186569
-4.158069 -5.876475 0.186882
-4.174554 -5.872269 0.187157
-4.187575 -5.863997 0.187376
-4.202531 -5.857880 0.187621
-4.222847 -5.857694 0.187945
-4.242304 -5.856370 0.188254
-4.262830 -5.856054 0.188575
-4.274788 -5.846215 0.188762
-4.286227 -5.835805 0.188938
-4.309569 -5.838129 0.189293
-4.331467 -5.838686 0.189623
-4.347268 -5.832633 0.189856
-4.363203 -5.826636 0.190088
-4.383278 -5.824821 0.190380
-4.399008 -5.818403 0.190602
-4.414433 -5.811596 0.190816
-4.431115 -5.805976 0.191045
-4.447780 -5.800241 0.191270
-4.468331 -5.798234 0.191551
-4.488238 -5.795434 0.191818
-4.507181 -5.791550 0.192066
-4.524708 -5.786176 0.192289
-4.544194 -5.782553 0.192537
-4.562617 -5.777789 0.192764
-4.575489 -5.767737 0.192902
-4.590232 -5.759385 0.193065
-4.594212 -5.741142 0.193060
-4.598183 -5.723016 0.193050
-4.601070 -5.704040 0.193020
-4.602390 -5.683808 0.192962
-4.603655 -5.663689 0.192898
-4.601078 -5.640378 0.192773
-4.597353 -5.616293 0.192626
-4.598267 -5.596411 0.192543
-4.600897 -5.578140 0.192481
-4.603669 -5.560113 0.192416
-4.603667 -5.539896 0.192305
-4.602809 -5.519137 0.192176
-4.604699 -5.500792 0.192082
-4.604999 -5.481286 0.191960
-4.602289 -5.459515 0.191788
-4.598335 -5.436945 0.191592
-4.599437 -5.418559 0.191465
-4.591065 -5.392917 0.191195
-4.595632 -5.377523 0.191105
-4.595470 -5.358586 0.190941
-4.597276 -5.341274 0.190799
-4.574531 -5.305656 0.190302
-4.575488 -5.288098 0.190136
-4.571542 -5.267045 0.189895
-4.567687 -5.246235 0.189648
-4.570722 -5.230570 0.189490
-4.628928 -5.254406 0.190085
-4.669302 -5.264931 0.190418
-4.689275 -5.260716 0.190459
-4.697549 -5.248222 0.190331
-4.695504 -5.228636 0.190055
-4.694146 -5.209654 0.189780
-4.695508 -5.192629 0.189533
-4.715337 -5.188005 0.189519
-4.733508 -5.182126 0.189471
-4.747335 -5.173265 0.189353
-4.770350 -5.081419 0.187655
-4.756902 -5.055727 0.187127
-4.763510 -5.042362 0.186831
-4.746443 -5.014886 0.186244
-4.735191 -4.991128 0.185720
-4.744394 -4.979516 0.185423
-4.751877 -4.966867 0.185095
-4.750978 -4.949409 0.184660
-4.752802 -4.933569 0.184245
-4.741673 -4.910537 0.183679
-4.741364 -4.893683 0.183223
-4.740366 -4.876517 0.182749
-4.733878 -4.856459 0.182209
-4.733303 -4.839697 0.181722
-4.730876 -4.822023 0.181208
-4.728304 -4.804359 0.180683
-4.730656 -4.789323 0.180198
-4.717726 -4.766521 0.179561
-4.719325 -4.751252 0.179054
-4.726851 -4.738972 0.178592
-4.726829 -4.722943 0.178055
-4.703403 -4.695590 0.177309
-4.706780 -4.681447 0.176793
-4.698686 -4.661879 0.176177
-4.685821 -4.640230 0.175523
-4.678594 -4.621402 0.174915
-4.681691 -4.607442 0.174387
-4.685968 -4.594047 0.173867
-4.676549 -4.574573 0.173248
-4.678945 -4.560478 0.172718
-4.672930 -4.542785 0.172135
-4.666538 -4.525086 0.171558
-4.660579 -4.507733 0.170995
-4.656195 -4.491203 0.170453
-4.644379 -4.471766 0.169882
-4.645392 -4.457785 0.169403
-4.648835 -4.444888 0.168954
-4.645128 -4.429255 0.168484
-4.644310 -4.414927 0.168052
-4.642597 -4.400410 0.167639
-4.637804 -4.384900 0.167237
-4.625833 -4.366916 0.166831
-4.622525 -4.352430 0.166499
-4.632031 -4.342829 0.166260
-4.641404 -4.333277 0.166053
-4.630398 -4.316612 0.165791
-4.630209 -4.304045 0.165616
-4.641500 -4.295656 0.165531
-4.639855 -4.282983 0.165431
-4.660301 -4.277973 0.165467
-2.652384 -6.261987 0.118670
-2.664917 -6.264901 0.118763
-2.676432 -6.262198 0.118977
-2.687623 -6.257198 0.119270
-2.699378 -6.253817 0.119593
-2.711327 -6.250457 0.119962
-2.724151 -6.249926 0.120345
-2.737415 -6.250371 0.120761
-2.751195 -6.252060 0.121206
-2.763950 -6.249025 0.121746
-2.776400 -6.244283 0.122342
-2.789691 -6.242226 0.122942
-2.803139 -6.240253 0.123573
-2.817407 -6.240778 0.124207
-2.831176 -6.239052 0.124892
-2.845331 -6.238296 0.125590
-2.859620 -6.237629 0.126309
-2.873546 -6.235417 0.127061
-2.886794 -6.230735 0.127851
-2.900357 -6.226937 0.128644
-2.915813 -6.229028 0.129395
-2.932081 -6.233354 0.130137
-2.948088 -6.236525 0.130898
-2.961426 -6.231327 0.131732
-2.975025 -6.226900 0.132560
-2.990038 -6.226600 0.133356
-3.004625 -6.224934 0.134162
-3.020952 -6.228135 0.134933
-3.034916 -6.224504 0.135747
-3.041933 -6.201705 0.136674
-3.043248 -6.163972 0.137674
-3.052236 -6.147787 0.138524
-3.064813 -6.141445 0.139305
-3.076776 -6.133596 0.140084
-3.092535 -6.135618 0.140803
-3.103951 -6.126511 0.141566
-3.116255 -6.119781 0.142305
-3.072582 -5.975335 0.143599
-3.084260 -5.969119 0.144276
-3.094059 -5.958486 0.144958
-3.102176 -5.944067 0.145638
-3.118910 -5.950063 0.146238
-3.133996 -5.952021 0.146843
-3.151002 -5.958211 0.147429
-3.163037 -5.952990 0.148036
-3.174748 -5.947092 0.148633
-3.188077 -5.944792 0.149210
-3.200794 -5.941129 0.149780
-3.213890 -5.938271 0.150338
-3.228085 -5.937705 0.150882
-3.243249 -5.939075 0.151415
-3.257577 -5.938586 0.151942
-3.270345 -5.934822 0.152462
-3.282068 -5.928933 0.152972
-3.296308 -5.928082 0.153471
-3.309213 -5.924513 0.153961
-3.322762 -5.922162 0.154442
-3.339074 -5.925068 0.154915
-3.356210 -5.929358 0.155382
-3.370011 -5.927155 0.155839
-3.382881 -5.923145 0.156286
-3.397372 -5.922081 0.156728
-3.414157 -5.925091 0.157166
-3.428830 -5.924102 0.157594
-3.446982 -5.929204 0.158023
-3.458701 -5.922722 0.158429
-3.469596 -5.914804 0.158823
-3.485049 -5.914783 0.159224
-3.501376 -5.916117 0.159622
-3.511838 -5.907372 0.159991
-3.522689 -5.899317 0.160354
-3.538563 -5.899597 0.160730
-3.555365 -5.901247 0.161105
-3.573420 -5.904749 0.161481
-3.591074 -5.907386 0.161850
-3.610033 -5.911892 0.162221
-3.622665 -5.906209 0.162555
-3.636331 -5.902099 0.162888
-3.651762 -5.900634 0.163225
-3.673377 -5.908473 0.163593
-3.687593 -5.904829 0.163914
-3.700639 -5.899349 0.164223
-3.715087 -5.895891 0.164535
-3.727773 -5.889761 0.164832
-3.740491 -5.883635 0.165123
-3.757656 -5.883856 0.165439
-3.780440 -5.891901 0.165787
-3.793589 -5.886052 0.166069
-3.807908 -5.881783 0.166354
-3.828599 -5.886230 0.166679
-3.848069 -5.888754 0.166992
-3.873858 -5.899621 0.167347
-3.888415 -5.895035 0.167620
-3.901960 -5.889020 0.167882
-3.920938 -5.890098 0.168180
-3.960501 -5.917818 0.168628
-3.959881 -5.892948 0.168774
-3.971474 -5.883991 0.169007
-3.990269 -5.884151 0.169292
-4.002191 -5.875506 0.169521
-4.014882 -5.867800 0.169752
-4.046804 -5.883740 0.170130
-4.063790 -5.880982 0.170390
-4.079240 -5.876238 0.170634
-4.095976 -5.872941 0.170886
-4.105783 -5.861305 0.171079
-4.128165 -5.864473 0.171370
-4.154423 -5.871907 0.171692
-4.171044 -5.867908 0.171932
-4.187211 -5.863278 0.172165
-4.206327 -5.861882 0.172420
-4.223300 -5.857921 0.172654
-4.248451 -5.862925 0.172955
-4.264266 -5.857375 0.173174
-4.276718 -5.848071 0.173362
-4.290376 -5.840049 0.173556
-4.311638 -5.840116 0.173813
-4.330307 -5.837240 0.174045
-4.344174 -5.829180 0.174232
-4.360797 -5.823939 0.174440
-4.380261 -5.821527 0.174669
-4.398216 -5.817421 0.174882
-4.411946 -5.808918 0.175055
-4.428924 -5.803627 0.175252
-4.447527 -5.799847 0.175460
-4.465792 -5.795603 0.175662
-4.486872 -5.793978 0.175885
-4.501503 -5.785950 0.176047
-4.522278 -5.783745 0.176259
-4.546337 -5.784486 0.176496
-4.562809 -5.777880 0.176662
-4.575798 -5.767944 0.176792
-4.586414 -5.755794 0.176897
-4.595496 -5.742252 0.176984
-4.599616 -5.724259 0.177022
-4.599722 -5.702784 0.177019
-4.604085 -5.685276 0.177048
-4.607155 -5.666738 0.177061
-4.602091 -5.641237 0.176997
-4.598697 -5.617436 0.176942
-4.600163 -5.598022 0.176925
-4.601671 -5.578792 0.176902
-4.603206 -5.559724 0.176874
-4.602830 -5.539207 0.176823
-4.600606 -5.517331 0.176750
-4.598876 -5.496050 0.176676
-4.602082 -5.478946 0.176638
-4.603383 -5.460415 0.176578
-4.598755 -5.437307 0.176460
-4.600007 -5.419038 0.176386
-4.601951 -5.401432 0.176311
-4.584314 -5.368826 0.176062
-4.597760 -5.360376 0.176072
-4.603314 -5.345888 0.176007
-4.584077 -5.312859 0.175726
-4.571115 -5.284894 0.175492
-4.571830 -5.267303 0.175365
-4.571746 -5.249240 0.175224
-4.583282 -5.239682 0.175171
-4.611846 -5.242249 0.175246
-4.674678 -5.268787 0.175587
-4.697309 -5.266398 0.175589
-4.698075 -5.248639 0.175406
-4.685891 -5.222081 0.175113
-4.694060 -5.209646 0.174971
-4.703195 -5.197856 0.174826
-4.713007 -5.186500 0.174675
-4.733304 -5.182038 0.174592
-4.741743 -5.169654 0.174408
-4.766830 -5.114518 0.173494
-4.769603 -5.098582 0.173213
-4.761506 -5.076013 0.172847
-4.763553 -5.059802 0.172540
-4.762567 -5.041819 0.172201
-4.745354 -5.014258 0.171748
-4.760895 -5.006300 0.171496
-4.765269 -4.991707 0.171159
-4.748635 -4.965009 0.170684
-4.757304 -4.953029 0.170352
-4.759026 -4.937088 0.169966
-4.746674 -4.913332 0.169491
-4.749189 -4.898004 0.169090
-4.730431 -4.871086 0.168565
-4.724533 -4.851404 0.168102
-4.724821 -4.835158 0.167662
-4.724949 -4.818881 0.167211
-4.734109 -4.807375 0.166792
-4.722412 -4.785053 0.166268
-4.712265 -4.763719 0.165747
-4.706772 -4.744906 0.165239
-4.714073 -4.732588 0.164777
-4.712014 -4.715632 0.164270
-4.699394 -4.693624 0.163720
-4.688530 -4.672664 0.163175
-4.690254 -4.657865 0.162669
-4.686415 -4.640499 0.162143
-4.676215 -4.620297 0.161598
-4.678050 -4.605780 0.161087
-4.675315 -4.589249 0.160565
-4.677661 -4.575086 0.160056
-4.678300 -4.560223 0.159546
-4.674708 -4.543599 0.159033
-4.664001 -4.524054 0.158517
-4.660873 -4.507929 0.158024
-4.656038 -4.491226 0.157541
-4.651773 -4.474919 0.157073
-4.651064 -4.460220 0.156625
-4.651625 -4.446160 0.156195
-4.654053 -4.432965 0.155786
-4.648253 -4.416674 0.155396
-4.644474 -4.401371 0.155031
-4.641392 -4.386533 0.154696
-4.642890 -4.373610 0.154390
-4.636320 -4.357868 0.154116
-4.642871 -4.347159 0.153876
-4.638330 -4.332594 0.153673
-4.635533 -4.318895 0.153508
-4.630890 -4.304788 0.153383
-4.631969 -4.292917 0.153297
-4.637591 -4.282807 0.153251
-4.645175 -4.273535 0.153248
-2.655024 -6.269361 0.105716
-2.665400 -6.262707 0.105906
-2.676730 -6.259446 0.106091
-2.688363 -6.256609 0.106321
-2.699454 -6.250631 0.106654
-2.711776 -6.249070 0.106961
-2.724687 -6.249102 0.107291
-2.738282 -6.251055 0.107635
-2.752033 -6.252782 0.108027
-2.764596 -6.249145 0.108548
-2.776919 -6.244064 0.109130
-2.790561 -6.243451 0.109677
-2.803908 -6.241208 0.110283
-2.816923 -6.237332 0.110943
-2.831484 -6.238557 0.111554
-2.845425 -6.237155 0.112230
-2.859299 -6.235175 0.112936
-2.873572 -6.234241 0.113646
-2.887191 -6.230859 0.114407
-2.900855 -6.227440 0.115181
-2.915278 -6.226285 0.115935
-2.930261 -6.226676 0.116677
-2.946254 -6.229943 0.117390
-2.958735 -6.222287 0.118249
-2.974830 -6.225457 0.118972
-2.989092 -6.222993 0.119768
-3.006048 -6.228235 0.120470
-3.019971 -6.224563 0.121278
-3.033435 -6.219591 0.122096
-3.043187 -6.204412 0.123021
-3.042274 -6.160598 0.124242
-3.053321 -6.149975 0.125085
-3.065162 -6.141659 0.125891
-3.079143 -6.139050 0.126629
-3.093190 -6.136597 0.127355
-3.106249 -6.131624 0.128097
-3.115642 -6.117553 0.128911
-3.070029 -5.968388 0.130931
-3.081909 -5.962748 0.131606
-3.094003 -5.957691 0.132264
-3.098181 -5.933963 0.133066
-3.117809 -5.946830 0.133551
-3.135214 -5.954162 0.134076
-3.148173 -5.951105 0.134675
-3.161682 -5.949276 0.135252
-3.176916 -5.951227 0.135793
-3.188213 -5.944415 0.136385
-3.199124 -5.936839 0.136971
-3.212937 -5.935555 0.137502
-3.226799 -5.934309 0.138023
-3.240444 -5.932538 0.138537
-3.257508 -5.937758 0.138999
-3.268258 -5.929883 0.139530
-3.280748 -5.925589 0.140029
-3.295079 -5.924952 0.140498
-3.308331 -5.922092 0.140969
-3.321644 -5.919301 0.141431
-3.336218 -5.918887 0.141871
-3.354596 -5.925602 0.142269
-3.369532 -5.925571 0.142692
-3.382470 -5.921699 0.143124
-3.395957 -5.918797 0.143543
-3.412555 -5.921497 0.143930
-3.428399 -5.922652 0.144317
-3.442630 -5.920778 0.144709
-3.457859 -5.920568 0.145086
-3.469923 -5.914711 0.145477
-3.484550 -5.913262 0.145844
-3.499255 -5.911840 0.146204
-3.511940 -5.906894 0.146568
-3.525789 -5.903855 0.146919
-3.543987 -5.907932 0.147244
-3.560009 -5.908217 0.147574
-3.574492 -5.905856 0.147904
-3.592330 -5.908775 0.148216
-3.608986 -5.909610 0.148529
-3.624738 -5.908857 0.148839
-3.637868 -5.903885 0.149153
-3.654279 -5.903913 0.149452
-3.670108 -5.902896 0.149747
-3.684619 -5.899755 0.150042
-3.700275 -5.898229 0.150329
-3.717925 -5.899523 0.150607
-3.729172 -5.891253 0.150894
-3.742246 -5.885633 0.151172
-3.766540 -5.896074 0.151427
-3.779751 -5.890387 0.151697
-3.795061 -5.887601 0.151960
-3.813861 -5.889570 0.152215
-3.831589 -5.889854 0.152468
-3.848170 -5.888394 0.152719
-3.875166 -5.900901 0.152960
-3.885816 -5.891068 0.153209
-3.898220 -5.883581 0.153453
-3.915936 -5.883055 0.153692
-3.941280 -5.892310 0.153926
-3.959546 -5.892075 0.154160
-3.972216 -5.884511 0.154391
-3.988780 -5.881847 0.154619
-4.009184 -5.883873 0.154845
-4.022963 -5.877448 0.155067
-4.033987 -5.867573 0.155284
-4.055586 -5.870601 0.155504
-4.075919 -5.871861 0.155721
-4.096750 -5.873511 0.155936
-4.111417 -5.867640 0.156145
-4.126621 -5.862326 0.156350
-4.144273 -5.859775 0.156556
-4.166610 -5.862485 0.156765
-4.188135 -5.864031 0.156971
-4.204261 -5.859254 0.157168
-4.224689 -5.859198 0.157369
-4.243467 -5.857121 0.157564
-4.262866 -5.855577 0.157759
-4.276459 -5.847541 0.157942
-4.292280 -5.841867 0.158125
-4.311224 -5.839447 0.158311
-4.327688 -5.834248 0.158489
-4.343604 -5.828375 0.158664
-4.362238 -5.825243 0.158841
-4.383527 -5.824707 0.159021
-4.398763 -5.817803 0.159185
-4.415005 -5.811847 0.159348
-4.431799 -5.806353 0.159509
-4.453178 -5.805313 0.159676
-4.474919 -5.804445 0.159842
-4.483040 -5.790114 0.159972
-4.504030 -5.788272 0.160128
-4.527928 -5.789041 0.160288
-4.544643 -5.782779 0.160427
-4.561433 -5.776495 0.160562
-4.575208 -5.767312 0.160684
-4.592304 -5.761148 0.160811
-4.600784 -5.747015 0.160910
-4.606445 -5.730380 0.160997
-4.608206 -5.710340 0.161068
-4.605829 -5.686780 0.161121
-4.607861 -5.667321 0.161181
-4.604978 -5.643723 0.161221
-4.599500 -5.618105 0.161248
-4.598938 -5.596956 0.161282
-4.600037 -5.577391 0.161314
-4.598445 -5.555717 0.161332
-4.599748 -5.536638 0.161351
-4.601594 -5.518148 0.161365
-4.601324 -5.498056 0.161367
-4.602572 -5.479353 0.161366
-4.601492 -5.458914 0.161351
-4.599830 -5.438178 0.161328
-4.594780 -5.414948 0.161288
-4.588324 -5.390838 0.161237
-4.595628 -5.377584 0.161217
-4.597133 -5.359924 0.161172
-4.600765 -5.343988 0.161126
-4.572129 -5.303930 0.160986
-4.566131 -5.281226 0.160899
-4.567307 -5.264009 0.160822
-4.577495 -5.253464 0.160761
-4.584166 -5.240356 0.160681
-4.608426 -5.239841 0.160637
-4.671638 -5.266672 0.160676
-4.705750 -5.272352 0.160631
-4.694003 -5.245849 0.160466
-4.696166 -5.229177 0.160324
-4.708826 -5.219728 0.160196
-4.714675 -5.205624 0.160042
-4.708345 -5.183423 0.159852
-4.706993 -5.164693 0.159663
-4.714751 -5.152036 0.159481
-4.762410 -5.076581 0.158145
-4.762991 -5.059468 0.157869
-4.758747 -5.039524 0.157576
-4.750532 -5.017345 0.157268
-4.755197 -5.002939 0.156964
-4.750817 -4.983272 0.156640
-4.761187 -4.972242 0.156316
-4.774530 -4.962850 0.155980
-4.778718 -4.948191 0.155626
-4.761508 -4.921597 0.155250
-4.752638 -4.899885 0.154871
-4.741234 -4.876960 0.154482
-4.745037 -4.862449 0.154086
-4.720377 -4.832752 0.153684
-4.730090 -4.821559 0.153267
-4.727211 -4.803737 0.152844
-4.723558 -4.785604 0.152412
-4.713920 -4.764521 0.151978
-4.713066 -4.748037 0.151530
-4.713614 -4.732317 0.151073
-4.705538 -4.712403 0.150620
-4.691091 -4.689546 0.150173
-4.690123 -4.673391 0.149703
-4.688464 -4.656981 0.149230
-4.686259 -4.640395 0.148755
-4.680739 -4.622365 0.148286
-4.674219 -4.604011 0.147821
-4.674051 -4.588667 0.147341
-4.677015 -4.574797 0.146855
-4.677896 -4.560055 0.146378
-4.677392 -4.544786 0.145909
-4.669665 -4.526518 0.145472
-4.664745 -4.509620 0.145037
-4.660659 -4.493227 0.144613
-4.657091 -4.477203 0.144200
-4.656581 -4.462579 0.143793
-4.656385 -4.448211 0.143403
-4.654972 -4.433497 0.143039
-4.654058 -4.419138 0.142696
-4.645784 -4.402107 0.142412
-4.651728 -4.390724 0.142093
-4.654778 -4.378365 0.141816
-4.649637 -4.363128 0.141611
-4.633274 -4.344040 0.141496
-4.633451 -4.331260 0.141339
-4.641790 -4.321579 0.141179
-4.634309 -4.306491 0.141139
-4.633139 -4.293873 0.141109
-4.629637 -4.280695 0.141133
-4.633591 -4.270287 0.141164
-2.653024 -6.255567 0.093161
-2.665946 -6.260763 0.093076
-2.677425 -6.258410 0.093206
-2.687709 -6.250000 0.093516
-2.699688 -6.248106 0.093740
-2.712070 -6.247031 0.093996
-2.725269 -6.248462 0.094248
-2.738860 -6.250583 0.094534
-2.752295 -6.251245 0.094895
-2.766881 -6.255591 0.095224
-2.779418 -6.251354 0.095771
-2.791937 -6.246575 0.096365
-2.803612 -6.238306 0.097063
-2.817350 -6.237188 0.097648
-2.831951 -6.238659 0.098210
-2.846371 -6.239007 0.098822
-2.859674 -6.235140 0.099538
-2.873071 -6.231350 0.100273
-2.887360 -6.230286 0.100972
-2.901040 -6.226986 0.101727
-2.915122 -6.224803 0.102474
-2.930220 -6.225619 0.103175
-2.945854 -6.227835 0.103861
-2.960591 -6.227065 0.104605
-2.975647 -6.227088 0.105339
-2.990456 -6.226223 0.106091
-3.004234 -6.222255 0.106895
-3.018929 -6.220878 0.107653
-3.032369 -6.215900 0.108466
-3.043736 -6.205238 0.109363
-3.041428 -6.157629 0.110830
-3.051924 -6.145576 0.111718
-3.065154 -6.140984 0.112481
-3.079597 -6.139583 0.113185
-3.094744 -6.139936 0.113856
-3.107674 -6.134583 0.114601
-3.109335 -6.101178 0.115732
-3.068217 -5.963322 0.118298
-3.079696 -5.956766 0.118986
-3.088850 -5.944733 0.119736
-3.105397 -5.950412 0.120235
-3.122609 -5.957414 0.120710
-3.135742 -5.954755 0.121302
-3.148565 -5.951370 0.121892
-3.161365 -5.947934 0.122471
-3.175509 -5.947474 0.123002
-3.189186 -5.945909 0.123536
-3.199830 -5.937728 0.124138
-3.212097 -5.933119 0.124685
-3.226297 -5.932605 0.125173
-3.237648 -5.926057 0.125719
-3.255174 -5.932297 0.126112
-3.269835 -5.932448 0.126563
-3.279840 -5.923109 0.127107
-3.295146 -5.924431 0.127526
-3.309910 -5.924545 0.127948
-3.322789 -5.920877 0.128400
-3.336200 -5.918197 0.128832
-3.352467 -5.920896 0.129201
-3.368984 -5.923884 0.129560
-3.383639 -5.923219 0.129946
-3.397660 -5.921278 0.130335
-3.412384 -5.920532 0.130705
-3.428151 -5.921554 0.131050
-3.441538 -5.918182 0.131428
-3.455895 -5.916461 0.131782
-3.470044 -5.914278 0.132133
-3.485744 -5.914681 0.132453
-3.499069 -5.910887 0.132803
-3.513989 -5.909723 0.133122
-3.527958 -5.906855 0.133448
-3.545045 -5.909059 0.133726
-3.558608 -5.905305 0.134046
-3.576535 -5.908551 0.134303
-3.599196 -5.919176 0.134498
-3.612467 -5.914531 0.134806
-3.623662 -5.906567 0.135133
-3.639510 -5.905848 0.135398
-3.655941 -5.905886 0.135653
-3.668704 -5.900178 0.135944
-3.684483 -5.898980 0.136196
-3.703093 -5.901875 0.136414
-3.719595 -5.901438 0.136651
-3.731198 -5.893672 0.136935
-3.747879 -5.893262 0.137162
-3.760871 -5.887401 0.137421
-3.785157 -5.897550 0.137569
-3.799843 -5.893819 0.137805
-3.816478 -5.892712 0.138020
-3.832009 -5.889935 0.138242
-3.847144 -5.886502 0.138463
-3.867865 -5.890531 0.138634
-3.887831 -5.893299 0.138810
-3.896164 -5.880389 0.139078
-3.911529 -5.876804 0.139285
-3.938503 -5.888245 0.139399
-3.956842 -5.888149 0.139579
-3.972065 -5.883893 0.139780
-3.987511 -5.879825 0.139976
-4.014841 -5.890564 0.140085
-4.021928 -5.875768 0.140336
-4.030837 -5.863313 0.140569
-4.055217 -5.869778 0.140694
-4.083586 -5.880759 0.140793
-4.106221 -5.884490 0.140930
-4.113261 -5.869485 0.141163
-4.125915 -5.861166 0.141357
-4.148730 -5.864639 0.141487
-4.175178 -5.872047 0.141594
-4.190921 -5.866910 0.141763
-4.205968 -5.860895 0.141933
-4.224232 -5.858406 0.142083
-4.247107 -5.860892 0.142206
-4.262732 -5.855169 0.142366
-4.277530 -5.848459 0.142527
-4.293891 -5.843368 0.142678
-4.310095 -5.838011 0.142827
-4.326083 -5.832330 0.142973
-4.343261 -5.827808 0.143112
-4.363326 -5.826176 0.143234
-4.381833 -5.822773 0.143361
-4.397505 -5.816340 0.143497
-4.411717 -5.808352 0.143638
-4.431592 -5.805986 0.143749
-4.459557 -5.811496 0.143824
-4.474835 -5.804222 0.143950
-4.491121 -5.797860 0.144068
-4.506839 -5.790862 0.144185
-4.526400 -5.787464 0.144282
-4.542068 -5.780231 0.144391
-4.558336 -5.773488 0.144493
-4.574983 -5.767013 0.144590
-4.590946 -5.759814 0.144685
-4.600658 -5.746826 0.144797
-4.607023 -5.730836 0.144917
-4.608879 -5.710884 0.145046
-4.606493 -5.687317 0.145183
-4.605703 -5.665376 0.145308
-4.609458 -5.647591 0.145410
-4.600724 -5.619130 0.145548
-4.599618 -5.597511 0.145652
-4.598333 -5.575926 0.145750
-4.595349 -5.553100 0.145846
-4.599844 -5.536707 0.145910
-4.604240 -5.520322 0.145968
-4.603908 -5.500164 0.146033
-4.600585 -5.477746 0.146100
-4.600790 -5.458356 0.146147
-4.598577 -5.437191 0.146195
-4.581853 -5.404790 0.146279
-4.590478 -5.392530 0.146277
-4.589111 -5.372570 0.146297
-4.592027 -5.356038 0.146296
-4.589734 -5.335654 0.146303
-4.574215 -5.305515 0.146341
-4.567573 -5.282318 0.146344
-4.572601 -5.267926 0.146302
-4.573124 -5.250301 0.146265
-4.585326 -5.241216 0.146182
-4.652950 -5.271684 0.145915
-4.681411 -5.273612 0.145759
-4.696208 -5.265687 0.145637
-4.708552 -5.255968 0.145511
-4.704952 -5.235236 0.145426
-4.717927 -5.225939 0.145277
-4.712110 -5.203914 0.145179
-4.711659 -5.185648 0.145052
-4.706739 -5.164538 0.144931
-4.683027 -5.131306 0.144865
-4.771976 -5.100068 0.143618
-4.769511 -5.080939 0.143407
-4.762146 -5.058944 0.143203
-4.754918 -5.037203 0.142989
-4.753092 -5.018852 0.142741
-4.749147 -4.999350 0.142491
-4.762281 -4.989932 0.142155
-4.761478 -4.972379 0.141867
-4.761055 -4.955122 0.141566
-4.773323 -4.945105 0.141193
-4.768671 -4.925553 0.140887
-4.755954 -4.901670 0.140611
-4.756259 -4.885116 0.140261
-4.756603 -4.868642 0.139899
-4.729926 -4.837795 0.139672
-4.727386 -4.820073 0.139308
-4.735161 -4.807824 0.138877
-4.722577 -4.785035 0.138552
-4.725118 -4.770166 0.138131
-4.747212 -4.765180 0.137581
-4.711621 -4.731258 0.137378
-4.695354 -4.707326 0.137055
-4.697752 -4.692720 0.136607
-4.701216 -4.678658 0.136146
-4.700378 -4.662575 0.135710
-4.680506 -4.637645 0.135404
-4.680461 -4.622190 0.134960
-4.680254 -4.606729 0.134515
-4.677635 -4.590253 0.134090
-4.676386 -4.574494 0.133657
-4.675260 -4.558886 0.133228
-4.675480 -4.543961 0.132794
-4.666309 -4.525100 0.132444
-4.663208 -4.509007 0.132057
-4.664264 -4.494789 0.131647
-4.655680 -4.476701 0.131334
-4.653888 -4.461588 0.130981
-4.656645 -4.448445 0.130606
-4.658554 -4.435074 0.130260
-4.651862 -4.418472 0.130017
-4.654265 -4.405596 0.129717
-4.661896 -4.394846 0.129397
-4.658394 -4.380018 0.129212
-4.642789 -4.360933 0.129178
-4.633180 -4.344383 0.129123
-4.628373 -4.329853 0.129061
-4.636049 -4.320006 0.128918
-4.643030 -4.310057 0.128822
-4.640496 -4.296973 0.128861
-4.632940 -4.282426 0.128992
-4.616684 -4.265250 0.129250
-2.652455 -6.248265 0.080577
-2.667068 -6.261346 0.080213
-2.678571 -6.259311 0.080292
-2.689505 -6.253903 0.080512
-2.700251 -6.246945 0.080824
-2.713507 -6.249716 0.080937
-2.726038 -6.248571 0.081201
-2.739547 -6.250549 0.081433
-2.752582 -6.249817 0.081781
-2.766738 -6.252694 0.082082
-2.782002 -6.258968 0.082340
-2.792379 -6.246250 0.083113
-2.804875 -6.241115 0.083731
-2.818122 -6.238309 0.084323
-2.832277 -6.238299 0.084876
-2.846592 -6.238389 0.085455
-2.861466 -6.239961 0.086023
-2.877624 -6.245390 0.086522
-2.888108 -6.231660 0.087494
-2.901541 -6.227606 0.088249
-2.916120 -6.227041 0.088937
-2.931351 -6.228279 0.089594
-2.945604 -6.226244 0.090334
-2.960409 -6.225738 0.091045
-2.975405 -6.225628 0.091753
-2.991029 -6.227191 0.092426
-3.004140 -6.221301 0.093262
-3.017085 -6.214976 0.094103
-3.030987 -6.211390 0.094881
-3.034554 -6.179301 0.096247
-3.041912 -6.158336 0.097364
-3.051969 -6.145097 0.098307
-3.065091 -6.140224 0.099070
-3.080347 -6.140942 0.099713
-3.095006 -6.140016 0.100380
-3.109819 -6.139417 0.101031
-3.106192 -6.092754 0.102555
-3.069030 -5.964763 0.105585
-3.078979 -5.954465 0.106350
-3.090350 -5.947765 0.107034
-3.104570 -5.947890 0.107580
-3.122771 -5.957219 0.107951
-3.136565 -5.956072 0.108501
-3.149029 -5.951844 0.109096
-3.160186 -5.944700 0.109729
-3.173911 -5.943339 0.110249
-3.187717 -5.942097 0.110756
-3.200296 -5.938138 0.111298
-3.213021 -5.934492 0.111823
-3.224433 -5.928061 0.112382
-3.239228 -5.928744 0.112812
-3.251496 -5.924100 0.113319
-3.268312 -5.928726 0.113665
-3.281450 -5.925731 0.114124
-3.292541 -5.918624 0.114637
-3.310060 -5.924216 0.114940
-3.324380 -5.923347 0.115335
-3.337886 -5.920815 0.115746
-3.354442 -5.924024 0.116060
-3.370227 -5.925592 0.116390
-3.385688 -5.926401 0.116723
-3.400180 -5.925284 0.117076
-3.413457 -5.921857 0.117453
-3.427741 -5.920187 0.117796
-3.440738 -5.916131 0.118164
-3.453504 -5.911624 0.118530
-3.469132 -5.912068 0.118817
-3.484487 -5.911894 0.119104
-3.498677 -5.909601 0.119414
-3.515004 -5.910823 0.119667
-3.529448 -5.908733 0.119959
-3.540973 -5.901719 0.120309
-3.557721 -5.903252 0.120537
-3.571754 -5.900209 0.120819
-3.596193 -5.913765 0.120875
-3.610344 -5.910571 0.121146
-3.623546 -5.905801 0.121432
-3.640533 -5.906860 0.121635
-3.658065 -5.908584 0.121823
-3.677758 -5.913412 0.121966
-3.682867 -5.895982 0.122388
-3.703877 -5.902493 0.122499
-3.718445 -5.899191 0.122728
-3.732933 -5.895675 0.122955
-3.744735 -5.888174 0.123226
-3.765278 -5.893207 0.123336
-3.783412 -5.894552 0.123487
-3.801455 -5.895581 0.123637
-3.814386 -5.889297 0.123872
-3.832095 -5.889563 0.124023
-3.847954 -5.887128 0.124201
-3.865795 -5.887253 0.124345
-3.890123 -5.895907 0.124383
-3.900159 -5.885241 0.124647
-3.909511 -5.873704 0.124916
-3.936292 -5.884927 0.124913
-3.955237 -5.885648 0.125030
-3.970878 -5.881958 0.125195
-3.993282 -5.886724 0.125257
-4.005697 -5.878695 0.125465
-4.014859 -5.866597 0.125716
-4.036332 -5.869699 0.125787
-4.055974 -5.870331 0.125883
-4.084984 -5.882086 0.125850
-4.106073 -5.883961 0.125926
-4.112521 -5.868268 0.126199
-4.124837 -5.859572 0.126387
-4.144915 -5.859882 0.126471
-4.173732 -5.870071 0.126441
-4.190752 -5.866418 0.126563
-4.205715 -5.860318 0.126709
-4.230304 -5.864930 0.126732
-4.248234 -5.861873 0.126837
-4.263149 -5.855368 0.126977
-4.278829 -5.849625 0.127105
-4.292647 -5.841787 0.127252
-4.310638 -5.838364 0.127347
-4.327768 -5.833896 0.127449
-4.344365 -5.828757 0.127556
-4.361091 -5.823653 0.127658
-4.379491 -5.820170 0.127738
-4.396836 -5.815478 0.127828
-4.413772 -5.810259 0.127920
-4.427020 -5.801242 0.128048
-4.456891 -5.808696 0.127994
-4.476171 -5.805391 0.128052
-4.490548 -5.797165 0.128159
-4.504958 -5.788918 0.128261
-4.521959 -5.783095 0.128333
-4.537894 -5.776164 0.128411
-4.557139 -5.772261 0.128452
-4.574647 -5.766604 0.128506
-4.587970 -5.756982 0.128598
-4.595993 -5.742484 0.128738
-4.601718 -5.725962 0.128893
