ply
format ascii 1.0
comment ---
element vertex 1649
property float x
property float y
property float z
element face 0
property list uchar uint vertex_indices
end_header
-4.056751 -1.825931 0.537536
-4.059725 -1.795018 0.538945
-4.064280 -1.761034 0.540711
-4.044187 -1.766593 0.536962
-4.041641 -1.743524 0.537134
-4.042685 -1.714121 0.538113
-4.041815 -1.687440 0.538666
-4.042352 -1.657927 0.539539
-4.037633 -1.636949 0.539229
-4.029189 -1.622136 0.538076
-4.026629 -1.596819 0.538261
-4.025177 -1.569141 0.538704
-4.025090 -1.538570 0.539469
-4.017009 -1.522023 0.538416
-4.015197 -1.493787 0.538808
-4.021568 -1.449922 0.541096
-4.015424 -1.428804 0.540526
-4.009702 -1.406649 0.540068
-4.014040 -1.364914 0.541958
-4.001342 -1.355633 0.539924
-3.989495 -1.344773 0.538103
-3.994615 -1.300238 0.540261
-3.990312 -1.273993 0.540255
-3.985260 -1.249054 0.540108
-3.979638 -1.225127 0.539861
-3.977524 -1.193778 0.540482
-3.985057 -1.141846 0.543436
-3.985173 -1.105038 0.544690
-3.975907 -1.088157 0.543761
-3.957714 -1.090942 0.540735
-3.946589 -1.078800 0.539438
-3.944880 -1.046008 0.540459
-3.948141 -1.001921 0.542747
-3.951392 -0.957561 0.545109
-3.955070 -0.911949 0.547653
-3.946851 -0.893824 0.547353
-4.572791 -4.035510 0.461915
-4.576999 -4.026692 0.462852
-4.579051 -4.017982 0.463558
-4.579067 -4.009390 0.464046
-4.579303 -4.000610 0.464614
-4.577616 -3.991970 0.464976
-4.575507 -3.983263 0.465330
-4.576527 -3.973926 0.466145
-4.577762 -3.964406 0.467036
-4.575009 -3.955425 0.467436
-4.571400 -3.946493 0.467760
-4.567597 -3.937510 0.468095
-4.565877 -3.928068 0.468743
-4.550342 -3.921149 0.467550
-4.531079 -3.915005 0.465867
-4.501587 -3.910988 0.462797
-4.558496 -3.889585 0.471566
-4.553072 -3.880546 0.471839
-4.542165 -3.872658 0.471370
-4.539113 -3.863099 0.471997
-4.525524 -3.855865 0.471171
-4.500654 -3.851290 0.468768
-4.479981 -3.845937 0.466938
-4.365979 -3.863007 0.451967
-4.346285 -3.858227 0.450197
-4.347493 -3.848418 0.451372
-4.344540 -3.839622 0.451960
-4.341930 -3.830739 0.452596
-4.340847 -3.821456 0.453448
-4.339789 -3.812153 0.454302
-4.337742 -3.803112 0.455010
-4.335366 -3.794164 0.455666
-4.337315 -3.783991 0.456945
-4.330876 -3.776211 0.456997
-4.329952 -3.766852 0.457847
-4.338320 -3.754696 0.460057
-4.340089 -3.744453 0.461296
-4.336661 -3.735790 0.461760
-4.331044 -3.727838 0.461890
-4.328512 -3.718938 0.462467
-4.328517 -3.709219 0.463415
-4.327787 -3.699726 0.464245
-4.324660 -3.691031 0.464706
-4.323008 -3.681845 0.465380
-4.325132 -3.671346 0.466619
-4.322320 -3.662546 0.467100
-4.321839 -3.652921 0.467928
-4.320688 -3.643523 0.468645
-4.318930 -3.634339 0.469261
-4.317930 -3.624867 0.469985
-4.317070 -3.615328 0.470723
-4.315495 -3.606049 0.471342
-4.313317 -3.596996 0.471859
-4.314888 -3.586455 0.472953
-4.315994 -3.576056 0.473969
-4.312993 -3.567286 0.474335
-4.312558 -3.557460 0.475096
-4.310389 -3.548331 0.475578
-4.308504 -3.539074 0.476096
-4.307277 -3.529522 0.476712
-4.305412 -3.520226 0.477220
-4.302469 -3.511388 0.477549
-4.300550 -3.502090 0.478034
-4.298567 -3.492805 0.478502
-4.297702 -3.482992 0.479145
-4.301260 -3.471104 0.480495
-4.297960 -3.462343 0.480736
-4.292485 -3.454607 0.480616
-4.289778 -3.445563 0.480939
-4.291677 -3.434271 0.482006
-4.290808 -3.424271 0.482619
-4.290196 -3.414106 0.483270
-4.288936 -3.404226 0.483811
-4.285650 -3.395340 0.484015
-4.283288 -3.385968 0.484366
-4.282115 -3.375955 0.484910
-4.282852 -3.364899 0.485767
-4.279445 -3.355985 0.485933
-4.275343 -3.347430 0.485979
-4.275549 -3.336527 0.486739
-4.277025 -3.324866 0.487711
-4.276100 -3.314466 0.488280
-4.273669 -3.304864 0.488593
-4.273286 -3.294069 0.489249
-4.271865 -3.283813 0.489728
-4.268847 -3.274442 0.489934
-4.264735 -3.265687 0.489951
-4.262953 -3.255538 0.490362
-4.262870 -3.244329 0.491060
-4.259315 -3.235159 0.491165
-4.257357 -3.224989 0.491540
-4.255214 -3.214891 0.491883
-4.254376 -3.203937 0.492448
-4.251451 -3.194242 0.492653
-4.250350 -3.183350 0.493172
-4.248419 -3.172936 0.493547
-4.249160 -3.160736 0.494386
-4.244298 -3.152138 0.494249
-4.242548 -3.141462 0.494653
-4.240968 -3.130620 0.495087
-4.237810 -3.120793 0.495243
-4.235106 -3.110620 0.495479
-4.233175 -3.099871 0.495849
-4.231017 -3.089228 0.496180
-4.228647 -3.078684 0.496472
-4.232626 -3.063563 0.497892
-4.228692 -3.054002 0.497908
-4.224992 -3.044242 0.497965
-4.225147 -3.031619 0.498710
-4.226720 -3.017857 0.499711
-4.223221 -3.007782 0.499804
-4.220092 -2.997389 0.499963
-4.217308 -2.986690 0.500183
-4.219896 -2.971799 0.501375
-4.218470 -2.959902 0.501844
-4.215704 -2.948985 0.502070
-4.215072 -2.936323 0.502684
-4.211271 -2.926113 0.502722
-4.205225 -2.917681 0.502348
-4.203907 -2.905383 0.502838
-4.205042 -2.890983 0.503780
-4.206896 -2.875865 0.504859
-4.206664 -2.862368 0.505555
-4.204606 -2.850320 0.505916
-4.201596 -2.839014 0.506100
-4.198818 -2.827448 0.506328
-4.202257 -2.810395 0.507713
-4.204450 -2.794271 0.508872
-4.199812 -2.784073 0.508755
-4.196730 -2.772442 0.508928
-4.193916 -2.760504 0.509151
-4.193609 -2.746204 0.509847
-4.190341 -2.734522 0.509984
-4.186844 -2.722990 0.510077
-4.182483 -2.712209 0.510005
-4.180986 -2.698658 0.510476
-4.187872 -2.676977 0.512547
-4.188347 -2.661244 0.513399
-4.183784 -2.650287 0.513288
-4.179408 -2.639096 0.513210
-4.177029 -2.625860 0.513515
-4.175139 -2.612041 0.513913
-4.176414 -2.594910 0.514922
-4.182652 -2.572537 0.516897
-4.170478 -2.568898 0.515300
-4.169308 -2.553881 0.515836
-4.167406 -2.539505 0.516229
-4.162160 -2.528558 0.515967
-4.158550 -2.515806 0.516021
-4.164104 -2.493060 0.517875
-4.156566 -2.484319 0.517154
-4.150493 -2.473952 0.516715
-4.148784 -2.458688 0.517136
-4.152413 -2.437296 0.518614
-4.148279 -2.424441 0.518552
-4.144386 -2.411216 0.518533
-4.148750 -2.388361 0.520160
-4.144818 -2.374884 0.520130
-4.138920 -2.363606 0.519700
-4.133370 -2.351847 0.519334
-4.128907 -2.338709 0.519181
-4.134191 -2.313678 0.520993
-4.128523 -2.301681 0.520591
-4.121954 -2.290706 0.519998
-4.116502 -2.278273 0.519626
-4.114136 -2.261865 0.519876
-4.114194 -2.242210 0.520618
-4.111624 -2.225677 0.520820
-4.108230 -2.210026 0.520848
-4.105591 -2.193223 0.521026
-4.104254 -2.174516 0.521468
-4.099756 -2.159782 0.521253
-4.095029 -2.145200 0.520984
-4.098313 -2.119605 0.522370
-4.097853 -2.098762 0.522978
-4.089364 -2.088740 0.521910
-4.081717 -2.077474 0.521007
-4.088270 -2.046088 0.523065
-4.083633 -2.030139 0.522780
-4.082367 -2.009151 0.523196
-4.078752 -1.991278 0.523114
-4.075031 -1.973325 0.523002
-4.072306 -1.953659 0.523095
-4.071799 -1.930392 0.523653
-4.066577 -1.913906 0.523207
-4.060268 -1.898867 0.522522
-4.056602 -1.879560 0.522393
-4.054462 -1.857594 0.522584
-4.052464 -1.835074 0.522802
-4.047875 -1.816329 0.522462
-4.040965 -1.801056 0.521619
-4.051462 -1.757267 0.524512
-4.044270 -1.741761 0.523604
-4.044519 -1.713690 0.524296
-4.042955 -1.688198 0.524598
-4.042477 -1.660452 0.525137
-4.036693 -1.641359 0.524527
-4.031524 -1.620935 0.524052
-4.034871 -1.585279 0.525434
-4.027512 -1.567997 0.524489
-4.024695 -1.542364 0.524541
-4.021541 -1.516960 0.524528
-4.016506 -1.494638 0.524113
-4.023238 -1.450196 0.526298
-4.018839 -1.425866 0.526053
-4.011071 -1.407632 0.525080
-4.012697 -1.371215 0.526203
-4.006285 -1.349863 0.525570
-3.994454 -1.338982 0.523754
-3.994473 -1.304645 0.524601
-3.992907 -1.273059 0.525130
-3.987300 -1.249355 0.524790
-3.985767 -1.217144 0.525402
-3.981646 -1.190025 0.525475
-3.979361 -1.158898 0.526008
-3.990769 -1.098422 0.529700
-3.967878 -1.110949 0.525652
-3.957504 -1.097088 0.524489
-3.947162 -1.083445 0.523379
-3.943783 -1.054622 0.523920
-3.944207 -1.017248 0.525402
-3.943886 -0.981425 0.526782
-3.957985 -0.912335 0.531599
-3.979659 -0.824851 0.538297
-4.576528 -4.033881 0.453173
-4.577261 -4.025565 0.453609
-4.579598 -4.016858 0.454300
-4.578110 -4.008526 0.454556
-4.578157 -3.999823 0.455059
-4.578935 -3.990855 0.455705
-4.579015 -3.981842 0.456311
-4.580192 -3.972507 0.457106
-4.578790 -3.963452 0.457615
-4.574676 -3.954741 0.457817
-4.569762 -3.946080 0.457953
-4.569478 -3.936511 0.458729
-4.564700 -3.927661 0.458955
-4.553688 -3.919931 0.458395
-4.539992 -3.912728 0.457504
-4.556799 -3.899494 0.460654
-4.558275 -3.889137 0.461818
-4.547307 -3.881284 0.461353
-4.547958 -3.870984 0.462448
-4.542583 -3.861928 0.462757
-4.526046 -3.855361 0.461576
-4.509004 -3.849018 0.460325
-4.482885 -3.844918 0.457838
-4.365252 -3.862875 0.442897
-4.345075 -3.858233 0.441136
-4.341653 -3.849595 0.441653
-4.341963 -3.840012 0.442683
-4.339548 -3.831104 0.443339
-4.340950 -3.821186 0.444522
-4.340287 -3.811786 0.445420
-4.337115 -3.803059 0.445965
-4.330625 -3.795272 0.446039
-4.333696 -3.784810 0.447449
-4.335017 -3.774805 0.448611
-4.331430 -3.766217 0.449074
-4.328733 -3.757382 0.449654
-4.341446 -3.743849 0.452427
-4.336744 -3.735579 0.452711
-4.331454 -3.727529 0.452899
-4.327586 -3.719059 0.453281
-4.328120 -3.709176 0.454289
-4.327683 -3.699591 0.455150
-4.322855 -3.691474 0.455362
-4.324378 -3.681215 0.456492
-4.322357 -3.672153 0.457095
-4.320530 -3.663024 0.457718
-4.322696 -3.652463 0.458922
-4.319785 -3.643704 0.459367
-4.317790 -3.634615 0.459939
-4.317480 -3.624895 0.460753
-4.315736 -3.615698 0.461345
-4.313069 -3.606850 0.461790
-4.312161 -3.597318 0.462490
-4.319046 -3.584683 0.464360
-4.318603 -3.574887 0.465119
-4.315121 -3.566303 0.465409
-4.311622 -3.557733 0.465688
-4.310040 -3.548369 0.466250
-4.309688 -3.538470 0.466993
-4.308572 -3.528868 0.467612
-4.305466 -3.520109 0.467919
-4.300667 -3.512093 0.467955
-4.299122 -3.502644 0.468487
-4.298558 -3.492732 0.469164
-4.299874 -3.481929 0.470129
-4.302107 -3.470648 0.471233
-4.298874 -3.461857 0.471479
-4.291339 -3.455098 0.471043
-4.288620 -3.446074 0.471354
-4.289979 -3.435057 0.472303
-4.291115 -3.424089 0.473214
-4.290794 -3.413786 0.473891
-4.288877 -3.404240 0.474310
-4.287196 -3.394548 0.474763
-4.283663 -3.385777 0.474915
-4.283312 -3.375342 0.475572
-4.281111 -3.365832 0.475928
-4.278144 -3.356703 0.476157
-4.274897 -3.347707 0.476336
-4.273022 -3.337947 0.476733
-4.276005 -3.325483 0.477914
-4.276320 -3.314409 0.478662
-4.274585 -3.304425 0.479074
-4.274240 -3.293613 0.479711
-4.271923 -3.283878 0.480023
-4.268474 -3.274766 0.480147
-4.266603 -3.264710 0.480527
-4.264109 -3.254983 0.480802
-4.262210 -3.244867 0.481172
-4.261628 -3.233911 0.481759
-4.259137 -3.224065 0.482028
-4.256733 -3.214129 0.482310
-4.252560 -3.205262 0.482294
-4.250034 -3.195339 0.482551
-4.250111 -3.183720 0.483241
-4.248501 -3.173114 0.483650
-4.245052 -3.163655 0.483747
-4.242718 -3.153435 0.484031
-4.242273 -3.141917 0.484633
-4.242850 -3.129643 0.485408
-4.238197 -3.120831 0.485296
-4.235387 -3.110743 0.485496
-4.234614 -3.099206 0.486042
-4.232845 -3.088296 0.486418
-4.231824 -3.076802 0.486922
-4.230788 -3.065251 0.487423
-4.229412 -3.053877 0.487867
-4.228194 -3.042324 0.488339
-4.226611 -3.030970 0.488748
-4.224797 -3.019725 0.489116
-4.222268 -3.008955 0.489361
-4.219469 -2.998336 0.489559
-4.218006 -2.986651 0.489989
-4.217082 -2.974480 0.490514
-4.219374 -2.959728 0.491604
-4.216739 -2.948720 0.491831
-4.216202 -2.935994 0.492428
-4.213296 -2.925076 0.492608
-4.210394 -2.914103 0.492788
-4.210160 -2.900899 0.493440
-4.205617 -2.891149 0.493329
-4.208632 -2.875082 0.494562
-4.207902 -2.862009 0.495130
-4.207307 -2.848730 0.495724
-4.202565 -2.838903 0.495575
-4.199780 -2.827357 0.495776
-4.198865 -2.814115 0.496314
-4.201038 -2.798059 0.497410
-4.201085 -2.783745 0.498124
-4.195985 -2.773933 0.497907
-4.195850 -2.759596 0.498589
-4.193110 -2.747526 0.498799
-4.192340 -2.733564 0.499367
-4.187938 -2.722877 0.499271
-4.185057 -2.710715 0.499452
-4.189914 -2.691136 0.501055
-4.186412 -2.679349 0.501122
-4.183658 -2.666774 0.501326
-4.184102 -2.650995 0.502120
-4.182695 -2.636897 0.502572
-4.179958 -2.624012 0.502777
-4.178577 -2.609676 0.503232
-4.171409 -2.601085 0.502606
-4.172676 -2.583865 0.503554
-4.175333 -2.565043 0.504764
-4.170045 -2.554289 0.504483
-4.165209 -2.543011 0.504282
-4.162267 -2.529665 0.504435
-4.159590 -2.515935 0.504635
-4.158178 -2.500731 0.505073
-4.156783 -2.485373 0.505513
-4.153843 -2.471576 0.505657
-4.150275 -2.458367 0.505677
-4.154904 -2.435867 0.507263
-4.150386 -2.423443 0.507097
-4.151146 -2.404903 0.507941
-4.145769 -2.393237 0.507601
-4.141956 -2.379675 0.507558
-4.138403 -2.365696 0.507560
-4.130281 -2.357014 0.506672
-4.128669 -2.340519 0.507040
-4.131660 -2.318294 0.508300
-4.124681 -2.307945 0.507616
-4.120178 -2.294493 0.507407
-4.118484 -2.277432 0.507743
-4.112435 -2.265648 0.507219
-4.114780 -2.243144 0.508339
-4.112052 -2.226830 0.508458
-4.111807 -2.207135 0.509062
-4.108908 -2.190653 0.509136
-4.110276 -2.168371 0.510052
-4.103880 -2.156106 0.509421
-4.091465 -2.151810 0.507582
-4.105577 -2.111626 0.511023
-4.102314 -2.094553 0.510998
-4.093436 -2.085028 0.509840
-4.087086 -2.071919 0.509179
-4.085063 -2.052581 0.509378
-4.083399 -2.032474 0.509644
-4.077936 -2.017551 0.509136
-4.077838 -1.994668 0.509706
-4.072322 -1.979390 0.509172
-4.069499 -1.959939 0.509177
-4.075098 -1.927618 0.510887
-4.068603 -1.913037 0.510133
-4.061960 -1.898505 0.509341
-4.062625 -1.872526 0.510033
-4.059481 -1.852067 0.509942
-4.055141 -1.833192 0.509600
-4.049867 -1.815534 0.509060
-4.042888 -1.800374 0.508162
-4.048782 -1.764100 0.509911
-4.047376 -1.739177 0.510155
-4.046810 -1.712460 0.510571
-4.046050 -1.685635 0.510946
-4.040620 -1.666294 0.510354
-4.038471 -1.641058 0.510441
-4.035691 -1.616519 0.510399
-4.038803 -1.581276 0.511588
-4.031574 -1.563755 0.510627
-4.026416 -1.542318 0.510102
-4.022587 -1.518188 0.509861
-4.020540 -1.490457 0.510005
-4.027627 -1.445395 0.512082
-4.019788 -1.427526 0.511037
-4.014538 -1.404603 0.510553
-4.009347 -1.381319 0.510099
-4.006590 -1.353079 0.510183
-4.001460 -1.329167 0.509790
-3.995263 -1.307166 0.509197
-3.992421 -1.278294 0.509350
-3.986465 -1.255478 0.508874
-3.982358 -1.228764 0.508830
-3.982766 -1.192513 0.509800
-3.975103 -1.172872 0.509081
-3.964808 -1.158893 0.507836
-3.964902 -1.122808 0.508889
-3.959167 -1.099151 0.508734
-3.953741 -1.074886 0.508701
-3.949835 -1.047331 0.509059
-3.950054 -1.010555 0.510388
-3.947460 -0.980043 0.511168
-3.945079 -0.949087 0.512063
-3.965734 -0.864711 0.518169
-4.565511 -4.034207 0.442615
-4.579426 -4.024168 0.444623
-4.578438 -4.015965 0.444854
-4.575427 -4.007907 0.444888
-4.576720 -3.999074 0.445503
-4.582812 -3.989339 0.446762
-4.584083 -3.980166 0.447477
-4.581649 -3.971439 0.447782
-4.578539 -3.962707 0.448047
-4.574293 -3.954063 0.448214
-4.570981 -3.945165 0.448538
-4.570440 -3.935676 0.449249
-4.567829 -3.926461 0.449737
-4.551264 -3.919808 0.448495
-4.550456 -3.910148 0.449271
-4.549392 -3.900453 0.450043
-4.545664 -3.891224 0.450503
-4.542112 -3.881914 0.451007
-4.544356 -3.871325 0.452275
-4.539874 -3.862117 0.452697
-4.527349 -3.854691 0.452089
-4.513078 -3.847732 0.451256
-4.507594 -3.838811 0.451569
-4.371644 -3.861053 0.434777
-4.344799 -3.858023 0.432217
-4.342103 -3.849219 0.432827
-4.341148 -3.839968 0.433670
-4.341431 -3.830376 0.434680
-4.339251 -3.821405 0.435361
-4.340652 -3.811467 0.436522
-4.339698 -3.802137 0.437365
-4.337624 -3.793111 0.438054
-4.333736 -3.784601 0.438491
-4.334908 -3.774645 0.439610
-4.332691 -3.765660 0.440262
-4.330766 -3.756592 0.440948
-4.332533 -3.746398 0.442134
-4.334711 -3.736041 0.443373
-4.330245 -3.727744 0.443686
-4.327559 -3.718906 0.444235
-4.327170 -3.709327 0.445096
-4.323100 -3.700958 0.445432
-4.321767 -3.691690 0.446143
-4.323534 -3.681356 0.447283
-4.322120 -3.672091 0.447966
-4.317633 -3.663906 0.448203
-4.320634 -3.653064 0.449497
-4.319456 -3.643689 0.450188
-4.317103 -3.634738 0.450701
-4.315947 -3.625341 0.451377
-4.314940 -3.615875 0.452067
-4.312973 -3.606766 0.452608
-4.313534 -3.596664 0.453509
-4.319780 -3.584279 0.455233
-4.319238 -3.574522 0.455962
-4.315561 -3.566017 0.456223
-4.311645 -3.557621 0.456439
-4.310675 -3.548007 0.457080
-4.311861 -3.537457 0.458033
-4.309503 -3.528381 0.458455
-4.305393 -3.520057 0.458608
-4.301849 -3.511495 0.458836
-4.300848 -3.501803 0.459437
-4.298629 -3.492633 0.459848
-4.298561 -3.482467 0.460576
-4.301163 -3.471029 0.461703
-4.297335 -3.462528 0.461853
-4.290862 -3.455281 0.461594
-4.287319 -3.446661 0.461771
-4.290116 -3.434961 0.462909
-4.291322 -3.423966 0.463801
-4.291032 -3.413653 0.464462
-4.289714 -3.403811 0.464960
-4.288632 -3.393817 0.465490
-4.287215 -3.383959 0.465964
-4.285025 -3.374468 0.466314
-4.281611 -3.365594 0.466469
-4.279632 -3.355946 0.466842
-4.277576 -3.346308 0.467200
-4.276916 -3.335881 0.467772
-4.274122 -3.326579 0.468006
-4.273896 -3.315827 0.468640
-4.274026 -3.304820 0.469327
-4.272779 -3.294534 0.469796
-4.270870 -3.284584 0.470158
-4.268803 -3.274688 0.470491
-4.267160 -3.264506 0.470889
-4.265436 -3.254331 0.471272
-4.262842 -3.244634 0.471514
-4.260652 -3.234660 0.471817
-4.259820 -3.223817 0.472336
-4.257317 -3.213950 0.472586
-4.253072 -3.205137 0.472552
-4.249783 -3.195705 0.472669
-4.247897 -3.185352 0.473010
-4.247545 -3.173963 0.473600
-4.244898 -3.164001 0.473815
-4.246039 -3.151510 0.474647
-4.247275 -3.138867 0.475495
-4.243484 -3.129506 0.475521
-4.240436 -3.119615 0.475667
-4.237931 -3.109318 0.475900
-4.236614 -3.098154 0.476329
-4.235050 -3.087102 0.476716
-4.233363 -3.076078 0.477082
-4.231838 -3.064880 0.477475
-4.229332 -3.054328 0.477704
-4.228970 -3.042170 0.478290
-4.228199 -3.030231 0.478808
-4.224389 -3.020471 0.478818
-4.222228 -3.009444 0.479103
-4.220682 -2.997895 0.479491
-4.220320 -2.985378 0.480079
-4.222970 -2.970454 0.481177
-4.218365 -2.961042 0.481049
-4.216261 -2.949642 0.481344
-4.215226 -2.937332 0.481820
-4.214162 -2.924966 0.482292
-4.211690 -2.913656 0.482524
-4.212200 -2.899854 0.483266
-4.208902 -2.889081 0.483356
-4.203532 -2.879981 0.483089
-4.214588 -2.857074 0.485651
-4.210680 -2.846569 0.485637
-4.204017 -2.838377 0.485144
-4.200110 -2.827806 0.485126
-4.200902 -2.813094 0.485923
-4.204341 -2.795930 0.487183
-4.198042 -2.787246 0.486746
-4.188581 -2.781389 0.485752
-4.191664 -2.764223 0.486952
-4.190991 -2.750319 0.487495
-4.189707 -2.736871 0.487931
-4.189798 -2.722045 0.488610
-4.189167 -2.707774 0.489161
-4.195094 -2.687171 0.490876
-4.186903 -2.679846 0.490086
-4.182594 -2.668788 0.489982
-4.182976 -2.653103 0.490713
-4.185499 -2.635171 0.491828
-4.180330 -2.624695 0.491565
-4.174739 -2.614599 0.491222
-4.177643 -2.595873 0.492405
-4.175126 -2.582484 0.492611
-4.168364 -2.573370 0.492048
-4.165219 -2.560475 0.492134
-4.163765 -2.545713 0.492525
-4.163670 -2.529386 0.493161
-4.160487 -2.516206 0.493233
-4.153381 -2.507163 0.492584
-4.157652 -2.485703 0.494013
-4.152218 -2.474663 0.493662
-4.150499 -2.459440 0.493988
-4.149370 -2.443417 0.494421
-4.149217 -2.426136 0.495031
-4.143829 -2.414651 0.494670
-4.142992 -2.397854 0.495147
-4.139439 -2.384042 0.495116
-4.135690 -2.370344 0.495043
-4.132291 -2.356115 0.495030
-4.136515 -2.332644 0.496438
-4.133224 -2.317942 0.496436
-4.124094 -2.310217 0.495333
-4.114701 -2.302807 0.494171
-4.128041 -2.267168 0.497282
-4.118397 -2.259797 0.496059
-4.115800 -2.243506 0.496158
-4.116240 -2.223159 0.496827
-4.110578 -2.210425 0.496332
-4.107319 -2.194452 0.496287
-4.108339 -2.172678 0.497049
-4.101521 -2.161020 0.496311
-4.098730 -2.143868 0.496333
-4.101254 -2.119318 0.497366
-4.099696 -2.099997 0.497612
-4.095813 -2.083633 0.497404
-4.091019 -2.068347 0.497012
-4.086594 -2.052364 0.496682
-4.081995 -2.036439 0.496310
-4.080215 -2.016274 0.496474
-4.078413 -1.995860 0.496627
-4.075161 -1.977286 0.496490
-4.068955 -1.962828 0.495771
-4.069923 -1.937481 0.496440
-4.067827 -1.916364 0.496505
-4.063976 -1.897615 0.496220
-4.068115 -1.866290 0.497491
-4.061660 -1.850937 0.496683
-4.055660 -1.834674 0.495954
-4.055291 -1.809245 0.496325
-4.052505 -1.787294 0.496214
-4.049839 -1.764813 0.496123
-4.045408 -1.744888 0.495678
-4.043929 -1.719774 0.495811
-4.046569 -1.687356 0.496759
-4.041856 -1.666844 0.496249
-4.035406 -1.649016 0.495392
-4.036611 -1.617699 0.496056
-4.018662 -1.619400 0.492911
-4.029676 -1.570036 0.495535
-4.020795 -1.555378 0.494200
-4.022019 -1.522300 0.494889
-4.017757 -1.498732 0.494493
-4.026431 -1.450911 0.496701
-4.018462 -1.433410 0.495588
-4.009361 -1.417920 0.494263
-4.006504 -1.390399 0.494211
-4.002367 -1.365031 0.493925
-3.999027 -1.337845 0.493826
-3.995540 -1.310678 0.493726
-3.989790 -1.287799 0.493201
-3.985746 -1.261335 0.493058
-3.982578 -1.232901 0.493132
-3.980071 -1.202901 0.493387
-3.974144 -1.179881 0.492989
-3.966435 -1.160635 0.492273
-3.963267 -1.131757 0.492542
-3.966417 -1.089095 0.494176
-3.960810 -1.065297 0.494062
-3.955853 -1.040164 0.494143
-3.961996 -0.990240 0.496609
-3.963326 -0.950824 0.498147
-3.961468 -0.918573 0.499092
-4.578835 -4.031272 0.435061
-4.582283 -4.022662 0.435728
-4.581042 -4.014531 0.435892
-4.574787 -4.006983 0.435512
-4.575273 -3.998319 0.435983
-4.585153 -3.988050 0.437626
-4.585907 -3.978994 0.438234
-4.583780 -3.970256 0.438547
-4.579829 -3.961700 0.438688
-4.576420 -3.952952 0.438938
-4.573339 -3.944046 0.439269
-4.570835 -3.934942 0.439710
-4.566503 -3.926084 0.439967
-4.555238 -3.918473 0.439413
-4.546824 -3.910310 0.439233
-4.534617 -3.902888 0.438613
-4.536543 -3.892608 0.439749
-4.534779 -3.882998 0.440458
-4.540919 -3.871638 0.442168
-4.534914 -3.862808 0.442394
-4.533415 -3.852963 0.443195
-4.521644 -3.845426 0.442722
-4.482960 -3.844249 0.438863
-4.362132 -3.863040 0.424593
-4.351436 -3.856138 0.424186
-4.344735 -3.848312 0.424284
-4.343931 -3.839021 0.425133
-4.341837 -3.830043 0.425820
-4.341517 -3.820589 0.426735
-4.340696 -3.811247 0.427585
-4.341721 -3.801383 0.428673
-4.338737 -3.792608 0.429238
-4.336264 -3.783698 0.429864
-4.334818 -3.774494 0.430619
-4.334089 -3.765075 0.431462
-4.332409 -3.755932 0.432174
-4.331735 -3.746481 0.433013
-4.330054 -3.737333 0.433711
-4.327178 -3.728563 0.434240
-4.326548 -3.719083 0.435062
-4.323186 -3.710485 0.435507
-4.326075 -3.699829 0.436789
-4.324178 -3.690739 0.437415
-4.323706 -3.681163 0.438227
-4.320834 -3.672407 0.438701
-4.321328 -3.662473 0.439628
-4.320579 -3.652958 0.440376
-4.320072 -3.643342 0.441149
-4.317635 -3.634423 0.441645
-4.315220 -3.625498 0.442135
-4.316188 -3.615289 0.443088
-4.315418 -3.605716 0.443790
-4.314569 -3.596155 0.444474
-4.314882 -3.586117 0.445312
-4.317985 -3.574926 0.446539
-4.312860 -3.567022 0.446594
-4.311553 -3.557569 0.447181
-4.311397 -3.547619 0.447924
-4.311154 -3.537674 0.448648
-4.309689 -3.528224 0.449190
-4.306812 -3.519368 0.449521
-4.303778 -3.510579 0.449821
-4.302574 -3.500971 0.450378
-4.299837 -3.492031 0.450706
-4.297467 -3.482915 0.451079
-4.297503 -3.472674 0.451796
-4.294654 -3.463742 0.452086
-4.290211 -3.455555 0.452135
-4.288876 -3.445886 0.452633
-4.288424 -3.435761 0.453255
-4.290057 -3.424572 0.454181
-4.291269 -3.413528 0.455041
-4.290423 -3.403455 0.455593
-4.288751 -3.393765 0.456017
-4.288034 -3.383553 0.456579
-4.285994 -3.373987 0.456939
-4.283621 -3.364569 0.457244
-4.281386 -3.355053 0.457565
-4.280278 -3.344904 0.458051
-4.278999 -3.334806 0.458508
-4.275460 -3.325911 0.458619
-4.272235 -3.316827 0.458773
-4.271272 -3.306454 0.459267
-4.272310 -3.294897 0.460063
-4.268601 -3.285994 0.460132
-4.268059 -3.275237 0.460682
-4.267208 -3.264607 0.461182
-4.265744 -3.254287 0.461586
-4.263682 -3.244281 0.461895
-4.260636 -3.234831 0.462050
-4.259398 -3.224248 0.462481
-4.258194 -3.213593 0.462917
-4.256251 -3.203348 0.463235
-4.251624 -3.194753 0.463132
-4.248595 -3.185129 0.463276
-4.246432 -3.174916 0.463553
-4.249598 -3.161191 0.464665
-4.253046 -3.147166 0.465823
-4.250265 -3.137158 0.466001
-4.245086 -3.128721 0.465798
-4.240515 -3.119866 0.465688
-4.240408 -3.107940 0.466283
-4.236454 -3.098598 0.466267
-4.233307 -3.088667 0.466377
-4.234503 -3.075637 0.467179
-4.231243 -3.065683 0.467268
-4.229565 -3.054554 0.467610
-4.229382 -3.042281 0.468192
-4.227633 -3.031074 0.468522
-4.226007 -3.019714 0.468871
-4.222569 -3.009647 0.468927
-4.222502 -2.996997 0.469527
-4.222835 -2.983953 0.470194
-4.224714 -2.969623 0.471114
-4.219136 -2.960970 0.470818
-4.213963 -2.951991 0.470585
-4.212425 -2.940115 0.470945
-4.210630 -2.928372 0.471264
-4.208289 -2.917003 0.471491
-4.205782 -2.905705 0.471691
-4.206504 -2.891690 0.472424
-4.204048 -2.880205 0.472632
-4.214540 -2.857792 0.474991
-4.212384 -2.845821 0.475251
-4.205459 -2.837857 0.474714
-4.201982 -2.826922 0.474750
-4.203319 -2.811741 0.475591
-4.202213 -2.798575 0.476024
-4.195001 -2.790738 0.475428
-4.194956 -2.776484 0.476037
-4.185428 -2.770694 0.475043
-4.188448 -2.753493 0.476169
-4.186872 -2.740357 0.476516
-4.191433 -2.721419 0.477908
-4.187314 -2.710430 0.477822
-4.186837 -2.695936 0.478356
-4.186559 -2.681134 0.478924
-4.180394 -2.671890 0.478481
-4.181653 -2.655393 0.479310
-4.184295 -2.637380 0.480378
-4.181224 -2.624852 0.480461
-4.176841 -2.613558 0.480314
-4.178541 -2.596053 0.481218
-4.174977 -2.583745 0.481207
-4.167500 -2.575388 0.480512
-4.162213 -2.564749 0.480192
-4.162054 -2.548681 0.480764
-4.161115 -2.533288 0.481197
-4.159834 -2.518121 0.481569
-4.163831 -2.497127 0.482866
-4.156022 -2.488743 0.482083
-4.151492 -2.476745 0.481871
-4.149133 -2.462262 0.482038
-4.149974 -2.444072 0.482769
-4.146962 -2.430039 0.482812
-4.141631 -2.418533 0.482438
-4.140059 -2.402628 0.482728
-4.139807 -2.385036 0.483249
-4.133957 -2.373820 0.482764
-4.135147 -2.354200 0.483535
-4.139589 -2.330466 0.484886
-4.134620 -2.317775 0.484543
-4.128478 -2.306413 0.483980
-4.121873 -2.295543 0.483324
-4.117008 -2.282446 0.482975
-4.123449 -2.255076 0.484668
-4.111986 -2.249959 0.483107
-4.107031 -2.236572 0.482718
-4.107621 -2.215915 0.483330
-4.107425 -2.196017 0.483794
-4.104908 -2.178917 0.483827
-4.101002 -2.163459 0.483598
-4.096103 -2.149162 0.483178
-4.096071 -2.128135 0.483642
-4.095400 -2.107698 0.483983
-4.094710 -2.087014 0.484312
-4.092122 -2.068694 0.484283
-4.087197 -2.053424 0.483813
-4.083852 -2.035734 0.483626
-4.083054 -2.014164 0.483902
-4.082172 -1.992407 0.484153
-4.076208 -1.977774 0.483452
-4.072436 -1.959730 0.483149
-4.067111 -1.943763 0.482545
-4.063888 -1.924423 0.482324
-4.061830 -1.903035 0.482312
-4.060300 -1.880516 0.482391
-4.058441 -1.858170 0.482400
-4.054471 -1.838803 0.482005
-4.052647 -1.815747 0.482005
-4.054069 -1.787129 0.482609
-4.051652 -1.764263 0.482485
-4.047350 -1.744136 0.482001
-4.042447 -1.724716 0.481397
-4.045300 -1.692030 0.482253
-4.043076 -1.667381 0.482148
-4.039009 -1.645507 0.481693
-4.032042 -1.628335 0.480688
-4.031528 -1.599668 0.480906
-4.026212 -1.579039 0.480216
-4.018751 -1.561980 0.479121
-4.022631 -1.524235 0.480190
-4.019026 -1.499545 0.479845
-4.029427 -1.448632 0.482183
-4.018550 -1.436608 0.480478
-4.003462 -1.432544 0.477982
-4.007131 -1.392797 0.479091
-4.000992 -1.371422 0.478347
-3.997653 -1.344415 0.478165
-3.995005 -1.315775 0.478148
-3.988632 -1.294316 0.477446
-3.982574 -1.272134 0.476842
-3.984882 -1.232752 0.477896
-3.980446 -1.206900 0.477692
-3.970935 -1.191584 0.476549
-3.975545 -1.146531 0.478206
-3.978164 -1.105278 0.479538
-3.969286 -1.088582 0.478682
-3.965594 -1.060770 0.478903
-3.960810 -1.035397 0.478972
-3.961174 -0.998609 0.480127
-3.976137 -0.928669 0.484262
-3.980585 -0.881984 0.486399
-4.009879 -0.777604 0.493609
-4.592163 -4.028309 0.427421
-4.584725 -4.021200 0.426789
-4.580944 -4.013468 0.426625
-4.579282 -4.005298 0.426755
-4.579851 -3.996650 0.427193
-4.581078 -3.987743 0.427758
-4.582718 -3.978610 0.428423
-4.581388 -3.969802 0.428796
-4.579591 -3.960943 0.429163
-4.578606 -3.951825 0.429670
-4.576821 -3.942725 0.430129
-4.573035 -3.933880 0.430397
-4.567332 -3.925307 0.430479
-4.554539 -3.918024 0.429765
-4.537254 -3.911633 0.428548
-4.521247 -3.905053 0.427500
-4.526068 -3.894277 0.428935
-4.529092 -3.883746 0.430187
-4.540194 -3.871378 0.432430
-4.539200 -3.861481 0.433257
-4.539188 -3.851306 0.434220
-4.527533 -3.843739 0.433794
-4.511721 -3.837205 0.432869
-4.362172 -3.862755 0.415670
-4.350179 -3.856187 0.415135
-4.344455 -3.848140 0.415364
-4.342589 -3.839134 0.416068
-4.343214 -3.829470 0.417082
-4.339418 -3.820939 0.417550
-4.339591 -3.811350 0.418510
-4.339299 -3.801862 0.419411
-4.338155 -3.792593 0.420204
-4.334787 -3.783948 0.420712
-4.333784 -3.774631 0.421513
-4.334270 -3.764864 0.422499
-4.332802 -3.755662 0.423231
-4.330928 -3.746581 0.423903
-4.328931 -3.737540 0.424553
-4.326962 -3.728492 0.425197
-4.323874 -3.719809 0.425688
-4.326473 -3.709280 0.426909
-4.327572 -3.699205 0.427929
-4.328756 -3.689071 0.428953
-4.326482 -3.680091 0.429516
-4.325324 -3.670727 0.430217
-4.321473 -3.662307 0.430551
-4.321194 -3.652627 0.431349
-4.321435 -3.642738 0.432208
-4.317863 -3.634233 0.432550
-4.316435 -3.624940 0.433167
-4.315905 -3.615297 0.433897
-4.317459 -3.604833 0.434900
-4.313996 -3.596286 0.435216
-4.313403 -3.586613 0.435912
-4.311336 -3.577510 0.436400
-4.309475 -3.568317 0.436906
-4.309512 -3.558332 0.437664
-4.309471 -3.548349 0.438404
-4.308802 -3.538599 0.439050
-4.307941 -3.528907 0.439663
-4.306584 -3.519405 0.440200
-4.304456 -3.510223 0.440621
-4.303504 -3.500504 0.441199
-4.301857 -3.491072 0.441673
-4.299600 -3.481899 0.442055
-4.296700 -3.473009 0.442338
-4.293689 -3.464163 0.442598
-4.291477 -3.454931 0.442963
-4.291280 -3.444715 0.443608
-4.290875 -3.434559 0.444218
-4.290230 -3.424481 0.444789
-4.290531 -3.413895 0.445490
-4.290560 -3.403395 0.446148
-4.288398 -3.393960 0.446487
-4.286161 -3.384539 0.446809
-4.286660 -3.373672 0.447521
-4.283161 -3.364850 0.447652
-4.280933 -3.355341 0.447961
-4.279359 -3.345454 0.448360
-4.278141 -3.335337 0.448806
-4.275162 -3.326149 0.448992
-4.272516 -3.316754 0.449222
-4.270360 -3.307059 0.449519
-4.270263 -3.296162 0.450116
-4.268585 -3.286115 0.450476
-4.265928 -3.276596 0.450689
-4.266017 -3.265438 0.451305
-4.265245 -3.254727 0.451791
-4.264535 -3.243925 0.452284
-4.262640 -3.233784 0.452599
-4.260855 -3.223535 0.452927
-4.259524 -3.212961 0.453321
-4.256697 -3.203271 0.453488
-4.255150 -3.192741 0.453844
-4.250457 -3.184167 0.453725
-4.248765 -3.173652 0.454055
-4.250417 -3.160910 0.454890
-4.252362 -3.147881 0.455770
-4.250557 -3.137243 0.456080
-4.245169 -3.128958 0.455842
-4.240935 -3.119888 0.455776
-4.238001 -3.109908 0.455907
-4.234755 -3.100108 0.455988
-4.231542 -3.090249 0.456071
-4.231047 -3.078439 0.456572
-4.233085 -3.064751 0.457463
-4.232182 -3.053068 0.457901
-4.233328 -3.039826 0.458656
-4.229595 -3.030061 0.458654
-4.224537 -3.021245 0.458443
-4.223949 -3.009073 0.458927
-4.220859 -2.998713 0.459019
-4.223556 -2.983895 0.460017
-4.218455 -2.974950 0.459792
-4.214328 -2.965234 0.459718
-4.213330 -2.953030 0.460135
-4.210330 -2.942335 0.460235
-4.207798 -2.931216 0.460408
-4.205530 -2.919826 0.460621
-4.206717 -2.905557 0.461383
-4.201270 -2.896630 0.461089
-4.207207 -2.878231 0.462610
-4.209141 -2.862993 0.463495
-4.206571 -2.851435 0.463658
-4.204140 -2.839693 0.463843
-4.201883 -2.827735 0.464054
-4.200738 -2.814736 0.464444
-4.193695 -2.806831 0.463879
-4.191061 -2.795018 0.464024
-4.191549 -2.780342 0.464674
-4.195391 -2.762509 0.465870
-4.191671 -2.751395 0.465836
-4.191010 -2.737410 0.466299
-4.192001 -2.721780 0.467031
-4.187972 -2.710719 0.466940
-4.181732 -2.701699 0.466483
-4.183091 -2.685398 0.467272
-4.181990 -2.671318 0.467656
-4.180230 -2.657770 0.467929
-4.183278 -2.639394 0.468997
-4.181118 -2.625993 0.469201
-4.177502 -2.613952 0.469159
-4.178818 -2.596852 0.469937
-4.175174 -2.584644 0.469885
-4.168771 -2.575198 0.469367
-4.165094 -2.562893 0.469300
-4.163182 -2.548658 0.469525
-4.162117 -2.533410 0.469890
-4.159245 -2.519955 0.469947
-4.157844 -2.504812 0.470248
-4.156133 -2.489870 0.470492
-4.150828 -2.478743 0.470124
-4.150383 -2.462166 0.470574
-4.153847 -2.441055 0.471687
-4.148129 -2.430058 0.471232
-4.141861 -2.419628 0.470675
-4.140460 -2.403547 0.470944
-4.140583 -2.385538 0.471469
-4.136499 -2.372262 0.471267
-4.130242 -2.361450 0.470684
-4.137589 -2.334332 0.472438
-4.132445 -2.321894 0.472034
-4.128649 -2.307722 0.471854
-4.123300 -2.295328 0.471398
-4.115939 -2.285329 0.470584
-4.116063 -2.265909 0.471060
-4.110137 -2.253897 0.470477
-4.104060 -2.241985 0.469858
-4.106050 -2.219588 0.470638
-4.110010 -2.194332 0.471756
-4.107293 -2.177486 0.471699
-4.101969 -2.163900 0.471176
-4.097466 -2.149084 0.470787
-4.099259 -2.125599 0.471495
-4.096471 -2.108036 0.471389
-4.092637 -2.091698 0.471089
-4.088841 -2.075112 0.470785
-4.086486 -2.056301 0.470725
-4.083877 -2.037601 0.470610
-4.082777 -2.016492 0.470753
-4.078299 -1.999976 0.470287
-4.073730 -1.983385 0.469793
-4.071730 -1.962788 0.469746
-4.068364 -1.943935 0.469445
-4.064721 -1.925240 0.469084
-4.060035 -1.907875 0.468527
-4.055827 -1.889540 0.468045
-4.055254 -1.865302 0.468203
-4.054259 -1.841350 0.468276
-4.051890 -1.819205 0.468095
-4.049833 -1.796226 0.467962
-4.050775 -1.768034 0.468359
-4.047022 -1.747067 0.467908
-4.042161 -1.727631 0.467251
-4.048547 -1.689100 0.468611
-4.045309 -1.666167 0.468237
-4.038566 -1.648886 0.467229
-4.029989 -1.634564 0.465889
-4.030064 -1.604982 0.466107
-4.022148 -1.589047 0.464887
-4.021858 -1.559331 0.465046
-4.021359 -1.529535 0.465175
-4.024028 -1.493507 0.465886
-4.026850 -1.456621 0.466639
-4.019624 -1.437929 0.465587
-4.012660 -1.418591 0.464598
-4.009252 -1.392312 0.464275
-4.003737 -1.369819 0.463593
-3.999764 -1.344139 0.463218
-3.995491 -1.318827 0.462819
-3.987323 -1.301107 0.461745
-3.982815 -1.275999 0.461375
-3.979836 -1.247631 0.461328
-3.975654 -1.221573 0.461106
-3.971915 -1.194496 0.461016
-3.975513 -1.151815 0.462333
-3.980869 -1.104973 0.464038
-3.979923 -1.071297 0.464646
-3.957796 -1.083789 0.461384
-3.957340 -1.049304 0.462209
-3.954874 -1.019214 0.462730
-3.952188 -0.989656 0.463283
-3.974194 -0.903809 0.468569
-4.580801 -4.028656 0.416988
-4.584205 -4.020134 0.417532
-4.583398 -4.012029 0.417668
-4.583413 -4.003651 0.417947
-4.579760 -3.995672 0.417874
-4.578663 -3.987172 0.418135
-4.576422 -3.978715 0.418321
-4.577662 -3.969562 0.418942
-4.576275 -3.960697 0.419322
-4.576624 -3.951409 0.419941
-4.576639 -3.942045 0.420570
-4.573154 -3.933190 0.420851
-4.566327 -3.924869 0.420797
-4.555604 -3.917240 0.420339
-4.541337 -3.910296 0.419509
-4.529882 -3.902826 0.419021
-4.528599 -3.893290 0.419712
-4.533525 -3.882380 0.421138
-4.544366 -3.870074 0.423273
-4.545943 -3.859619 0.424374
-4.539262 -3.850933 0.424543
-4.520164 -3.845097 0.423284
-4.504563 -3.838575 0.422430
-4.364581 -3.861913 0.407032
-4.344223 -3.857395 0.405552
-4.341265 -3.848703 0.406112
-4.340326 -3.839492 0.406914
-4.336328 -3.831052 0.407356
-4.338283 -3.821046 0.408507
-4.336112 -3.812106 0.409167
-4.337633 -3.802147 0.410269
-4.335142 -3.793272 0.410886
-4.335316 -3.783640 0.411823
-4.335101 -3.774098 0.412709
-4.334236 -3.764731 0.413512
-4.332385 -3.755649 0.414188
-4.331109 -3.746392 0.414928
-4.330390 -3.736957 0.415730
-4.327202 -3.728292 0.416218
-4.325088 -3.719298 0.416830
-4.326347 -3.709205 0.417855
-4.329615 -3.698413 0.419126
-4.329253 -3.688793 0.419936
-4.328637 -3.679246 0.420704
-4.323759 -3.671168 0.420923
-4.321666 -3.662138 0.421484
-4.322101 -3.652203 0.422359
-4.321995 -3.642439 0.423156
-4.319999 -3.633352 0.423702
-4.318337 -3.624138 0.424281
-4.322417 -3.612736 0.425595
-4.315562 -3.605480 0.425482
-4.313622 -3.596351 0.425997
-4.312846 -3.586756 0.426654
-4.311677 -3.577299 0.427252
-4.310019 -3.568025 0.427776
-4.309068 -3.558448 0.428385
-4.309254 -3.548376 0.429137
-4.304474 -3.540372 0.429221
-4.305603 -3.529854 0.430083
-4.305533 -3.519811 0.430778
-4.304465 -3.510172 0.431333
-4.303939 -3.500268 0.431953
-4.303318 -3.490376 0.432553
-4.302027 -3.480758 0.433057
-4.298260 -3.472260 0.433217
-4.295527 -3.463281 0.433510
-4.293330 -3.454037 0.433868
-4.293216 -3.443778 0.434504
-4.293396 -3.433333 0.435175
-4.291677 -3.423774 0.435580
-4.289560 -3.414387 0.435924
-4.288065 -3.404664 0.436348
-4.285533 -3.395438 0.436623
-4.284086 -3.385636 0.437042
-4.281641 -3.376319 0.437317
-4.282445 -3.365272 0.438040
-4.280147 -3.355813 0.438326
-4.279317 -3.345539 0.438812
-4.277136 -3.335955 0.439105
-4.274374 -3.326661 0.439311
-4.272333 -3.316945 0.439614
-4.272095 -3.306182 0.440168
-4.271547 -3.295541 0.440675
-4.268633 -3.286205 0.440843
-4.265564 -3.276935 0.440984
-4.264114 -3.266692 0.441352
-4.263525 -3.255895 0.441840
-4.262568 -3.245263 0.442273
-4.261627 -3.234568 0.442706
-4.260748 -3.223782 0.443145
-4.257812 -3.214213 0.443286
-4.256554 -3.203566 0.443665
-4.252609 -3.194562 0.443653
-4.252418 -3.183146 0.444182
-4.249257 -3.173576 0.444278
-4.248542 -3.162385 0.444728
-4.249672 -3.149918 0.445446
-4.247015 -3.139877 0.445609
-4.243658 -3.130266 0.445666
-4.240264 -3.120650 0.445716
-4.237921 -3.110286 0.445917
-4.233917 -3.101022 0.445872
-4.231871 -3.090369 0.446113
-4.231418 -3.078543 0.446589
-4.233563 -3.064791 0.447451
-4.236091 -3.050654 0.448371
-4.236126 -3.038206 0.448920
-4.231471 -3.029113 0.448767
-4.224743 -3.021535 0.448300
-4.220467 -3.012136 0.448198
-4.221666 -2.998578 0.448917
-4.218241 -2.988438 0.448939
-4.216823 -2.976714 0.449262
-4.215950 -2.964497 0.449668
-4.212935 -2.953882 0.449747
-4.211103 -2.942280 0.450005
-4.209135 -2.930722 0.450240
-4.209916 -2.916878 0.450894
-4.207033 -2.905910 0.450988
-4.211877 -2.888532 0.452266
-4.212960 -2.874102 0.452968
-4.207274 -2.865226 0.452628
-4.202671 -2.855422 0.452452
-4.199393 -2.844453 0.452478
-4.198882 -2.831046 0.452930
-4.194313 -2.821071 0.452752
-4.189629 -2.811162 0.452552
-4.192279 -2.794716 0.453492
-4.190591 -2.781998 0.453756
-4.196126 -2.762666 0.455149
-4.193841 -2.750257 0.455318
-4.192093 -2.737273 0.455569
-4.196117 -2.718837 0.456727
-4.191041 -2.708741 0.456451
-4.187547 -2.697113 0.456421
-4.190002 -2.679737 0.457329
-4.185499 -2.668897 0.457134
-4.182446 -2.656596 0.457166
-4.180807 -2.642827 0.457419
-4.176667 -2.631432 0.457270
-4.177133 -2.615367 0.457853
-4.175910 -2.600858 0.458163
-4.175238 -2.585668 0.458559
-4.170580 -2.574444 0.458312
-4.166893 -2.562154 0.458216
-4.167241 -2.545554 0.458765
-4.164649 -2.531902 0.458837
-4.161295 -2.518959 0.458781
-4.157687 -2.506194 0.458678
-4.154419 -2.492969 0.458625
-4.152155 -2.478541 0.458730
-4.151294 -2.462434 0.459058
-4.152323 -2.444059 0.459691
-4.148888 -2.430524 0.459589
-4.140983 -2.421968 0.458748
-4.138070 -2.407657 0.458717
-4.139254 -2.388467 0.459353
-4.140579 -2.368892 0.460008
-4.128821 -2.364555 0.458500
-4.128329 -2.346835 0.458841
-4.127672 -2.329118 0.459148
-4.124256 -2.314559 0.458992
-4.123077 -2.297116 0.459198
-4.119552 -2.282387 0.459007
-4.114152 -2.269857 0.458495
-4.112036 -2.253078 0.458521
-4.105570 -2.241657 0.457812
-4.108524 -2.218027 0.458665
-4.112372 -2.192916 0.459661
-4.108641 -2.177394 0.459381
-4.102923 -2.164333 0.458758
-4.102334 -2.144292 0.458984
-4.099092 -2.127572 0.458755
-4.098073 -2.107623 0.458889
-4.092565 -2.093591 0.458257
-4.087227 -2.079173 0.457641
-4.084363 -2.061124 0.457431
-4.079828 -2.045211 0.456928
-4.076822 -2.026918 0.456671
-4.075789 -2.005529 0.456736
-4.071277 -1.988917 0.456201
-4.067041 -1.971685 0.455702
-4.072803 -1.939325 0.456886
-4.067613 -1.922922 0.456202
-4.060704 -1.908923 0.455214
-4.057537 -1.889011 0.454850
-4.059069 -1.861514 0.455275
-4.058898 -1.836247 0.455400
-4.054612 -1.817105 0.454815
-4.048054 -1.801334 0.453833
-4.049347 -1.772653 0.454180
-4.043987 -1.754387 0.453385
-4.038783 -1.735617 0.452610
-4.041844 -1.702773 0.453238
-4.044279 -1.670430 0.453755
-4.035772 -1.656237 0.452401
-4.030401 -1.636488 0.451580
-4.025540 -1.615591 0.450845
-4.023698 -1.589093 0.450628
-4.018597 -1.568020 0.449857
-4.024094 -1.527563 0.450906
-4.023109 -1.498256 0.450855
-4.026022 -1.461340 0.451484
-4.019897 -1.440714 0.450579
-4.014832 -1.417903 0.449873
-4.008251 -1.397766 0.448928
-4.005513 -1.370072 0.448667
-4.001341 -1.344892 0.448187
-3.994622 -1.324535 0.447302
-3.989126 -1.301662 0.446662
-3.985690 -1.274532 0.446418
-3.982700 -1.246318 0.446294
-3.973151 -1.231483 0.445083
-3.969492 -1.204514 0.444942
-3.974158 -1.159894 0.446304
-3.977536 -1.117580 0.447507
-3.975862 -1.085818 0.447896
-3.969393 -1.064431 0.447515
-3.948825 -1.074317 0.444722
-3.928380 -1.015382 0.443978
-4.591480 -4.026011 0.409003
-4.582839 -4.019175 0.408220
-4.583733 -4.010879 0.408494
-4.584682 -4.002410 0.408827
-4.579969 -3.994637 0.408616
-4.576874 -3.986496 0.408627
-4.575412 -3.977972 0.408862
-4.575570 -3.969047 0.409320
-4.573730 -3.960316 0.409616
-4.573067 -3.951260 0.410085
-4.572883 -3.941993 0.410651
-4.572189 -3.932693 0.411208
-4.563615 -3.924746 0.410960
-4.548923 -3.917930 0.410085
-4.544421 -3.909152 0.410342
-4.541553 -3.899987 0.410808
-4.547769 -3.888894 0.412295
-4.546480 -3.879226 0.412996
-4.553114 -3.867789 0.414593
-4.550862 -3.858161 0.415239
-4.534975 -3.851545 0.414394
-4.508620 -3.847423 0.412390
-4.485571 -3.842728 0.410747
-4.370511 -3.860236 0.398775
-4.352392 -3.855160 0.397625
-4.340026 -3.848791 0.397118
-4.336451 -3.840272 0.397605
-4.337065 -3.830667 0.398571
-4.336515 -3.821332 0.399408
-4.336762 -3.811759 0.400337
-4.335201 -3.802654 0.401059
-4.334277 -3.793362 0.401852
-4.334489 -3.783732 0.402775
-4.339004 -3.772828 0.404199
-4.335838 -3.764126 0.404722
-4.332301 -3.755550 0.405193
-4.330676 -3.746406 0.405882
-4.329577 -3.737096 0.406626
-4.327531 -3.728078 0.407250
-4.323503 -3.719702 0.407628
-4.324362 -3.709752 0.408583
-4.329740 -3.698272 0.410077
-4.328260 -3.689032 0.410737
-4.324603 -3.680535 0.411122
-4.323981 -3.671000 0.411867
-4.322488 -3.661760 0.412497
-4.324208 -3.651363 0.413512
-4.324423 -3.641473 0.414334
-4.322129 -3.632486 0.414838
-4.323941 -3.621962 0.415841
-4.319499 -3.613771 0.416058
-4.316249 -3.605144 0.416412
-4.312964 -3.596540 0.416751
-4.314559 -3.586012 0.417693
-4.316660 -3.575235 0.418692
-4.315785 -3.565619 0.419308
-4.314596 -3.556112 0.419876
-4.309480 -3.548229 0.419935
-4.304197 -3.540441 0.419960
-4.302858 -3.530987 0.420481
-4.306100 -3.519524 0.421582
-4.305057 -3.509876 0.422126
-4.302199 -3.501011 0.422427
-4.302905 -3.490535 0.423182
-4.298028 -3.482562 0.423205
-4.299571 -3.471637 0.424056
-4.297220 -3.462476 0.424392
-4.294797 -3.453336 0.424711
-4.294192 -3.443308 0.425262
-4.295382 -3.432375 0.426044
-4.293625 -3.422829 0.426431
-4.289135 -3.414615 0.426450
-4.286223 -3.405614 0.426670
-4.284660 -3.395913 0.427064
-4.280804 -3.387361 0.427145
-4.281747 -3.376310 0.427862
-4.281738 -3.365697 0.428448
-4.281505 -3.355152 0.428999
-4.280994 -3.344706 0.429508
-4.276954 -3.336132 0.429537
-4.273768 -3.327081 0.429675
-4.271102 -3.317723 0.429878
-4.272927 -3.305819 0.430688
-4.271586 -3.295632 0.431063
-4.268588 -3.286354 0.431208
-4.265988 -3.276821 0.431404
-4.263982 -3.266912 0.431676
-4.263057 -3.256326 0.432094
-4.262047 -3.245739 0.432496
-4.261110 -3.235056 0.432906
-4.261186 -3.223701 0.433454
-4.259406 -3.213425 0.433742
-4.257082 -3.203445 0.433951
-4.252636 -3.194765 0.433862
-4.250112 -3.184850 0.434036
-4.250268 -3.173171 0.434583
-4.249062 -3.162305 0.434937
-4.246750 -3.152109 0.435134
-4.244053 -3.142128 0.435274
-4.242045 -3.131645 0.435509
-4.241071 -3.120414 0.435887
-4.239015 -3.109861 0.436111
-4.235639 -3.100170 0.436145
-4.233807 -3.089371 0.436396
-4.233020 -3.077780 0.436794
-4.230161 -3.067595 0.436895
-4.239300 -3.048744 0.438712
-4.237080 -3.037928 0.438903
-4.232684 -3.028652 0.438780
-4.226945 -3.020348 0.438460
-4.222104 -3.011369 0.438266
-4.220557 -2.999888 0.438545
-4.220242 -2.987403 0.439001
-4.218079 -2.976254 0.439189
-4.217803 -2.963581 0.439649
-4.215493 -2.952416 0.439812
-4.212928 -2.941393 0.439936
-4.216217 -2.925636 0.440915
-4.214714 -2.913599 0.441193
-4.212788 -2.901832 0.441407
-4.209212 -2.891353 0.441377
-4.212259 -2.875331 0.442321
-4.210215 -2.863427 0.442514
-4.205584 -2.853639 0.442322
-4.200816 -2.843938 0.442106
-4.196616 -2.833717 0.441971
-4.192910 -2.823027 0.441906
-4.198745 -2.803910 0.443263
-4.188717 -2.798648 0.442250
-4.191703 -2.781795 0.443180
-4.192585 -2.766679 0.443795
-4.191954 -2.752812 0.444181
-4.186130 -2.743614 0.443783
-4.201203 -2.714990 0.446535
-4.193721 -2.707125 0.445883
-4.193474 -2.692420 0.446321
-4.194604 -2.676280 0.446966
-4.189118 -2.666364 0.446604
-4.184999 -2.655086 0.446445
-4.178879 -2.645714 0.445976
-4.174257 -2.634833 0.445730
-4.171751 -2.621783 0.445803
-4.175253 -2.602577 0.446794
-4.169457 -2.592633 0.446355
-4.168072 -2.578120 0.446588
-4.170612 -2.559412 0.447424
-4.169873 -2.543937 0.447750
-4.168174 -2.529337 0.447924
-4.164667 -2.516541 0.447812
-4.159711 -2.505214 0.447470
-4.155795 -2.492692 0.447283
-4.154474 -2.477237 0.447493
-4.150273 -2.464827 0.447249
-4.146264 -2.452115 0.447027
-4.143912 -2.437440 0.447058
-4.143396 -2.420545 0.447369
-4.138372 -2.408653 0.446967
-4.135075 -2.394679 0.446829
-4.135198 -2.376581 0.447220
-4.133943 -2.359911 0.447388
-4.129576 -2.346776 0.447057
-4.126645 -2.331804 0.446945
-4.123072 -2.317468 0.446722
-4.122941 -2.298777 0.447035
-4.121044 -2.282053 0.447060
-4.117000 -2.267832 0.446735
-4.110827 -2.256158 0.446061
-4.111859 -2.235220 0.446523
-4.116650 -2.209181 0.447576
-4.113296 -2.193347 0.447321
-4.102940 -2.186516 0.445937
-4.104798 -2.163521 0.446492
-4.103524 -2.144396 0.446536
-4.101410 -2.126161 0.446435
-4.096997 -2.110830 0.445954
-4.092301 -2.095716 0.445415
-4.089885 -2.077264 0.445229
-4.083946 -2.063517 0.444465
-4.076699 -2.051476 0.443478
-4.075588 -2.030541 0.443465
-4.075229 -2.008223 0.443561
-4.071481 -1.990530 0.443098
-4.071252 -1.967413 0.443191
-4.076146 -1.936321 0.444097
-4.070426 -1.920691 0.443279
-4.064410 -1.905319 0.442400
-4.061862 -1.884429 0.442070
-4.062190 -1.858774 0.442191
-4.063177 -1.831680 0.442408
-4.061060 -1.809069 0.442112
-4.057754 -1.788020 0.441614
-4.049480 -1.774700 0.440303
-4.045556 -1.754129 0.439686
-4.041360 -1.733710 0.439017
-4.042181 -1.704626 0.439151
-4.039515 -1.680956 0.438717
-4.041677 -1.648695 0.439058
-4.033373 -1.633958 0.437706
-4.028159 -1.613691 0.436852
-4.026674 -1.586592 0.436602
-4.020837 -1.566854 0.435652
-4.032856 -1.514703 0.437594
-4.024455 -1.498842 0.436244
-4.017878 -1.479510 0.435201
-4.021771 -1.440490 0.435865
-4.014110 -1.422653 0.434680
-4.005435 -1.406651 0.433352
-4.004563 -1.375568 0.433312
-4.000037 -1.351252 0.432710
-3.996637 -1.324537 0.432324
-3.991812 -1.300457 0.431743
-3.992298 -1.265547 0.432067
-3.985546 -1.245056 0.431261
-3.978181 -1.225846 0.430405
-3.969502 -1.209447 0.429386
-3.964704 -1.185032 0.429055
-3.966157 -1.147313 0.429807
-3.994307 -1.051828 0.435007
-3.961914 -1.086725 0.430346
-3.957146 -1.062205 0.430285
-3.956041 -1.029664 0.430902
-3.968231 -0.967204 0.433805
-3.932612 -1.012784 0.428835
-3.998244 -0.827508 0.440851
-4.581857 -4.026107 0.398908
-4.585320 -4.017663 0.399339
-4.583783 -4.009756 0.399318
-4.583869 -4.001463 0.399515
-4.579264 -3.993728 0.399290
-4.578740 -3.985241 0.399531
-4.575672 -3.977015 0.399567
-4.577366 -3.967886 0.400138
-4.574007 -3.959452 0.400245
-4.573308 -3.950449 0.400672
-4.572235 -3.941385 0.401108
-4.570682 -3.932290 0.401540
-4.560788 -3.924642 0.401155
-4.554649 -3.916251 0.401194
-4.547353 -3.908034 0.401148
-4.559649 -3.895855 0.403172
-4.555257 -3.886887 0.403496
-4.557430 -3.876491 0.404536
-4.556344 -3.866690 0.405263
-4.554149 -3.857064 0.405898
-4.533823 -3.851459 0.404630
-4.504972 -3.847945 0.402456
-4.479826 -3.843788 0.400670
-4.367950 -3.860598 0.389557
-4.341688 -3.857547 0.387592
-4.339732 -3.848652 0.388246
-4.338216 -3.839626 0.388953
-4.339895 -3.829749 0.390014
-4.338605 -3.820609 0.390755
-4.337254 -3.811468 0.391490
-4.334650 -3.802658 0.392086
-4.333414 -3.793464 0.392831
-4.334628 -3.783561 0.393848
-4.337553 -3.773125 0.395055
-4.337182 -3.763612 0.395891
-4.333756 -3.755000 0.396376
-4.331387 -3.746082 0.396974
-4.328829 -3.737228 0.397542
-4.325484 -3.728630 0.398011
-4.324714 -3.719220 0.398767
-4.325599 -3.709258 0.399705
-4.328846 -3.698484 0.400911
-4.328665 -3.688814 0.401713
-4.324239 -3.680581 0.402012
-4.320240 -3.672226 0.402349
-4.323630 -3.661283 0.403543
-4.324721 -3.651108 0.404459
-4.325799 -3.640904 0.405367
-4.323280 -3.631995 0.405840
-4.321894 -3.622665 0.406437
