ply
format ascii 1.0
comment ---
element vertex 1679
property float x
property float y
property float z
element face 0
property list uchar uint vertex_indices
end_header
-1.425230 2.828611 -1.308696
-1.399786 2.822820 -1.305775
-1.384673 2.844314 -1.311788
-1.346715 2.804108 -1.297637
-1.329248 2.819004 -1.301513
-1.312336 2.835670 -1.305974
-1.275612 2.796132 -1.292117
-1.252435 2.794276 -1.290576
-1.229451 2.792642 -1.289127
-1.202234 2.777997 -1.283466
-1.180533 2.779347 -1.283035
-1.153550 2.764101 -1.277232
-1.131330 2.763016 -1.276059
-1.105374 2.749627 -1.270916
-0.960754 2.413081 -1.160298
-0.940020 2.409321 -1.158420
-0.919634 2.406341 -1.156818
-0.899164 2.402673 -1.155018
-0.879944 2.403048 -1.154550
-0.862721 2.410425 -1.156369
-0.843582 2.410709 -1.155916
-0.823349 2.406596 -1.154065
-0.803781 2.404613 -1.152925
-0.784948 2.405172 -1.152629
-0.763999 2.396989 -1.149533
-0.743347 2.389422 -1.146660
-0.722521 2.380543 -1.143386
-0.703148 2.377240 -1.141933
-0.685544 2.381287 -1.142869
-0.668071 2.385860 -1.143995
-0.648677 2.381604 -1.142295
-0.631694 2.388218 -1.144116
-0.614073 2.391860 -1.144998
-0.595480 2.390661 -1.144340
-0.576543 2.387443 -1.143052
-0.557093 2.381179 -1.140802
-0.536618 2.368913 -1.136640
-0.517795 2.364791 -1.135115
-0.501050 2.371902 -1.137218
-0.483468 2.374382 -1.137849
-0.464255 2.367108 -1.135361
-0.445948 2.364747 -1.134467
-0.428326 2.366384 -1.134873
-0.410016 2.363449 -1.133826
-0.391065 2.355809 -1.131281
-0.371758 2.344995 -1.127731
-0.354765 2.349939 -1.129257
-0.337822 2.355454 -1.130980
-0.319323 2.349126 -1.128911
-0.301102 2.344392 -1.127367
-0.283867 2.347399 -1.128323
-0.266880 2.352688 -1.130023
-0.250250 2.361572 -1.132890
-0.232515 2.360538 -1.132582
-0.214962 2.361101 -1.132799
-0.196091 2.347634 -1.128519
-0.177728 2.338237 -1.125558
-0.159201 2.325696 -1.121596
-0.142087 2.329190 -1.122796
-0.125325 2.337710 -1.125620
-0.107963 2.338759 -1.126054
-0.088817 2.312520 -1.117727
-0.072696 2.332000 -1.124103
-0.055041 2.327209 -1.122686
-0.037470 2.323062 -1.121485
-0.019925 2.318502 -1.120160
-0.002592 2.317956 -1.120133
0.015060 2.308392 -1.117213
0.032240 2.310882 -1.118178
0.049450 2.313112 -1.119068
0.066972 2.301861 -1.115627
0.084451 2.286708 -1.110937
0.101580 2.288675 -1.111763
0.118750 2.287696 -1.111648
0.135915 2.285209 -1.111054
0.153092 2.295203 -1.114487
0.170289 2.294494 -1.114480
0.187247 2.274643 -1.108312
0.204309 2.271855 -1.107648
0.221774 2.288391 -1.113217
0.238648 2.276752 -1.109712
0.255610 2.271285 -1.108203
0.272577 2.267233 -1.107156
0.290379 2.284083 -1.112857
0.307149 2.275001 -1.110200
0.324078 2.270583 -1.109053
0.340541 2.258483 -1.105432
0.357178 2.251023 -1.103314
0.374922 2.261350 -1.106947
0.391785 2.257658 -1.106058
0.408476 2.252033 -1.104550
0.425490 2.250982 -1.104527
0.443303 2.259276 -1.107532
0.460096 2.255231 -1.106555
0.476712 2.249621 -1.105077
0.493514 2.246294 -1.104345
0.510449 2.244415 -1.104087
0.525731 2.227529 -1.098976
0.543539 2.233968 -1.101426
0.560759 2.234843 -1.102081
0.577443 2.231223 -1.101287
0.593872 2.225789 -1.099912
0.610770 2.224106 -1.099761
0.629478 2.235408 -1.103831
0.645157 2.224815 -1.100805
0.661517 2.219357 -1.099452
0.679218 2.222825 -1.101007
0.698374 2.235085 -1.105429
0.713364 2.221087 -1.101326
0.729406 2.214000 -1.099477
0.746726 2.214525 -1.100113
0.765619 2.223674 -1.103566
0.782546 2.221511 -1.103349
0.795194 2.196683 -1.095757
0.816646 2.218370 -1.103331
0.828660 2.191411 -1.095059
0.843218 2.178097 -1.091241
0.859932 2.175595 -1.090961
0.879357 2.185725 -1.094817
0.895558 2.180524 -1.093681
0.910484 2.169728 -1.090726
0.926122 2.162360 -1.088902
0.949314 2.187388 -1.097690
0.965559 2.182184 -1.096603
0.984066 2.186284 -1.098576
1.003605 2.194188 -1.101812
1.019202 2.186137 -1.099834
1.035642 2.181482 -1.098982
1.051315 2.173940 -1.097197
1.066011 2.162896 -1.094274
1.081837 2.156196 -1.092791
1.099080 2.154611 -1.093007
1.115762 2.150945 -1.092553
1.134601 2.154633 -1.094539
1.158495 2.175064 -1.102066
1.167059 2.143756 -1.092550
1.186239 2.147924 -1.094753
1.201451 2.139045 -1.092666
1.218696 2.136666 -1.092744
1.238161 2.141041 -1.095077
1.252517 2.129497 -1.092161
1.267404 2.119707 -1.089841
1.286930 2.123704 -1.092113
1.305488 2.124549 -1.093362
1.319596 2.112427 -1.090324
1.338052 2.112699 -1.091426
1.343874 2.077709 -1.080810
-1.863134 2.500336 -1.234231
-1.727572 2.868094 -1.355654
-1.715147 2.893012 -1.363212
-1.686252 2.881566 -1.358510
-1.657750 2.870842 -1.354011
-1.637402 2.878815 -1.355739
-1.612715 2.876857 -1.354107
-1.583844 2.864897 -1.349102
-1.556046 2.855168 -1.344826
-1.532118 2.854588 -1.343594
-1.505391 2.846955 -1.339995
-1.480034 2.842438 -1.337432
-1.455772 2.840450 -1.335709
-1.429405 2.832779 -1.332096
-1.406809 2.834624 -1.331655
-1.374036 2.809108 -1.322126
-1.351141 2.809405 -1.321192
-1.331676 2.818935 -1.323336
-1.312543 2.829445 -1.325813
-1.284231 2.813908 -1.319670
-1.253746 2.791317 -1.311216
-1.235805 2.804565 -1.314653
-1.203249 2.774308 -1.303717
-1.183323 2.781105 -1.305062
-1.157028 2.768160 -1.299907
-1.133017 2.761645 -1.296904
-1.100487 2.727376 -1.284772
-1.049884 2.632812 -1.252802
-0.959607 2.403238 -1.176412
-0.940537 2.405040 -1.176320
-0.920289 2.402586 -1.174850
-0.900039 2.399754 -1.173280
-0.879615 2.395917 -1.171404
-0.862382 2.403238 -1.173220
-0.843406 2.404124 -1.172942
-0.823120 2.399823 -1.170985
-0.803897 2.399173 -1.170249
-0.786233 2.404355 -1.171450
-0.766432 2.400913 -1.169844
-0.745845 2.393851 -1.167075
-0.725753 2.388291 -1.164821
-0.707415 2.389735 -1.164884
-0.688317 2.387672 -1.163819
-0.669551 2.386751 -1.163150
-0.649958 2.381759 -1.161169
-0.632507 2.386328 -1.162337
-0.614472 2.388077 -1.162601
-0.596288 2.388952 -1.162598
-0.578151 2.389885 -1.162634
-0.558357 2.382067 -1.159828
-0.538677 2.374227 -1.157033
-0.520502 2.373944 -1.156726
-0.503179 2.378220 -1.157926
-0.484881 2.376910 -1.157318
-0.467220 2.379106 -1.157871
-0.448762 2.376357 -1.156825
-0.429818 2.370182 -1.154677
-0.410166 2.358799 -1.150845
-0.391559 2.353517 -1.149020
-0.373603 2.352216 -1.148508
-0.355063 2.346442 -1.146552
-0.337402 2.346633 -1.146556
-0.321067 2.356965 -1.149883
-0.303747 2.360008 -1.150844
-0.285232 2.353097 -1.148570
-0.268045 2.357078 -1.149863
-0.250648 2.359337 -1.150606
-0.233407 2.363152 -1.151868
-0.214265 2.348100 -1.146986
-0.196294 2.343722 -1.145598
-0.178250 2.337926 -1.143758
-0.160631 2.336329 -1.143299
-0.142758 2.331247 -1.141712
-0.125112 2.328407 -1.140868
-0.107472 2.325143 -1.139895
-0.090341 2.329051 -1.141273
-0.072436 2.320702 -1.138658
-0.054550 2.311126 -1.135652
-0.037503 2.316143 -1.137419
-0.020630 2.325898 -1.140744
-0.002945 2.318142 -1.138357
0.014481 2.315362 -1.137604
0.032102 2.305489 -1.134542
0.049148 2.313581 -1.137357
0.066594 2.306860 -1.135339
0.084001 2.298554 -1.132811
0.101253 2.296457 -1.132319
0.118517 2.290118 -1.130448
0.135707 2.290000 -1.130617
0.152905 2.292474 -1.131642
0.170055 2.284898 -1.129386
0.186985 2.265097 -1.123135
0.204112 2.267787 -1.124251
0.221410 2.276819 -1.127450
0.238510 2.275049 -1.127120
0.255256 2.262493 -1.123264
0.272574 2.268702 -1.125560
0.290147 2.279470 -1.129359
0.307749 2.288449 -1.132579
0.324635 2.281576 -1.130610
0.341355 2.272792 -1.128021
0.358969 2.279944 -1.130664
0.375451 2.268693 -1.127277
0.392332 2.264516 -1.126216
0.408575 2.252292 -1.122520
0.425382 2.248426 -1.121574
0.442950 2.253794 -1.123667
0.460807 2.261642 -1.126583
0.476032 2.240902 -1.120112
0.496052 2.269976 -1.130021
0.510780 2.245800 -1.122431
0.527194 2.238993 -1.120559
0.543290 2.229877 -1.117932
0.561241 2.236877 -1.120617
0.575875 2.216583 -1.114323
0.593226 2.218672 -1.115406
0.611453 2.226995 -1.118553
0.629806 2.235504 -1.121771
0.647229 2.236861 -1.122642
0.663001 2.226939 -1.119801
0.680997 2.231939 -1.121891
0.697614 2.227838 -1.120988
0.713837 2.221454 -1.119339
0.728869 2.208272 -1.115452
0.745815 2.206699 -1.115410
0.764595 2.215312 -1.118746
0.781684 2.214138 -1.118857
0.792827 2.181451 -1.108548
0.811837 2.190830 -1.112171
0.830757 2.199141 -1.115454
0.840819 2.163523 -1.104192
0.861000 2.177831 -1.109487
0.881968 2.194990 -1.115745
0.896156 2.180300 -1.111449
0.910942 2.168784 -1.108216
0.931261 2.181737 -1.113123
0.945734 2.169044 -1.109523
0.964505 2.174672 -1.112027
0.983964 2.182709 -1.115350
1.001802 2.183770 -1.116367
1.018450 2.179952 -1.115775
1.033204 2.168837 -1.112765
1.048344 2.159436 -1.110338
1.064718 2.154782 -1.109509
1.080879 2.149354 -1.108437
1.099851 2.153952 -1.110732
1.117010 2.151864 -1.110811
1.136577 2.157928 -1.113636
1.157434 2.167940 -1.117806
1.175638 2.168620 -1.118871
1.186074 2.143788 -1.111398
1.201881 2.136792 -1.109921
1.219097 2.134263 -1.109963
1.237173 2.134270 -1.110877
1.253241 2.127962 -1.109688
1.267813 2.117163 -1.107004
1.284470 2.112640 -1.106453
1.303547 2.115066 -1.108266
1.326595 2.128537 -1.113835
1.339257 2.112167 -1.109349
1.349326 2.088888 -1.102538
-1.913151 2.591437 -1.285396
-1.736996 2.883210 -1.383270
-1.708083 2.871511 -1.378474
-1.685443 2.873829 -1.378407
-1.664063 2.879225 -1.379338
-1.637595 2.873087 -1.376297
-1.611006 2.866564 -1.373093
-1.588629 2.869900 -1.373212
-1.564353 2.868741 -1.371778
-1.528072 2.838157 -1.360337
-1.499967 2.826902 -1.355453
-1.477430 2.829225 -1.355167
-1.453577 2.828130 -1.353716
-1.425943 2.817057 -1.348888
-1.400207 2.810463 -1.345582
-1.380294 2.819021 -1.347404
-1.355279 2.813803 -1.344580
-1.334121 2.818805 -1.345217
-1.309439 2.813873 -1.342516
-1.276998 2.786482 -1.332270
-1.253303 2.783190 -1.330165
-1.236494 2.799713 -1.334745
-1.218036 2.811580 -1.337774
-1.188888 2.791148 -1.329971
-1.159708 2.769623 -1.321834
-1.131903 2.751371 -1.314828
-1.111098 2.754521 -1.315027
-1.075531 2.709548 -1.299131
-0.962235 2.405785 -1.196641
-0.940298 2.398113 -1.193361
-0.921079 2.399190 -1.193034
-0.902480 2.402195 -1.193374
-0.882697 2.400824 -1.192275
-0.863740 2.402116 -1.192089
-0.844935 2.403742 -1.192039
-0.824014 2.397189 -1.189283
-0.804563 2.395752 -1.188258
-0.787075 2.401683 -1.189713
-0.768209 2.402084 -1.189346
-0.747622 2.395197 -1.186576
-0.726879 2.387107 -1.183429
-0.707829 2.385628 -1.182506
-0.688422 2.382277 -1.180983
-0.669042 2.378643 -1.179387
-0.650889 2.380200 -1.179539
-0.632797 2.381876 -1.179751
-0.614972 2.384681 -1.180357
-0.596292 2.383190 -1.179556
-0.578084 2.383770 -1.179462
-0.559396 2.381680 -1.178502
-0.539920 2.375080 -1.176062
-0.521707 2.374783 -1.175734
-0.503378 2.373602 -1.175130
-0.485409 2.374224 -1.175142
-0.467889 2.377342 -1.175999
-0.449661 2.376119 -1.175433
-0.430148 2.366532 -1.172109
-0.410520 2.355385 -1.168284
-0.392603 2.354808 -1.167980
-0.374710 2.354174 -1.167673
-0.355328 2.342602 -1.163754
-0.337584 2.342225 -1.163561
-0.322876 2.365164 -1.171111
-0.305544 2.368626 -1.172217
-0.286778 2.360187 -1.169393
-0.268777 2.357548 -1.168503
-0.251127 2.357735 -1.168564
-0.231910 2.342796 -1.163623
-0.214071 2.340068 -1.162741
-0.196719 2.342047 -1.163432
-0.179672 2.347501 -1.165285
-0.161400 2.339041 -1.162537
-0.143381 2.332577 -1.160462
-0.125251 2.323682 -1.157591
-0.107415 2.317608 -1.155665
-0.091446 2.338989 -1.162853
-0.073902 2.337729 -1.162544
-0.053927 2.292616 -1.147700
-0.037768 2.313654 -1.154804
-0.020541 2.315887 -1.155680
-0.003366 2.319794 -1.157121
0.014367 2.309362 -1.153813
0.031548 2.313128 -1.155225
0.049056 2.305972 -1.153020
0.066408 2.302735 -1.152124
0.083703 2.301003 -1.151735
0.101015 2.296467 -1.150423
0.118248 2.296985 -1.150797
0.135496 2.294335 -1.150126
0.152719 2.291390 -1.149365
0.169844 2.278650 -1.145356
0.186933 2.272785 -1.143637
0.204158 2.277955 -1.145594
0.221271 2.275594 -1.145054
0.238314 2.271254 -1.143863
0.255169 2.262123 -1.141085
0.272179 2.259513 -1.140482
0.290194 2.281610 -1.148109
0.307732 2.288586 -1.150713
0.324792 2.284761 -1.149728
0.342037 2.284759 -1.150024
0.359067 2.281073 -1.149099
0.376596 2.285379 -1.150844
0.393234 2.276353 -1.148154
0.409840 2.267944 -1.145674
0.425717 2.251357 -1.140473
0.443597 2.259993 -1.143691
0.460976 2.262015 -1.144711
0.478663 2.266928 -1.146703
0.496129 2.269026 -1.147765
0.513654 2.271354 -1.148912
0.527125 2.236483 -1.137639
0.544759 2.240704 -1.139432
0.559986 2.224362 -1.134359
0.577397 2.226684 -1.135533
0.594197 2.223989 -1.135037
0.611175 2.222694 -1.135018
0.629380 2.230148 -1.137937
0.647445 2.235992 -1.140328
0.665161 2.238986 -1.141774
0.680845 2.228494 -1.138712
0.697298 2.223343 -1.137446
0.713295 2.215598 -1.135320
0.729490 2.209342 -1.133702
0.743784 2.192403 -1.128505
0.763375 2.205812 -1.133508
0.781522 2.210518 -1.135602
0.796804 2.199702 -1.132490
0.812341 2.190612 -1.129967
0.828281 2.183861 -1.128241
0.846408 2.187993 -1.130189
0.864215 2.190254 -1.131521
0.881210 2.188473 -1.131504
0.896825 2.180336 -1.129358
0.910731 2.164807 -1.124728
0.933308 2.187554 -1.133026
0.948609 2.178171 -1.130497
0.964058 2.169638 -1.128266
0.984800 2.182904 -1.133417
0.998326 2.166614 -1.128591
1.016172 2.167735 -1.129668
1.025289 2.135122 -1.119336
1.050935 2.165837 -1.130471
1.064362 2.150076 -1.125874
1.083518 2.155488 -1.128474
1.105762 2.171501 -1.134694
1.122394 2.167152 -1.134021
1.136972 2.155726 -1.130959
1.156443 2.160992 -1.133591
1.173321 2.157302 -1.133196
1.188763 2.148869 -1.131203
1.202478 2.135003 -1.127374
1.220780 2.135815 -1.128569
1.237053 2.130122 -1.127565
1.254349 2.127521 -1.127636
1.273285 2.129696 -1.129364
1.284431 2.108650 -1.123162
1.302986 2.109525 -1.124486
1.325288 2.120836 -1.129416
1.340507 2.111684 -1.127349
-1.729617 2.861409 -1.398304
-1.707788 2.865097 -1.398787
-1.684639 2.866104 -1.398281
-1.662477 2.869540 -1.398564
-1.641874 2.876782 -1.400116
-1.615190 2.870055 -1.396797
-1.589142 2.864695 -1.393920
-1.568290 2.871694 -1.395283
-1.538086 2.856036 -1.388806
-1.503325 2.828586 -1.378257
-1.478418 2.825001 -1.375928
-1.453457 2.821054 -1.373469
-1.425577 2.809304 -1.368326
-1.401505 2.807030 -1.366446
-1.382894 2.819056 -1.369479
-1.364416 2.831605 -1.372692
-1.339778 2.827398 -1.370166
-1.308637 2.804668 -1.361312
-1.277010 2.779584 -1.351680
-1.255646 2.783001 -1.351823
-1.239528 2.801627 -1.357180
-1.218826 2.806941 -1.358002
-1.195480 2.804142 -1.356076
-1.167534 2.786798 -1.349215
-1.134476 2.752556 -1.336627
-1.104672 2.727185 -1.327100
-1.078042 2.710907 -1.320704
-0.965278 2.409581 -1.217396
-0.947516 2.416139 -1.218884
-0.924658 2.405230 -1.214459
-0.906094 2.408595 -1.214910
-0.887748 2.412583 -1.215595
-0.867706 2.410312 -1.214180
-0.845459 2.399538 -1.209907
-0.824720 2.393738 -1.207348
-0.806298 2.396326 -1.207655
-0.788332 2.400531 -1.208532
-0.769947 2.402973 -1.208835
-0.749552 2.397051 -1.206332
-0.728451 2.387667 -1.202683
-0.709010 2.384687 -1.201224
-0.689364 2.380432 -1.199356
-0.670561 2.379482 -1.198628
-0.651828 2.378570 -1.197935
-0.633626 2.379844 -1.198000
-0.615287 2.380291 -1.197807
-0.596151 2.376616 -1.196244
-0.577308 2.373999 -1.195058
-0.558820 2.372853 -1.194389
-0.541943 2.379945 -1.196516
-0.522286 2.372094 -1.193624
-0.504739 2.375381 -1.194505
-0.486308 2.373566 -1.193684
-0.468045 2.372427 -1.193109
-0.449276 2.367938 -1.191423
-0.430374 2.362124 -1.189308
-0.412308 2.361179 -1.188849
-0.394191 2.359636 -1.188205
-0.375724 2.355374 -1.186661
-0.358013 2.356055 -1.186797
-0.339485 2.350525 -1.184857
-0.322593 2.357049 -1.186989
-0.306074 2.366917 -1.190260
-0.288087 2.365150 -1.189629
-0.268732 2.351122 -1.184885
-0.250414 2.345150 -1.182865
-0.232601 2.343270 -1.182235
-0.215263 2.345816 -1.183107
-0.198340 2.352850 -1.185503
-0.180357 2.348746 -1.184161
-0.162416 2.344522 -1.182791
-0.143812 2.331389 -1.178432
-0.126750 2.336869 -1.180350
-0.110397 2.353043 -1.185879
-0.091923 2.339190 -1.181309
-0.073472 2.323386 -1.176093
-0.055934 2.321046 -1.175419
-0.037516 2.300920 -1.168764
-0.020415 2.304952 -1.170255
-0.002660 2.294023 -1.166715
0.013998 2.310176 -1.172309
0.031270 2.311797 -1.173015
0.048763 2.305707 -1.171132
0.066077 2.305051 -1.171089
0.083412 2.302750 -1.170499
0.100756 2.297832 -1.169035
0.117999 2.300483 -1.170132
0.135272 2.301884 -1.170815
0.152521 2.286930 -1.165988
0.169703 2.282225 -1.164626
0.187071 2.296350 -1.169626
0.204357 2.297360 -1.170209
0.221280 2.281137 -1.164981
0.238037 2.264466 -1.159607
0.255335 2.269818 -1.161676
0.272385 2.266788 -1.160923
0.290004 2.278036 -1.165001
0.307799 2.290554 -1.169517
0.324835 2.285730 -1.168180
0.341744 2.279325 -1.166315
0.359040 2.280138 -1.166898
0.375186 2.263242 -1.161497
0.393828 2.283813 -1.168781
0.410225 2.271919 -1.165086
0.426328 2.257681 -1.160602
0.443573 2.258307 -1.161158
0.460996 2.260700 -1.162321
0.476813 2.245863 -1.157653
0.496032 2.266305 -1.164950
0.513179 2.264985 -1.164880
0.529106 2.252565 -1.161052
0.545935 2.248927 -1.160210
0.563670 2.253016 -1.161999
0.580140 2.246514 -1.160201
0.595579 2.232434 -1.155837
0.611516 2.222945 -1.153038
0.628153 2.219022 -1.152138
0.646873 2.229629 -1.156189
0.665047 2.235759 -1.158729
0.683399 2.242510 -1.161492
0.697468 2.221848 -1.154933
0.713544 2.214506 -1.152916
0.730477 2.212519 -1.152733
0.747298 2.209864 -1.152333
0.758085 2.173593 -1.140477
0.781609 2.208198 -1.152807
0.798426 2.205432 -1.152402
0.813766 2.195076 -1.149416
0.831410 2.196637 -1.150511
0.848581 2.195669 -1.150755
0.864299 2.187663 -1.148605
0.880893 2.183960 -1.147938
0.896949 2.177831 -1.146453
0.913836 2.175518 -1.146287
0.930172 2.170753 -1.145295
0.948165 2.173089 -1.146751
0.966031 2.174627 -1.147950
0.985392 2.182039 -1.151182
1.000611 2.172437 -1.148588
1.008195 2.133169 -1.135809
1.035916 2.172529 -1.150076
1.052150 2.166979 -1.148921
1.068168 2.160663 -1.147517
1.084199 2.154454 -1.146165
1.107708 2.174856 -1.154008
1.123559 2.167619 -1.152341
1.137660 2.154458 -1.148643
1.152447 2.143879 -1.145852
1.171616 2.147956 -1.148146
1.187322 2.140448 -1.146453
1.210651 2.157334 -1.153228
1.222562 2.137602 -1.147339
1.239209 2.132938 -1.146690
1.257383 2.132852 -1.147651
1.274755 2.130162 -1.147730
1.289059 2.118319 -1.144647
1.305794 2.113665 -1.144084
1.327070 2.121875 -1.148027
1.339826 2.105703 -1.143494
-1.923500 2.606292 -1.331694
-1.740820 2.880389 -1.427514
-1.709772 2.863753 -1.420868
-1.684606 2.860117 -1.418741
-1.660596 2.859187 -1.417511
-1.640819 2.868128 -1.419700
-1.617683 2.869544 -1.419200
-1.593346 2.868206 -1.417696
-1.569800 2.868750 -1.416823
-1.547981 2.873501 -1.417398
-1.517215 2.856226 -1.410240
-1.486209 2.837772 -1.402664
-1.457696 2.825015 -1.397080
-1.430915 2.816220 -1.392881
-1.404919 2.809063 -1.389259
-1.382532 2.811113 -1.388852
-1.364844 2.825726 -1.392828
-1.342887 2.828865 -1.392810
-1.312016 2.807038 -1.384118
-1.280232 2.781685 -1.374226
-1.259191 2.786162 -1.374725
-1.240380 2.797039 -1.377461
-1.219503 2.801861 -1.378112
-1.197589 2.803428 -1.377654
-1.173798 2.798990 -1.375138
-1.140322 2.763839 -1.362018
-1.105714 2.723567 -1.347167
-1.074685 2.693151 -1.335767
-0.968020 2.412254 -1.237878
-0.948655 2.413608 -1.237575
-0.928590 2.412339 -1.236392
-0.908391 2.410277 -1.234961
-0.889986 2.414219 -1.235624
-0.869245 2.409592 -1.233358
-0.844528 2.389873 -1.225924
-0.824108 2.385233 -1.223709
-0.806861 2.392286 -1.225542
-0.787943 2.392831 -1.225160
-0.769185 2.393768 -1.224936
-0.749152 2.389283 -1.222873
-0.730084 2.388361 -1.222059
-0.709874 2.382285 -1.219499
-0.690551 2.379538 -1.218106
-0.671643 2.378258 -1.217239
-0.652972 2.377753 -1.216660
-0.634603 2.378390 -1.216494
-0.615509 2.375353 -1.215091
-0.595595 2.367919 -1.212203
-0.576015 2.361551 -1.209702
-0.558506 2.365284 -1.210681
-0.540691 2.367372 -1.211115
-0.524244 2.376783 -1.214075
-0.506027 2.376629 -1.213780
-0.488611 2.380850 -1.215000
-0.469140 2.372967 -1.212097
-0.450619 2.370186 -1.210958
-0.432297 2.368279 -1.210135
-0.413739 2.364521 -1.208697
-0.395261 2.360853 -1.207306
-0.377385 2.360925 -1.207210
-0.357995 2.349949 -1.203353
-0.339606 2.345435 -1.201721
-0.321256 2.340700 -1.200029
-0.306174 2.361644 -1.207127
-0.288259 2.360476 -1.206682
-0.269459 2.351326 -1.203524
-0.251650 2.350220 -1.203128
-0.233611 2.346661 -1.201907
-0.216149 2.348368 -1.202498
-0.198338 2.346439 -1.201860
-0.179875 2.336929 -1.198643
-0.161962 2.332629 -1.197218
-0.144505 2.333333 -1.197515
-0.127645 2.341894 -1.200509
-0.109848 2.338260 -1.199347
-0.092510 2.340924 -1.200348
-0.073864 2.322441 -1.194129
-0.055502 2.305709 -1.188519
-0.038504 2.312294 -1.190892
-0.020367 2.295603 -1.185314
-0.003265 2.299835 -1.186901
0.013889 2.303717 -1.188378
0.030928 2.312310 -1.191477
0.048168 2.316487 -1.193074
0.065704 2.308996 -1.190688
0.083001 2.311194 -1.191626
0.100252 2.318924 -1.194467
0.117683 2.312485 -1.192466
0.135047 2.308267 -1.191234
0.152348 2.293703 -1.186466
0.169625 2.294992 -1.187135
0.187023 2.305002 -1.190800
0.204359 2.305391 -1.191177
0.220947 2.271240 -1.179724
0.238499 2.285341 -1.184816
0.255408 2.274608 -1.181403
0.272607 2.274515 -1.181644
0.290232 2.284548 -1.185368
0.307790 2.290882 -1.187831
0.323718 2.264025 -1.178912
0.341468 2.274180 -1.182702
0.358457 2.270079 -1.181607
0.374898 2.258132 -1.177823
0.392346 2.261926 -1.179454
0.410319 2.272024 -1.183260
0.426289 2.255901 -1.178061
0.443273 2.253364 -1.177540
0.459726 2.245090 -1.175053
0.477010 2.246255 -1.175820
0.495233 2.256538 -1.179735
0.512950 2.260914 -1.181626
0.529432 2.253556 -1.179486
0.545933 2.246855 -1.177579
0.564511 2.257889 -1.181792
0.581179 2.252627 -1.180399
0.596408 2.236552 -1.175284
0.610287 2.211501 -1.167078
0.628663 2.220283 -1.170553
0.647013 2.228148 -1.173724
0.664741 2.231204 -1.175245
0.682530 2.234318 -1.176798
0.698533 2.225911 -1.174380
0.714876 2.219943 -1.172814
0.732415 2.221241 -1.173771
0.748849 2.215996 -1.172475
0.763910 2.203253 -1.168594
0.784101 2.218853 -1.174539
0.798206 2.201385 -1.169041
0.814249 2.194631 -1.167265
0.831887 2.196057 -1.168337
0.850445 2.201755 -1.170906
0.864258 2.184412 -1.165490
0.880038 2.176889 -1.163493
0.898085 2.179867 -1.165158
0.914802 2.176640 -1.164681
0.931193 2.171980 -1.163720
0.948306 2.170434 -1.163856
0.965264 2.168144 -1.163749
0.981588 2.163198 -1.162730
1.001186 2.171351 -1.166297
1.018638 2.170618 -1.166782
1.038689 2.179696 -1.170712
1.053532 2.168671 -1.167637
1.066348 2.150422 -1.162050
1.087815 2.163960 -1.167598
1.107621 2.170914 -1.170866
1.123377 2.163320 -1.169059
1.137406 2.149895 -1.165223
1.152743 2.141147 -1.163043
1.169018 2.135608 -1.162007
1.192233 2.152579 -1.168902
1.207030 2.141918 -1.166108
1.223877 2.137839 -1.165648
1.241634 2.136493 -1.166172
1.260258 2.137610 -1.167588
1.276600 2.131665 -1.166536
1.294036 2.128904 -1.166629
1.309200 2.119444 -1.164376
1.325426 2.113076 -1.163237
1.344742 2.115340 -1.165178
-1.737189 2.866863 -1.445356
-1.713353 2.865950 -1.444255
-1.684541 2.854069 -1.439169
-1.658262 2.847818 -1.436040
-1.640046 2.860123 -1.439483
-1.622402 2.874196 -1.443504
-1.599944 2.877330 -1.443580
-1.572388 2.868351 -1.439307
-1.547597 2.865846 -1.437315
-1.516301 2.847183 -1.429556
-1.488580 2.836866 -1.424756
-1.460887 2.826224 -1.419834
-1.432297 2.812835 -1.413936
-1.405893 2.804618 -1.409877
-1.381613 2.801629 -1.407674
-1.363632 2.815344 -1.411389
-1.342489 2.820624 -1.412121
-1.315741 2.810257 -1.407332
-1.284372 2.786265 -1.397753
-1.260509 2.782802 -1.395444
-1.239975 2.788683 -1.396449
-1.221502 2.800601 -1.399597
-1.200188 2.804072 -1.399786
-1.175172 2.796020 -1.395944
-1.147400 2.778800 -1.388906
-1.115788 2.748501 -1.377308
-1.084522 2.717949 -1.365659
-0.968815 2.408400 -1.256176
-0.949888 2.411277 -1.256387
-0.929083 2.407578 -1.254318
-0.910028 2.409540 -1.254258
-0.890270 2.408811 -1.253281
-0.869008 2.402354 -1.250325
-0.845541 2.387265 -1.244379
-0.825064 2.382512 -1.242075
-0.808655 2.392847 -1.245067
-0.791114 2.398922 -1.246594
-0.770464 2.392600 -1.243817
-0.750863 2.390008 -1.242368
-0.732011 2.390150 -1.241896
-0.713035 2.389518 -1.241179
-0.692470 2.381703 -1.237982
-0.674047 2.382786 -1.237910
-0.654936 2.380546 -1.236703
-0.636487 2.381038 -1.236470
-0.617367 2.378108 -1.235068
-0.597832 2.372767 -1.232850
-0.578168 2.366279 -1.230255
-0.558258 2.357956 -1.227044
-0.540303 2.359280 -1.227208
-0.522989 2.363927 -1.228546
-0.507214 2.377190 -1.232895
-0.488270 2.372835 -1.231143
-0.469605 2.369666 -1.229822
-0.451207 2.367712 -1.228941
-0.432480 2.363376 -1.227252
-0.414002 2.360171 -1.225973
-0.395429 2.355926 -1.224350
-0.376779 2.350662 -1.222391
-0.357699 2.341761 -1.219186
-0.339400 2.337820 -1.217718
-0.322175 2.341674 -1.218971
-0.304317 2.340593 -1.218526
-0.288100 2.352931 -1.222752
-0.270317 2.352545 -1.222577
-0.251705 2.344430 -1.219736
-0.234309 2.346950 -1.220597
-0.215983 2.340288 -1.218286
-0.196310 2.318662 -1.210797
-0.178769 2.318125 -1.210637
-0.162218 2.328942 -1.214428
-0.145617 2.340329 -1.218430
-0.126302 2.317204 -1.210469
-0.110234 2.336595 -1.217271
-0.092872 2.339096 -1.218225
-0.074542 2.326047 -1.213793
-0.056432 2.314513 -1.209897
-0.038770 2.309413 -1.208244
-0.021479 2.311121 -1.208964
-0.003710 2.301615 -1.205802
0.013562 2.303027 -1.206439
0.030640 2.310931 -1.209341
0.047796 2.318706 -1.212208
0.065299 2.314105 -1.210787
0.082690 2.313418 -1.210734
0.099979 2.320500 -1.213389
0.117436 2.314351 -1.211457
0.134829 2.310022 -1.210164
0.152193 2.310133 -1.210424
0.169399 2.288013 -1.202962
0.186763 2.296455 -1.206135
0.204006 2.292686 -1.205070
0.221166 2.286605 -1.203207
0.238078 2.273289 -1.198836
0.255305 2.273877 -1.199309
0.272620 2.276556 -1.200519
0.290313 2.287556 -1.204635
0.307332 2.281517 -1.202826
0.322688 2.244016 -1.190063
0.341230 2.269708 -1.199324
0.358329 2.267462 -1.198858
0.375435 2.265525 -1.198509
0.393475 2.276902 -1.202811
0.409554 2.260761 -1.197523
0.426655 2.259131 -1.197304
0.441361 2.229546 -1.187336
0.459563 2.241693 -1.191941
0.476615 2.240397 -1.191863
0.494732 2.249720 -1.195503
0.512993 2.259397 -1.199277
0.529081 2.248355 -1.195820
0.545801 2.243614 -1.194572
0.559867 2.217016 -1.185687
0.580630 2.245981 -1.196250
0.595257 2.225377 -1.189476
0.610598 2.211448 -1.185044
0.629178 2.221533 -1.189032
0.646810 2.224245 -1.190449
0.663831 2.222563 -1.190337
0.681062 2.222207 -1.190701
0.699278 2.227908 -1.193201
0.715315 2.219889 -1.190897
0.732742 2.220399 -1.191598
0.752544 2.234327 -1.197026
0.767938 2.222810 -1.193526
0.782920 2.209546 -1.189421
0.796836 2.191221 -1.183543
0.814440 2.192627 -1.184618
0.833098 2.199085 -1.187486
0.847595 2.184769 -1.183051
0.865712 2.188227 -1.184891
0.882377 2.184618 -1.184253
0.898369 2.177962 -1.182554
0.916911 2.182770 -1.184916
0.933661 2.179424 -1.184414
0.949860 2.173719 -1.183094
0.965342 2.165113 -1.180761
0.985799 2.176942 -1.185674
1.003062 2.175385 -1.185870
1.021271 2.177414 -1.187353
1.042449 2.190549 -1.192794
1.051482 2.157409 -1.181839
1.068037 2.153050 -1.181107
1.087645 2.159696 -1.184303
1.107033 2.165131 -1.187092
1.121226 2.152097 -1.183333
1.136658 2.143575 -1.181194
1.154950 2.144763 -1.182533
1.175941 2.154610 -1.186982
1.187465 2.133232 -1.180315
1.207133 2.138323 -1.183113
1.222425 2.129328 -1.180901
1.232632 2.104759 -1.173136
1.262738 2.141077 -1.187185
1.281039 2.140815 -1.188169
1.295201 2.128202 -1.184747
1.312920 2.126034 -1.185093
1.329574 2.120682 -1.184319
1.346552 2.116177 -1.183872
-1.741567 2.870891 -1.469473
-1.712143 2.857546 -1.463869
-1.680053 2.838123 -1.455995
-1.645537 2.812883 -1.445957
-1.642447 2.859424 -1.461886
-1.625972 2.876129 -1.466939
-1.598043 2.866307 -1.462341
-1.568878 2.853302 -1.456560
-1.538995 2.838202 -1.449997
-1.513867 2.834364 -1.447484
-1.488703 2.830278 -1.444864
-1.462627 2.823674 -1.441324
-1.431607 2.804051 -1.433089
-1.403890 2.792332 -1.427705
-1.381411 2.793986 -1.427136
-1.363281 2.807221 -1.430731
-1.342134 2.812428 -1.431442
-1.320213 2.815435 -1.431370
-1.295970 2.811758 -1.428912
-1.262478 2.781210 -1.416846
-1.242356 2.788358 -1.418307
-1.222798 2.797146 -1.420370
-1.202056 2.802395 -1.421184
-1.174611 2.787015 -1.414649
-1.150414 2.780931 -1.411464
-1.126800 2.776195 -1.408787
-1.098319 2.755300 -1.400379
-0.971675 2.411221 -1.276888
-0.949780 2.404357 -1.273619
-0.929001 2.400760 -1.271540
-0.910312 2.403996 -1.271917
-0.891127 2.405328 -1.271642
-0.871018 2.403106 -1.270129
-0.849345 2.394785 -1.266478
-0.828294 2.388185 -1.263466
-0.810378 2.393015 -1.264535
-0.792159 2.396589 -1.265182
-0.772917 2.395978 -1.264371
-0.751924 2.387964 -1.260963
-0.733959 2.391901 -1.261812
-0.715353 2.393034 -1.261693
-0.695942 2.390469 -1.260289
-0.675403 2.382528 -1.257009
-0.656909 2.383248 -1.256815
-0.639093 2.386904 -1.257682
-0.620794 2.388196 -1.257735
-0.600878 2.381426 -1.254964
-0.580350 2.371014 -1.250930
-0.560036 2.360928 -1.247035
-0.540198 2.352582 -1.243776
-0.522368 2.354416 -1.244129
-0.504964 2.358507 -1.245298
-0.487167 2.360369 -1.245701
-0.469752 2.364374 -1.246878
-0.451782 2.365052 -1.246900
-0.432944 2.360125 -1.244965
-0.414350 2.356266 -1.243425
-0.395854 2.352598 -1.241971
-0.376967 2.345793 -1.239429
-0.358530 2.341525 -1.237798
-0.341560 2.347639 -1.239839
-0.323551 2.346034 -1.239178
-0.304813 2.338298 -1.236374
-0.287029 2.337698 -1.236098
-0.269965 2.343129 -1.237960
-0.252080 2.341429 -1.237326
-0.234023 2.337767 -1.236015
-0.216480 2.338710 -1.236340
-0.196288 2.311867 -1.226895
-0.178899 2.312897 -1.227276
-0.162457 2.324950 -1.231553
-0.145337 2.329926 -1.233349
-0.128043 2.333117 -1.234530
-0.110148 2.328141 -1.232846
-0.092968 2.333122 -1.234681
-0.074632 2.319875 -1.230108
-0.056893 2.314796 -1.228422
-0.039566 2.316668 -1.229195
-0.021894 2.311399 -1.227463
-0.003935 2.297899 -1.222842
0.013484 2.295414 -1.222111
0.030493 2.304907 -1.225611
0.047527 2.316863 -1.229990
0.065073 2.310836 -1.228041
0.082479 2.309524 -1.227763
0.099914 2.304848 -1.226309
0.117287 2.302383 -1.225643
0.134629 2.303011 -1.226077
0.151965 2.297420 -1.224325
0.169176 2.281728 -1.219018
0.186378 2.277685 -1.217829
0.203853 2.291872 -1.223084
0.221343 2.300223 -1.226288
0.238337 2.286767 -1.221802
0.254963 2.265630 -1.214609
0.271991 2.261037 -1.213266
0.289605 2.271502 -1.217252
0.305698 2.246760 -1.208804
0.324094 2.271587 -1.217886
0.340729 2.260535 -1.214292
0.358285 2.266213 -1.216623
0.375643 2.267893 -1.217549
0.391726 2.251201 -1.211981
0.410092 2.266677 -1.217807
0.426417 2.254828 -1.213969
0.443072 2.248054 -1.211934
0.459872 2.243483 -1.210688
0.477067 2.243395 -1.211039
0.494807 2.248600 -1.213276
0.511993 2.247929 -1.213439
0.528676 2.242624 -1.211967
0.545994 2.243148 -1.212573
0.562169 2.233979 -1.209747
0.575257 2.200720 -1.198373
0.594040 2.213660 -1.203415
0.609425 2.200343 -1.199138
0.626439 2.199476 -1.199294
0.645489 2.212577 -1.204430
0.663093 2.215034 -1.205792
0.680161 2.213727 -1.205827
0.697925 2.216719 -1.207404
0.715674 2.219296 -1.208846
0.732591 2.216686 -1.208452
0.747878 2.204759 -1.204746
0.764837 2.202645 -1.204551
0.778706 2.183793 -1.198394
0.800256 2.206228 -1.206987
0.817715 2.206376 -1.207639
0.832056 2.190778 -1.202676
0.849987 2.193301 -1.204203
0.863772 2.175823 -1.198589
0.883003 2.184309 -1.202279
0.902253 2.192333 -1.205822
0.918594 2.186929 -1.204571
0.935750 2.185136 -1.204630
0.951449 2.177078 -1.202456
0.967582 2.170996 -1.201005
0.985954 2.174098 -1.202869
1.004883 2.179119 -1.205442
1.021415 2.174413 -1.204537
1.042347 2.186542 -1.209708
1.057022 2.174555 -1.206218
1.068711 2.151861 -1.198883
1.088100 2.157624 -1.201820
1.106495 2.159460 -1.203365
1.120636 2.146253 -1.199497
1.136684 2.139836 -1.198099
1.160603 2.159841 -1.206277
1.177223 2.154904 -1.205459
1.192571 2.145816 -1.203158
1.206300 2.131676 -1.199042
1.221433 2.122196 -1.196634
1.237816 2.116667 -1.195679
1.254369 2.111623 -1.194921
1.277786 2.126959 -1.201602
1.298403 2.133384 -1.205073
1.315937 2.130495 -1.205178
1.334220 2.129597 -1.206035
1.348652 2.117735 -1.202914
-1.532517 2.815753 -1.464351
-1.466727 2.827044 -1.465030
-1.435087 2.805933 -1.456124
-1.405745 2.790063 -1.449138
-1.384569 2.795179 -1.449821
-1.369303 2.816162 -1.456292
-1.342507 2.806152 -1.451457
-1.311322 2.783457 -1.442014
-1.301427 2.819762 -1.454071
-1.275503 2.811147 -1.449784
-1.244291 2.786627 -1.439737
-1.222825 2.789839 -1.439794
-1.198825 2.785279 -1.437049
-1.176275 2.784719 -1.435778
-1.149725 2.771420 -1.429915
-1.128865 2.775363 -1.430326
-1.084545 2.703657 -1.403387
-0.979621 2.430570 -1.303688
-0.952492 2.406747 -1.294220
-0.930488 2.399175 -1.290658
-0.910524 2.398103 -1.289470
-0.892855 2.404803 -1.291111
-0.874062 2.407446 -1.291314
-0.853675 2.404082 -1.289376
-0.831645 2.394168 -1.285107
-0.811764 2.391770 -1.283573
-0.793689 2.396024 -1.284459
-0.773904 2.393402 -1.282896
-0.754393 2.391511 -1.281622
-0.734663 2.388366 -1.279924
-0.717270 2.394710 -1.281659
-0.698884 2.396785 -1.281884
-0.678535 2.390006 -1.278956
-0.657416 2.379175 -1.274600
-0.639922 2.384387 -1.276023
-0.622236 2.388693 -1.277143
-0.601921 2.380177 -1.273690
-0.582783 2.376858 -1.272123
-0.562109 2.365270 -1.267618
-0.542567 2.358783 -1.264962
-0.525574 2.365487 -1.267051
-0.505925 2.357593 -1.263934
-0.487729 2.357328 -1.263569
-0.471245 2.366894 -1.266741
-0.453223 2.367517 -1.266732
-0.433392 2.356665 -1.262637
-0.414697 2.352239 -1.260861
-0.396174 2.348459 -1.259334
-0.377775 2.345081 -1.257969
-0.359380 2.341305 -1.256478
-0.341892 2.343767 -1.257235
-0.324638 2.348035 -1.258653
-0.305736 2.339299 -1.255440
-0.287547 2.335595 -1.254042
-0.270588 2.342063 -1.256293
-0.253137 2.344473 -1.257109
-0.235010 2.340551 -1.255678
-0.216122 2.328506 -1.251358
-0.197952 2.322575 -1.249237
-0.180311 2.321678 -1.248929
-0.163062 2.325081 -1.250170
-0.145789 2.328469 -1.251418
-0.127883 2.323810 -1.249805
-0.110390 2.324188 -1.250003
-0.092568 2.319511 -1.248407
-0.074444 2.309030 -1.244748
-0.057156 2.311424 -1.245703
-0.040176 2.320128 -1.248924
-0.022438 2.314286 -1.246957
-0.003867 2.287020 -1.237341
0.013540 2.283978 -1.236395
0.030100 2.306413 -1.244570
0.047471 2.306906 -1.244910
0.064893 2.305258 -1.244494
0.082324 2.302144 -1.243564
0.099808 2.292250 -1.240217
0.117115 2.292996 -1.240686
0.134425 2.296000 -1.241974
0.151723 2.279441 -1.236268
0.168886 2.266472 -1.231854
0.186423 2.294847 -1.242254
0.203927 2.304691 -1.246030
0.221386 2.307819 -1.247410
0.238555 2.298758 -1.244432
0.254951 2.267887 -1.233644
0.271399 2.246560 -1.226282
0.288681 2.250256 -1.227898
0.306337 2.261089 -1.232084
0.323607 2.262178 -1.232784
0.341242 2.269419 -1.235701
0.357269 2.249003 -1.228701
0.374139 2.244280 -1.227341
0.391247 2.243423 -1.227378
0.409604 2.259021 -1.233334
0.426587 2.255544 -1.232448
0.443236 2.248439 -1.230267
0.460705 2.251024 -1.231578
0.478822 2.259985 -1.235192
0.497203 2.270570 -1.239402
0.511791 2.244010 -1.230256
0.528856 2.242158 -1.230008
0.546251 2.243193 -1.230811
0.563502 2.242808 -1.231112
0.577418 2.215669 -1.221781
0.593604 2.207908 -1.219440
0.609968 2.201902 -1.217740
0.625744 2.191991 -1.214641
0.645386 2.209274 -1.221366
0.663617 2.215869 -1.224248
0.680623 2.213994 -1.224084
0.698086 2.214952 -1.224955
0.715612 2.216092 -1.225904
0.732598 2.213847 -1.225642
0.749768 2.212636 -1.225767
0.765248 2.201962 -1.222478
0.783918 2.208951 -1.225596
0.801866 2.211626 -1.227167
0.817274 2.200998 -1.223932
0.834089 2.197780 -1.223393
0.848136 2.181086 -1.217979
0.865984 2.183104 -1.219367
0.880864 2.171098 -1.215677
0.902858 2.191739 -1.223865
0.920668 2.192740 -1.224936
0.936941 2.186879 -1.223525
0.955955 2.192719 -1.226391
0.971016 2.181745 -1.223150
0.980779 2.149541 -1.212183
1.001247 2.161068 -1.217173
1.019235 2.162285 -1.218424
1.036599 2.160896 -1.218742
1.054536 2.161523 -1.219817
1.072076 2.160486 -1.220304
1.088761 2.156216 -1.219627
1.107542 2.159328 -1.221674
1.124038 2.154203 -1.220724
1.141214 2.151384 -1.220641
1.162656 2.162752 -1.225787
1.179727 2.159137 -1.225457
1.190087 2.133743 -1.217140
1.207105 2.130169 -1.216863
1.224199 2.126742 -1.216662
1.238207 2.113734 -1.212952
1.256595 2.114178 -1.214222
1.277981 2.123306 -1.218726
1.297003 2.125003 -1.220515
1.318256 2.132848 -1.224607
1.335239 2.128119 -1.224075
1.353085 2.125715 -1.224429
-1.651437 2.814281 -1.491432
-1.539207 2.769160 -1.470629
-1.527914 2.797879 -1.480230
-1.344747 2.804888 -1.473343
-1.309430 2.770859 -1.459560
-1.297527 2.801336 -1.469640
-1.277390 2.809060 -1.471315
-1.246194 2.784693 -1.461163
-1.221123 2.777342 -1.457314
-1.194140 2.763747 -1.451189
-1.167253 2.749711 -1.444931
-1.149115 2.762065 -1.448409
-1.120731 2.742221 -1.440070
-1.098112 2.739905 -1.438205
-0.996755 2.479775 -1.341738
-0.957349 2.416150 -1.317501
-0.933179 2.401556 -1.311293
-0.912560 2.398403 -1.309309
-0.893844 2.401559 -1.309661
-0.877104 2.411639 -1.312572
-0.856347 2.407155 -1.310179
-0.834302 2.397414 -1.305892
-0.813028 2.389943 -1.302465
-0.793912 2.390264 -1.301912
-0.774698 2.389943 -1.301151
-0.755623 2.389904 -1.300518
-0.736219 2.388237 -1.299317
-0.717995 2.391219 -1.299837
-0.700220 2.396013 -1.301041
-0.680078 2.390310 -1.298446
-0.659257 2.381020 -1.294571
-0.639760 2.377161 -1.292699
-0.621953 2.380884 -1.293610
-0.603773 2.382730 -1.293861
-0.585202 2.382485 -1.293374
-0.565039 2.373853 -1.289861
-0.545775 2.369243 -1.287834
-0.527817 2.371193 -1.288212
-0.509680 2.372038 -1.288210
-0.490547 2.367029 -1.286103
-0.472598 2.368452 -1.286352
-0.454438 2.368479 -1.286114
-0.435575 2.363902 -1.284225
-0.415571 2.351489 -1.279512
-0.396865 2.346674 -1.277576
-0.378181 2.341486 -1.275523
-0.360087 2.339933 -1.274806
-0.343099 2.346249 -1.276961
-0.324987 2.344236 -1.276113
-0.306752 2.340905 -1.274803
-0.288843 2.339819 -1.274323
-0.271682 2.344938 -1.276109
-0.254479 2.349955 -1.277873
-0.235787 2.341199 -1.274660
-0.217035 2.330818 -1.270872
-0.199003 2.326720 -1.269376
-0.181631 2.329276 -1.270307
-0.163605 2.324355 -1.268541
-0.144982 2.311338 -1.263853
-0.127704 2.314149 -1.264917
-0.110354 2.316202 -1.265719
-0.092672 2.313408 -1.264776
-0.074970 2.309698 -1.263512
-0.057165 2.303398 -1.261322
-0.040354 2.315026 -1.265645
-0.022235 2.301007 -1.260678
-0.004771 2.299221 -1.260159
0.012769 2.294776 -1.258686
0.030300 2.289186 -1.256808
0.047212 2.304272 -1.262443
0.064664 2.301623 -1.261654
0.082143 2.295944 -1.259775
0.099564 2.290351 -1.257938
0.116871 2.292746 -1.259010
0.134209 2.292495 -1.259131
0.151543 2.290993 -1.258808
0.168784 2.278035 -1.254332
0.186250 2.294213 -1.260451
0.203745 2.302474 -1.263704
0.221061 2.298640 -1.262572
0.238034 2.283170 -1.257219
0.254735 2.263717 -1.250425
0.271181 2.242340 -1.242937
0.288310 2.242373 -1.243243
0.306309 2.261036 -1.250337
0.323520 2.260586 -1.250488
0.340377 2.253758 -1.248326
0.358768 2.273017 -1.255672
0.376285 2.276006 -1.257104
0.393834 2.278888 -1.258507
0.410037 2.263484 -1.253257
0.427550 2.266064 -1.254569
0.442960 2.243655 -1.246778
0.460369 2.245602 -1.247877
0.479521 2.265473 -1.255526
0.497283 2.269408 -1.257374
0.514191 2.264735 -1.256089
0.531587 2.264771 -1.256534
0.546046 2.239184 -1.247627
0.563196 2.237953 -1.247627
0.579682 2.231371 -1.245680
0.595010 2.216268 -1.240626
0.611521 2.210882 -1.239135
0.627183 2.199688 -1.235527
0.646857 2.216763 -1.242280
0.666204 2.230391 -1.247787
0.682665 2.224388 -1.246116
0.699062 2.218219 -1.244394
0.715489 2.212462 -1.242835
0.731932 2.206995 -1.241393
0.750712 2.215036 -1.244921
0.768646 2.217784 -1.246522
0.784153 2.207134 -1.243215
0.799636 2.196769 -1.240022
0.818645 2.204836 -1.243621
0.833690 2.192564 -1.239752
0.848989 2.181981 -1.236516
0.863474 2.167883 -1.231996
0.883285 2.178983 -1.236776
0.903043 2.189173 -1.241241
0.920290 2.187619 -1.241393
0.936591 2.181872 -1.240014
0.955309 2.186442 -1.242461
0.970449 2.175819 -1.239313
0.987236 2.172148 -1.238749
1.002172 2.161099 -1.235472
1.019423 2.159328 -1.235646
1.038803 2.165575 -1.238810
1.055460 2.161205 -1.238061
1.070847 2.152152 -1.235592
1.091277 2.161412 -1.239942
1.112020 2.171238 -1.244529
1.126771 2.159733 -1.241209
1.141001 2.146665 -1.237324
1.162856 2.159373 -1.243057
1.179161 2.153189 -1.241778
1.190876 2.132189 -1.234991
1.204929 2.119119 -1.231176
1.224176 2.122489 -1.233525
1.243737 2.126497 -1.236140
1.259857 2.119771 -1.234763
1.280911 2.127697 -1.238901
1.299358 2.127530 -1.240035
1.314643 2.118049 -1.237698
1.335834 2.125358 -1.241694
1.351630 2.117175 -1.239893
-1.450934 2.832223 -1.510981
-1.416669 2.804069 -1.499153
-1.324503 2.742414 -1.472310
-1.272787 2.788373 -1.485943
-1.249287 2.786108 -1.483910
-1.160193 2.720693 -1.456029
-1.107013 2.691481 -1.442979
-1.078344 2.669015 -1.433572
-1.009492 2.514323 -1.374949
-0.961234 2.422164 -1.339707
-0.938019 2.411078 -1.334694
-0.914115 2.396927 -1.328574
-0.897072 2.406061 -1.331137
-0.877257 2.405350 -1.330067
-0.858827 2.409392 -1.330787
-0.837573 2.402810 -1.327592
-0.816606 2.396775 -1.324629
-0.795852 2.391049 -1.321810
-0.775563 2.386649 -1.319510
-0.755392 2.382274 -1.317247
-0.735980 2.380572 -1.316001
-0.717852 2.383951 -1.316660
-0.697982 2.379702 -1.314525
-0.679264 2.380089 -1.314129
-0.661041 2.382467 -1.314493
-0.641421 2.378254 -1.312448
-0.622985 2.379194 -1.312329
-0.604963 2.381936 -1.312900
-0.587557 2.387644 -1.314588
-0.567376 2.379247 -1.311095
-0.547577 2.372169 -1.308114
-0.528024 2.365793 -1.305415
-0.510148 2.368112 -1.305943
-0.491271 2.364649 -1.304362
-0.472708 2.362594 -1.303321
-0.454668 2.363359 -1.303339
-0.436366 2.362324 -1.302715
-0.417652 2.358362 -1.301033
-0.397980 2.347580 -1.296860
-0.379181 2.341841 -1.294563
-0.361676 2.344704 -1.295450
-0.343635 2.343635 -1.294909
-0.325214 2.339387 -1.293215
-0.305842 2.327043 -1.288561
-0.289417 2.337911 -1.292461
-0.272410 2.344505 -1.294806
-0.255051 2.348341 -1.296152
-0.236378 2.339947 -1.293016
-0.217258 2.326143 -1.287906
-0.199678 2.326786 -1.288124
-0.182559 2.332386 -1.290180
-0.162918 2.309220 -1.281671
-0.145354 2.308645 -1.281484
-0.128269 2.314120 -1.283535
-0.111191 2.320308 -1.285862
-0.093725 2.321427 -1.286338
-0.075344 2.307739 -1.281381
-0.057431 2.299786 -1.278545
-0.040794 2.314832 -1.284182
-0.023611 2.321261 -1.286661
-0.005497 2.306898 -1.281502
0.012269 2.298023 -1.278373
0.029744 2.295360 -1.277541
0.046773 2.307963 -1.282340
0.064359 2.301162 -1.280007
0.081887 2.293786 -1.277473
0.099283 2.291117 -1.276682
0.116579 2.297992 -1.279415
0.133957 2.300193 -1.280439
0.151358 2.302193 -1.281399
0.168709 2.294138 -1.278665
0.185954 2.283469 -1.274976
0.203316 2.285817 -1.276094
0.220444 2.276125 -1.272784
0.237439 2.264843 -1.268895
0.254340 2.253917 -1.265146
0.271192 2.244411 -1.261928
0.288707 2.253043 -1.265411
0.306329 2.262017 -1.269032
0.323630 2.262830 -1.269652
0.340201 2.250336 -1.265367
0.357566 2.252735 -1.266591
0.376167 2.273367 -1.274562
0.393503 2.273134 -1.274835
0.411074 2.275900 -1.276227
0.428403 2.275179 -1.276340
0.445184 2.268009 -1.274078
0.460148 2.241427 -1.264642
0.477049 2.237725 -1.263678
0.494112 2.235864 -1.263406
0.510707 2.229599 -1.261512
0.530220 2.250181 -1.269574
0.547735 2.251546 -1.270531
0.562461 2.229480 -1.262811
0.579373 2.226470 -1.262165
0.597533 2.233127 -1.265116
0.611752 2.210016 -1.257031
0.628421 2.205883 -1.255999
0.646344 2.210523 -1.258236
0.669024 2.246377 -1.272087
0.684294 2.232044 -1.267303
0.699572 2.218513 -1.262826
0.714470 2.203354 -1.257752
0.732060 2.204753 -1.258851
0.749577 2.205508 -1.259724
0.770003 2.222201 -1.266549
0.784120 2.203807 -1.260316
0.802086 2.206439 -1.261933
0.818724 2.201993 -1.260924
0.835279 2.197204 -1.259801
0.849136 2.179370 -1.253820
0.866505 2.178906 -1.254339
0.884920 2.183143 -1.256633
0.904632 2.192891 -1.261008
0.913416 2.153707 -1.247085
0.930890 2.153669 -1.247827
0.952631 2.171507 -1.255288
0.970837 2.173784 -1.256940
0.987842 2.170921 -1.256682
1.008470 2.182377 -1.261821
1.025300 2.178422 -1.261194
1.039940 2.166092 -1.257436
1.053630 2.150508 -1.252468
1.072855 2.155623 -1.255308
1.095362 2.172157 -1.262477
1.113868 2.173760 -1.264046
1.129548 2.165319 -1.261849
1.141906 2.145683 -1.255441
1.163245 2.156545 -1.260575
1.180418 2.153154 -1.260347
1.194521 2.139765 -1.256357
1.206153 2.118789 -1.249508
1.221797 2.110813 -1.247602
1.244200 2.123609 -1.253603
1.269595 2.144787 -1.262825
1.285354 2.136477 -1.260873
1.300977 2.127813 -1.258807
1.320012 2.128999 -1.260517
1.331767 2.109334 -1.254302
1.353128 2.116789 -1.258456
-1.617518 2.777644 -1.521636
-1.590327 2.768002 -1.516988
-1.517850 2.816621 -1.531354
-1.458060 2.783926 -1.516465
-1.448138 2.817819 -1.528213
-1.316738 2.776094 -1.506081
-1.257082 2.801004 -1.511885
-1.188880 2.732860 -1.483653
-1.130437 2.757608 -1.489658
-0.993138 2.453861 -1.372714
-0.961294 2.415353 -1.357219
-0.937863 2.403567 -1.351855
-0.917105 2.400266 -1.349724
-0.894764 2.391020 -1.345379
-0.876923 2.397219 -1.346883
-0.858050 2.399629 -1.346985
-0.839124 2.401666 -1.346972
-0.820224 2.403608 -1.346950
-0.798866 2.395853 -1.343309
-0.777028 2.385606 -1.338762
-0.756320 2.379211 -1.335692
-0.736575 2.376243 -1.333936
-0.717427 2.375387 -1.333001
-0.698090 2.373421 -1.331676
-0.679703 2.375288 -1.331814
-0.661780 2.379072 -1.332696
-0.643307 2.380251 -1.332625
-0.623860 2.376634 -1.330784
-0.605204 2.376416 -1.330240
-0.587714 2.381738 -1.331793
-0.569256 2.382157 -1.331535
-0.548381 2.369731 -1.326496
-0.527874 2.358367 -1.321879
-0.509200 2.356252 -1.320745
-0.491458 2.359092 -1.321484
-0.474375 2.365724 -1.323661
-0.456277 2.366429 -1.323644
-0.436980 2.359507 -1.320799
-0.418654 2.358161 -1.320057
-0.401469 2.364076 -1.322047
-0.381902 2.353866 -1.318035
-0.363387 2.350195 -1.316484
-0.345387 2.349843 -1.316191
-0.325366 2.333837 -1.310075
-0.307830 2.336109 -1.310797
-0.289743 2.333830 -1.309839
-0.273442 2.346561 -1.314497
-0.255292 2.343603 -1.313318
-0.236206 2.331369 -1.308696
-0.217027 2.316848 -1.303236
-0.199909 2.322088 -1.305164
-0.182245 2.321743 -1.305023
-0.163671 2.310668 -1.300895
-0.147701 2.330066 -1.308147
-0.129348 2.320662 -1.304671
-0.111914 2.322644 -1.305455
-0.094414 2.323798 -1.305944
-0.075665 2.304743 -1.298908
-0.058463 2.309494 -1.300764
-0.041513 2.319849 -1.304726
-0.024308 2.326797 -1.307428
-0.006591 2.323102 -1.306172
0.011552 2.306859 -1.300245
0.028987 2.307464 -1.300617
0.046404 2.308866 -1.301298
0.064011 2.302333 -1.299028
0.081554 2.295672 -1.296720
0.098945 2.295871 -1.296986
0.116292 2.301861 -1.299425
0.133687 2.312153 -1.303483
0.151166 2.313329 -1.304147
0.168534 2.296618 -1.298138
0.185785 2.283715 -1.293560
0.202914 2.270819 -1.288993
0.220221 2.271804 -1.289625
0.237227 2.260933 -1.285833
0.253978 2.245203 -1.280232
0.271763 2.261905 -1.286773
0.289146 2.264778 -1.288152
0.306342 2.262836 -1.287739
0.323529 2.260953 -1.287359
0.340204 2.250109 -1.283631
0.357503 2.251116 -1.284351
0.375138 2.256902 -1.286873
0.392575 2.258945 -1.288003
0.410203 2.263098 -1.289935
0.427854 2.266889 -1.291742
0.444310 2.256170 -1.288118
0.461115 2.250318 -1.286328
0.478574 2.251766 -1.287288
0.495844 2.251062 -1.287451
0.513309 2.252125 -1.288288
0.529565 2.242014 -1.284939
0.546686 2.240120 -1.284686
0.562024 2.223441 -1.278885
0.578047 2.213409 -1.275592
0.596718 2.224307 -1.280184
0.614221 2.225635 -1.281188
0.628188 2.201529 -1.272627
0.646410 2.208217 -1.275672
0.666843 2.229014 -1.284051
0.685046 2.233979 -1.286480
0.698022 2.205898 -1.276457
0.715997 2.209587 -1.278429
0.732630 2.205044 -1.277308
0.752632 2.219811 -1.283493
0.770523 2.221905 -1.284909
0.785886 2.210106 -1.281088
0.801300 2.199054 -1.277561
0.818551 2.197800 -1.277753
0.835360 2.194246 -1.277091
0.853003 2.194763 -1.277985
0.868333 2.184131 -1.274670
0.886493 2.186931 -1.276463
0.894889 2.145307 -1.261414
0.913211 2.149249 -1.263668
0.933038 2.159346 -1.268282
0.952870 2.168853 -1.272695
0.971298 2.171975 -1.274702
0.988757 2.170866 -1.275120
1.006755 2.171763 -1.276322
1.024963 2.173257 -1.277772
1.040920 2.165934 -1.275882
1.059543 2.168660 -1.277845
1.078589 2.172644 -1.280312
1.096080 2.170700 -1.280538
1.113807 2.169461 -1.281056
1.127455 2.153955 -1.276134
1.143621 2.147364 -1.274644
1.159452 2.139688 -1.272757
1.181509 2.152485 -1.278750
1.196827 2.142923 -1.276186
1.210270 2.127536 -1.271403
1.223274 2.111087 -1.266227
1.250221 2.137655 -1.277636
1.269835 2.141052 -1.280157
1.285719 2.133065 -1.278316
1.304453 2.133418 -1.279718
1.318041 2.118774 -1.275351
