ply
format ascii 1.0
comment ---
element vertex 1649
property float x
property float y
property float z
element face 0
property list uchar uint vertex_indices
end_header
-2.665056 -6.277275 0.336530
-2.676330 -6.266405 0.336099
-2.688910 -6.261495 0.336245
-2.698549 -6.244328 0.335245
-2.713698 -6.250443 0.336466
-2.727410 -6.250410 0.337123
-2.740620 -6.248291 0.337597
-2.749228 -6.228274 0.336375
-2.767339 -6.245112 0.338696
-2.786596 -6.265502 0.341385
-2.799488 -6.261668 0.341764
-2.811987 -6.256442 0.342023
-2.828675 -6.266121 0.343742
-2.840163 -6.257244 0.343677
-2.847481 -6.234284 0.342249
-2.869417 -6.261158 0.345702
-2.876678 -6.238463 0.344320
-2.887323 -6.227402 0.344086
-2.902479 -6.231020 0.345311
-2.919125 -6.239096 0.346996
-2.934755 -6.243640 0.348351
-2.941416 -6.220531 0.346965
-2.955897 -6.221515 0.347991
-2.970469 -6.222613 0.349045
-2.983783 -6.219880 0.349729
-2.994532 -6.209727 0.349675
-3.009404 -6.211420 0.350832
-3.021030 -6.203875 0.351064
-3.030049 -6.189243 0.350581
-3.033068 -6.158621 0.348460
-3.040427 -6.140332 0.347602
-3.052756 -6.135526 0.348139
-3.067810 -6.137810 0.349423
-3.086683 -6.149705 0.351725
-3.097296 -6.140238 0.351816
-3.099080 -6.108842 0.349613
-3.092419 -6.057327 0.345278
-3.067204 -5.961889 0.336268
-3.076547 -5.951773 0.336256
-3.092481 -5.957417 0.337930
-3.106813 -5.959045 0.339193
-3.119431 -5.956548 0.340028
-3.130168 -5.949694 0.340405
-3.142117 -5.945617 0.341091
-3.154312 -5.942062 0.341845
-3.165407 -5.936051 0.342341
-3.173617 -5.923792 0.342161
-3.189793 -5.928801 0.343889
-3.208703 -5.939361 0.346251
-3.222243 -5.938293 0.347345
-3.236331 -5.938259 0.348570
-3.252485 -5.942324 0.350270
-3.263404 -5.935575 0.350771
-3.272933 -5.926071 0.350969
-3.283791 -5.919282 0.351483
-3.299069 -5.921162 0.352997
-3.311300 -5.916975 0.353834
-3.319131 -5.904343 0.353709
-3.349513 -5.934491 0.358547
-3.372144 -5.921906 0.359847
-3.376804 -5.903445 0.359083
-3.389636 -5.900035 0.360096
-3.403952 -5.899220 0.361432
-3.414747 -5.892054 0.362028
-3.428169 -5.889506 0.363190
-3.442043 -5.887658 0.364454
-3.458148 -5.889537 0.366187
-3.477637 -5.896983 0.368622
-3.494376 -5.899516 0.370486
-3.506677 -5.894479 0.371445
-3.521204 -5.893064 0.372867
-3.535394 -5.890988 0.374229
-3.547399 -5.885288 0.375158
-3.558519 -5.878147 0.375922
-3.572806 -5.876005 0.377333
-3.585157 -5.870731 0.378369
-3.601202 -5.871129 0.380147
-3.616643 -5.870446 0.381813
-3.635339 -5.874556 0.384125
-3.654310 -5.878846 0.386494
-3.668152 -5.875272 0.387869
-3.677135 -5.864462 0.388316
-3.691889 -5.862114 0.389894
-3.712627 -5.868285 0.392633
-3.731015 -5.870817 0.394926
-3.744995 -5.866899 0.396384
-3.759380 -5.863459 0.397933
-3.771839 -5.857247 0.399131
-3.792817 -5.862689 0.401951
-3.814046 -5.868197 0.404824
-3.834833 -5.872829 0.407620
-3.841621 -5.858517 0.407807
-3.848950 -5.845015 0.408119
-3.861199 -5.838035 0.409367
-3.884928 -5.845890 0.412758
-3.905861 -5.849823 0.415637
-3.918948 -5.843518 0.417081
-3.939921 -5.847081 0.419988
-3.961189 -5.850755 0.422959
-3.976452 -5.846748 0.424843
-3.991910 -5.842865 0.426777
-4.013161 -5.845885 0.429778
-4.031247 -5.844850 0.432215
-4.036861 -5.828803 0.432408
-4.059912 -5.833405 0.435770
-4.071725 -5.824607 0.437116
-4.093455 -5.827240 0.440260
-4.109685 -5.823325 0.442426
-4.127895 -5.821528 0.444957
-4.147964 -5.821654 0.447831
-4.170147 -5.823928 0.451088
-4.188095 -5.821290 0.453597
-4.211949 -5.824953 0.457162
-4.229161 -5.821159 0.459551
-4.244717 -5.815464 0.461651
-4.271037 -5.821109 0.465658
-4.293508 -5.822404 0.468981
-4.312725 -5.820096 0.471728
-4.333468 -5.819221 0.474739
-4.353063 -5.817002 0.477541
-4.374917 -5.816937 0.480729
-4.389465 -5.809369 0.482625
-4.404541 -5.802300 0.484601
-4.415972 -5.791616 0.485926
-4.435223 -5.788610 0.488596
-4.453639 -5.784711 0.491096
-4.474794 -5.783376 0.494043
-4.489089 -5.775434 0.495767
-4.510790 -5.774491 0.498740
-4.534326 -5.775176 0.501987
-4.562753 -5.780275 0.506029
-4.572219 -5.767862 0.506755
-4.581730 -5.755649 0.507443
-4.583694 -5.736823 0.506789
-4.592788 -5.724645 0.507305
-4.604083 -5.714602 0.508142
-4.615170 -5.704542 0.508882
-4.609574 -5.680188 0.506732
-4.602245 -5.654776 0.504239
-4.598551 -5.632923 0.502309
-4.602032 -5.617546 0.501530
-4.608646 -5.605104 0.501214
-4.604433 -5.583918 0.499025
-4.590441 -5.555079 0.495156
-4.601372 -5.547182 0.495373
-4.599755 -5.529305 0.493448
-4.602030 -5.514937 0.492106
-4.602582 -5.499512 0.490423
-4.606693 -5.487251 0.489263
-4.605253 -5.470910 0.487143
-4.590702 -5.430224 0.480880
-4.502506 -5.348122 0.464756
-1.799383 -6.091692 0.277456
-1.808022 -6.096441 0.279247
-1.816558 -6.104854 0.281282
-1.825881 -6.105977 0.282688
-1.835716 -6.102516 0.283672
-1.844580 -6.114829 0.285872
-1.854050 -6.121848 0.287595
-1.864007 -6.124547 0.288911
-1.874687 -6.118042 0.289415
-1.885674 -6.107925 0.289556
-1.896252 -6.107303 0.290416
-1.906900 -6.108293 0.291351
-1.917920 -6.104268 0.291809
-1.928988 -6.101840 0.292341
-1.939931 -6.106427 0.293404
-1.951157 -6.107342 0.294105
-1.962648 -6.103312 0.294334
-1.974110 -6.104545 0.294956
-1.985765 -6.102015 0.295210
-1.997419 -6.106040 0.295973
-2.009253 -6.105203 0.296279
-2.021156 -6.108886 0.296928
-2.033176 -6.104135 0.296820
-2.045238 -6.100080 0.296735
-2.057313 -6.093398 0.296391
-2.069391 -6.086484 0.295998
-2.081583 -6.085799 0.296111
-2.093822 -6.085051 0.296196
-2.106288 -6.090905 0.296826
-2.118508 -6.086203 0.296535
-2.130254 -6.068961 0.295153
-2.142848 -6.074915 0.295749
-2.155787 -6.086411 0.296813
-2.168625 -6.093369 0.297481
-2.188999 -6.232763 0.309527
-2.204304 -6.267047 0.312543
-2.217709 -6.267215 0.312626
-2.232002 -6.279765 0.313777
-2.248178 -6.315609 0.316936
-2.264335 -6.346819 0.319704
-2.277953 -6.344473 0.319593
-2.292523 -6.352945 0.320422
-2.306473 -6.353929 0.320617
-2.321130 -6.361904 0.321426
-2.336052 -6.371675 0.322404
-2.348657 -6.359216 0.321477
-2.362678 -6.360265 0.321730
-2.376834 -6.362361 0.322089
-2.390815 -6.362845 0.322325
-2.404170 -6.358375 0.322149
-2.418192 -6.359232 0.322450
-2.431025 -6.351342 0.322010
-2.442157 -6.331972 0.320590
-2.455068 -6.325956 0.320346
-2.472005 -6.346851 0.322460
-2.487301 -6.355934 0.323567
-2.500226 -6.349716 0.323361
-2.513475 -6.345760 0.323369
-2.527100 -6.344178 0.323603
-2.540266 -6.340012 0.323630
-2.553096 -6.334146 0.323525
-2.567216 -6.335487 0.324070
-2.579713 -6.328147 0.323871
-2.592314 -6.321634 0.323761
-2.605427 -6.317925 0.323915
-2.619475 -6.318890 0.324500
-2.632255 -6.313663 0.324555
-2.641891 -6.293890 0.323333
-2.651868 -6.276464 0.322330
-2.664914 -6.273425 0.322623
-2.677984 -6.270530 0.322947
-2.692207 -6.272599 0.323732
-2.705820 -6.271922 0.324288
-2.731873 -6.265618 0.325004
-2.744347 -6.260310 0.325190
-2.753869 -6.243641 0.324358
-2.766971 -6.241118 0.324824
-2.783692 -6.252097 0.326539
-2.796645 -6.248741 0.326962
-2.811012 -6.250489 0.327869
-2.826092 -6.254581 0.329009
-2.837385 -6.245237 0.328925
-2.845358 -6.224744 0.327817
-2.853692 -6.206028 0.326878
-2.881422 -6.251946 0.331978
-2.895065 -6.250425 0.332678
-2.902795 -6.229909 0.331608
-2.922389 -6.247279 0.334111
-2.934668 -6.241307 0.334433
-2.946178 -6.233045 0.334550
-2.959708 -6.230978 0.335265
-2.972557 -6.226830 0.335796
-2.986755 -6.226608 0.336715
-2.995669 -6.211092 0.336177
-3.009135 -6.208781 0.336919
-3.023900 -6.210029 0.338018
-3.032822 -6.195046 0.337554
-3.039736 -6.136735 0.333857
-3.052793 -6.133897 0.334588
-3.064608 -6.127777 0.335006
-3.071484 -6.109029 0.334182
-3.085014 -6.107490 0.335071
-3.091624 -6.088586 0.334237
-3.088279 -6.045532 0.330977
-3.066988 -5.959839 0.323400
-3.074486 -5.945321 0.322968
-3.087234 -5.943490 0.323828
-3.103596 -5.950034 0.325553
-3.116794 -5.948983 0.326520
-3.129592 -5.946924 0.327397
-3.141685 -5.943202 0.328113
-3.154670 -5.941429 0.329043
-3.165013 -5.933770 0.329371
-3.178648 -5.933317 0.330461
-3.189630 -5.927057 0.330955
-3.207363 -5.935133 0.332972
-3.222680 -5.937832 0.334441
-3.238380 -5.941133 0.335992
-3.251014 -5.937954 0.336867
-3.263274 -5.933966 0.337668
-3.270885 -5.920644 0.337472
-3.284605 -5.919574 0.338609
-3.296259 -5.914360 0.339308
-3.303735 -5.901061 0.339133
-3.318278 -5.901430 0.340466
-3.343866 -5.922534 0.344110
-3.376511 -5.928716 0.347493
-3.376142 -5.900993 0.345756
-3.392631 -5.904221 0.347500
-3.405574 -5.900902 0.348524
-3.418801 -5.898022 0.349612
-3.428335 -5.888601 0.349967
-3.443807 -5.889531 0.351523
-3.461895 -5.894788 0.353602
-3.477254 -5.895168 0.355139
-3.489646 -5.890420 0.356098
-3.502614 -5.886588 0.357181
-3.520216 -5.890312 0.359174
-3.535729 -5.890417 0.360764
-3.550987 -5.889966 0.362311
-3.561777 -5.882256 0.363007
-3.572987 -5.875218 0.363799
-3.587856 -5.873889 0.365300
-3.603565 -5.873739 0.366969
-3.617667 -5.870983 0.368342
-3.635125 -5.873214 0.370354
-3.654240 -5.877735 0.372681
-3.667043 -5.872635 0.373838
-3.678662 -5.865737 0.374790
-3.697192 -5.868881 0.377031
-3.717451 -5.874298 0.379596
-3.731303 -5.870299 0.380993
-3.743791 -5.864285 0.382154
-3.757978 -5.860600 0.383639
-3.774958 -5.860695 0.385643
-3.794805 -5.864557 0.388176
-3.814745 -5.868299 0.390732
-3.830276 -5.865857 0.392506
-3.843846 -5.860672 0.393941
-3.852310 -5.848663 0.394482
-3.866466 -5.844154 0.396057
-3.886491 -5.847157 0.398687
-3.906616 -5.850048 0.401345
-3.926974 -5.852997 0.404054
-3.945857 -5.853846 0.406514
-3.967076 -5.857402 0.409395
-3.980268 -5.850785 0.410882
-3.979838 -5.827431 0.410006
-4.012483 -5.844415 0.414922
-4.033988 -5.847509 0.417902
-4.051645 -5.845770 0.420225
-4.070897 -5.845744 0.422837
-4.082738 -5.836870 0.424180
-4.094677 -5.828074 0.425557
-4.110859 -5.824101 0.427680
-4.132807 -5.826541 0.430806
-4.152980 -5.826739 0.433636
-4.171837 -5.825264 0.436249
-4.195111 -5.828485 0.439626
-4.216700 -5.829601 0.442720
-4.231299 -5.822933 0.444629
-4.246533 -5.816869 0.446653
-4.262257 -5.811242 0.448765
-4.297169 -5.825699 0.454137
-4.313768 -5.820618 0.456399
-4.326878 -5.811838 0.458069
-4.347188 -5.810397 0.460955
-4.371013 -5.812361 0.464426
-4.392563 -5.811830 0.467503
-4.406695 -5.803765 0.469318
-4.421769 -5.796615 0.471278
-4.439260 -5.791800 0.473627
-4.459180 -5.789273 0.476361
-4.473761 -5.781545 0.478176
-4.492108 -5.777403 0.480593
-4.512160 -5.774823 0.483261
-4.536284 -5.775976 0.486568
-4.557421 -5.774258 0.489334
-4.574856 -5.769104 0.491439
-4.581076 -5.753810 0.491639
-4.583031 -5.734904 0.491090
-4.594298 -5.724582 0.492029
-4.601267 -5.710620 0.492206
-4.609838 -5.698289 0.492590
-4.607329 -5.676567 0.491102
-4.604602 -5.655041 0.489525
-4.592744 -5.626124 0.486409
-4.595259 -5.609878 0.485578
-4.597944 -5.594091 0.484713
-4.599723 -5.577870 0.483640
-4.609244 -5.568363 0.483748
-4.595276 -5.539880 0.480027
-4.598420 -5.525816 0.478991
-4.606138 -5.515747 0.478618
-4.606699 -5.500216 0.477046
-4.601932 -5.480804 0.474576
-4.582869 -5.450548 0.469816
-4.586413 -5.438505 0.468557
-4.577298 -5.416942 0.465275
-4.635521 -5.447632 0.472369
-1.798361 -6.091166 0.266535
-1.806667 -6.100534 0.268598
-1.815512 -6.106103 0.270332
-1.825313 -6.102005 0.271284
-1.835316 -6.097022 0.272110
-1.844419 -6.106601 0.273991
-1.853673 -6.117447 0.275920
-1.863193 -6.127963 0.277773
-1.873938 -6.121846 0.278280
-1.885209 -6.108199 0.278134
-1.896046 -6.103982 0.278661
-1.906759 -6.104830 0.279525
-1.917513 -6.108340 0.280542
-1.928979 -6.097930 0.280399
-1.940101 -6.098863 0.281099
-1.951343 -6.100421 0.281794
-1.962845 -6.097365 0.282069
-1.974484 -6.092223 0.282126
-1.985879 -6.104970 0.283570
-1.997658 -6.104984 0.283947
-2.009561 -6.101987 0.284040
-2.021537 -6.096902 0.283924
-2.033555 -6.097264 0.284210
-2.045650 -6.096768 0.284393
-2.057830 -6.098202 0.284702
-2.070001 -6.093622 0.284496
-2.082126 -6.085701 0.283995
-2.094403 -6.085188 0.284073
-2.106719 -6.084590 0.284126
-2.119161 -6.086736 0.284386
-2.131489 -6.084364 0.284267
-2.143796 -6.081292 0.284081
-2.156428 -6.085179 0.284452
-2.169601 -6.098350 0.285574
-2.190213 -6.240622 0.297188
-2.204434 -6.256226 0.298507
-2.219004 -6.274664 0.300059
-2.232410 -6.274004 0.300061
-2.247980 -6.301954 0.302396
-2.266091 -6.358152 0.307039
-2.280516 -6.364632 0.307644
-2.293674 -6.356250 0.307050
-2.308506 -6.366375 0.307973
-2.322515 -6.367214 0.308153
-2.336443 -6.367173 0.308275
-2.350291 -6.366379 0.308349
-2.362260 -6.349100 0.307091
-2.376628 -6.353464 0.307616
-2.391224 -6.359315 0.308280
-2.405086 -6.358981 0.308454
-2.417535 -6.348007 0.307774
-2.429549 -6.334607 0.306911
-2.443410 -6.335055 0.307200
-2.457060 -6.334021 0.307385
-2.472828 -6.346964 0.308739
-2.487013 -6.348968 0.309212
-2.500241 -6.344883 0.309202
-2.512969 -6.337975 0.308976
-2.526134 -6.333961 0.309007
-2.540319 -6.335916 0.309550
-2.555344 -6.342362 0.310486
-2.569412 -6.343241 0.310979
-2.581585 -6.334043 0.310651
-2.594604 -6.329567 0.310733
-2.607672 -6.325474 0.310864
-2.619898 -6.317377 0.310677
-2.631894 -6.308471 0.310437
-2.642516 -6.293468 0.309699
-2.651302 -6.270656 0.308314
-2.663168 -6.262498 0.308177
-2.676831 -6.262444 0.308741
-2.694157 -6.277981 0.310647
-2.708794 -6.281507 0.311553
-2.718013 -6.262524 0.310556
-2.733534 -6.269569 0.311796
-2.746927 -6.267832 0.312302
-2.756358 -6.250692 0.311498
-2.768307 -6.243664 0.311574
-2.782814 -6.246330 0.312503
-2.797212 -6.248389 0.313397
-2.811630 -6.250327 0.314296
-2.826124 -6.252350 0.315220
-2.837344 -6.242805 0.315147
-2.845556 -6.223188 0.314199
-2.861865 -6.231308 0.315701
-2.888241 -6.272302 0.320132
-2.901135 -6.268017 0.320583
-2.912412 -6.258572 0.320586
-2.925552 -6.255163 0.321138
-2.933612 -6.236001 0.320290
-2.943207 -6.221985 0.319908
-2.955682 -6.216919 0.320340
-2.972464 -6.224614 0.321941
-2.987343 -6.226409 0.323024
-3.000387 -6.222752 0.323624
-3.008104 -6.204008 0.322854
-3.021519 -6.201557 0.323584
-3.035349 -6.200182 0.324426
-3.031128 -6.149824 0.320739
-3.039634 -6.134732 0.320313
-3.055713 -6.139876 0.321780
-3.065785 -6.129146 0.321776
-3.073205 -6.111778 0.321153
-3.083340 -6.101611 0.321211
-3.092361 -6.088805 0.321024
-3.084723 -6.035194 0.316950
-3.063202 -5.949122 0.309739
-3.075773 -5.946910 0.310535
-3.088248 -5.944407 0.311315
-3.101136 -5.942810 0.312194
-3.115127 -5.943672 0.313325
-3.130911 -5.948477 0.314855
-3.143759 -5.946429 0.315730
-3.155268 -5.941330 0.316316
-3.167889 -5.938672 0.317152
-3.179863 -5.934548 0.317855
-3.194855 -5.936870 0.319212
-3.207216 -5.933435 0.320008
-3.220987 -5.932908 0.321108
-3.234688 -5.932119 0.322196
-3.246425 -5.927208 0.322877
-3.259054 -5.924085 0.323752
-3.271362 -5.920264 0.324568
-3.285815 -5.920637 0.325828
-3.300513 -5.921355 0.327140
-3.309521 -5.910937 0.327308
-3.319259 -5.902016 0.327637
-3.340988 -5.915807 0.330367
-3.354108 -5.913086 0.331380
-3.367500 -5.910794 0.332452
-3.380302 -5.907342 0.333416
-3.394340 -5.906065 0.334626
-3.408811 -5.905456 0.335927
-3.419392 -5.897845 0.336484
-3.430922 -5.891920 0.337235
-3.444521 -5.889570 0.338391
-3.462451 -5.894549 0.340373
-3.478577 -5.896231 0.342016
-3.492554 -5.894133 0.343258
-3.506720 -5.892251 0.344544
-3.521626 -5.891482 0.345974
-3.536419 -5.890405 0.347390
-3.551530 -5.889718 0.348872
-3.562498 -5.882298 0.349602
-3.572829 -5.873878 0.350232
-3.591154 -5.877963 0.352325
-3.607851 -5.879298 0.354127
-3.619890 -5.873333 0.355099
-3.633386 -5.869541 0.356345
-3.648647 -5.868318 0.357917
-3.665703 -5.869633 0.359817
-3.683578 -5.871969 0.361869
-3.703982 -5.877784 0.364374
-3.721646 -5.879376 0.366402
-3.734125 -5.873373 0.367531
-3.745893 -5.866320 0.368551
-3.761533 -5.864658 0.370260
-3.781055 -5.868243 0.372653
-3.793537 -5.861928 0.373839
-3.810544 -5.861713 0.375820
-3.828141 -5.862125 0.377912
-3.843299 -5.859103 0.379600
-3.859592 -5.857460 0.381495
-3.873822 -5.852974 0.383052
-3.890035 -5.850961 0.384961
-3.910691 -5.854505 0.387636
-3.927545 -5.852965 0.389679
-3.946687 -5.854149 0.392122
-3.966513 -5.855975 0.394692
-3.981536 -5.851643 0.396469
-3.980785 -5.827903 0.395625
-4.017054 -5.849278 0.400983
-4.034623 -5.847608 0.403230
-4.050490 -5.843749 0.405207
-4.067285 -5.840856 0.407353
-4.085805 -5.839829 0.409800
-4.099469 -5.833008 0.411456
-4.119318 -5.833191 0.414147
-4.139116 -5.833111 0.416843
-4.153054 -5.826245 0.418585
-4.174324 -5.827462 0.421544
-4.197176 -5.830195 0.424771
-4.215885 -5.828149 0.427327
-4.230494 -5.821502 0.429221
-4.242261 -5.811733 0.430659
-4.259937 -5.808218 0.433070
-4.291495 -5.819164 0.437745
-4.305893 -5.811837 0.439626
-4.320566 -5.804737 0.441553
-4.343899 -5.806430 0.444885
-4.370691 -5.811409 0.448771
-4.389889 -5.808497 0.451418
-4.408506 -5.804889 0.453961
-4.424298 -5.798398 0.456036
-4.444637 -5.796300 0.458829
-4.461065 -5.790311 0.460971
-4.477124 -5.783934 0.463033
-4.494206 -5.778513 0.465233
-4.517626 -5.779021 0.468420
-4.533841 -5.772701 0.470416
-4.554790 -5.770762 0.473132
-4.570859 -5.764309 0.475024
-4.582591 -5.753970 0.476180
-4.591268 -5.741011 0.476803
-4.600229 -5.728489 0.477422
-4.602236 -5.710021 0.476887
-4.607523 -5.694726 0.476820
-4.608775 -5.676192 0.476060
-4.604655 -5.653373 0.474400
-4.602050 -5.632254 0.472924
-4.601900 -5.613596 0.471777
-4.601008 -5.594675 0.470456
-4.611015 -5.585170 0.470769
-4.618445 -5.573766 0.470612
-4.620198 -5.557983 0.469510
-4.607501 -5.530827 0.466121
-4.604755 -5.512191 0.464212
-4.604884 -5.496237 0.462686
-4.606238 -5.481601 0.461287
-4.592004 -5.455051 0.457469
-4.580453 -5.431102 0.454020
-4.591804 -5.425347 0.453969
-4.526456 -5.360855 0.442395
-1.794678 -6.121028 0.257707
-1.803791 -6.122862 0.259161
-1.814531 -6.106982 0.259303
-1.824106 -6.106703 0.260492
-1.833699 -6.108397 0.261768
-1.843495 -6.109753 0.262963
-1.853625 -6.108714 0.263927
-1.863385 -6.116010 0.265441
-1.873456 -6.121724 0.266786
-1.884533 -6.112936 0.267004
-1.895773 -6.102638 0.267045
-1.906309 -6.108640 0.268236
-1.917207 -6.110811 0.269087
-1.928448 -6.108230 0.269526
-1.940100 -6.097127 0.269269
-1.951475 -6.096240 0.269724
-1.963113 -6.089720 0.269703
-1.974550 -6.095187 0.270539
-1.986091 -6.103703 0.271561
-1.997895 -6.105761 0.272051
-2.009909 -6.096249 0.271621
-2.021892 -6.095769 0.271839
-2.033948 -6.091741 0.271751
-2.046082 -6.095170 0.272201
-2.058287 -6.095705 0.272401
-2.070525 -6.094000 0.272405
-2.082705 -6.087157 0.271993
-2.094817 -6.078085 0.271391
-2.107142 -6.077995 0.271460
-2.119737 -6.084934 0.272053
-2.132302 -6.088460 0.272374
-2.144815 -6.089324 0.272483
-2.157409 -6.091232 0.272667
-2.170049 -6.093253 0.272855
-2.190922 -6.239633 0.284105
-2.205033 -6.253286 0.285186
-2.218755 -6.258929 0.285656
-2.233514 -6.278263 0.287180
-2.251150 -6.333018 0.291427
-2.267354 -6.363464 0.293819
-2.282122 -6.373602 0.294663
-2.296030 -6.373095 0.294702
-2.308043 -6.352616 0.293218
-2.323243 -6.366075 0.294353
-2.338173 -6.375705 0.295208
-2.351126 -6.366369 0.294620
-2.362997 -6.348296 0.293374
-2.376090 -6.341963 0.293046
-2.391692 -6.356442 0.294338
-2.405146 -6.353070 0.294272
-2.417140 -6.338946 0.293392
-2.430039 -6.332345 0.293108
-2.444106 -6.334360 0.293509
-2.458014 -6.335135 0.293831
-2.472840 -6.341870 0.294634
-2.487123 -6.344692 0.295153
-2.500500 -6.341700 0.295238
-2.513885 -6.338882 0.295355
-2.526363 -6.330874 0.295085
-2.541234 -6.336844 0.295924
-2.555852 -6.341030 0.296643
-2.570095 -6.342923 0.297202
-2.583025 -6.337748 0.297224
-2.596397 -6.335024 0.297457
-2.608828 -6.327648 0.297339
-2.620669 -6.317655 0.297031
-2.633463 -6.312582 0.297126
-2.645184 -6.302652 0.296852
-2.654675 -6.282899 0.295810
-2.666358 -6.273685 0.295619
-2.677635 -6.262993 0.295323
-2.693390 -6.271800 0.296603
-2.704794 -6.261917 0.296401
-2.713352 -6.240643 0.295293
-2.726208 -6.237399 0.295650
-2.742866 -6.249181 0.297239
-2.765851 -6.284908 0.300797
-2.776619 -6.272767 0.300484
-2.786844 -6.258929 0.300043
-2.800626 -6.258507 0.300712
-2.818076 -6.271176 0.302472
-2.832223 -6.271613 0.303246
-2.842586 -6.258766 0.302934
-2.853179 -6.247023 0.302723
-2.871130 -6.260252 0.304602
-2.891638 -6.281361 0.307162
-2.905314 -6.279472 0.307819
-2.915463 -6.266243 0.307535
-2.924344 -6.249321 0.306946
-2.932448 -6.230399 0.306191
-2.939516 -6.208776 0.305209
-2.949717 -6.197089 0.305077
-2.966542 -6.205200 0.306649
-2.989940 -6.232080 0.309856
-3.001533 -6.224173 0.310088
-3.010717 -6.209560 0.309748
-3.021911 -6.200839 0.309925
-3.026816 -6.174965 0.308610
-3.031550 -6.149228 0.307302
-3.043065 -6.142178 0.307637
-3.059407 -6.147900 0.309111
-3.069153 -6.136210 0.309055
-3.078006 -6.122420 0.308816
-3.096308 -6.097035 0.308546
-3.088078 -6.041885 0.304580
-3.067645 -5.958408 0.298014
-3.079470 -5.954282 0.298628
-3.089939 -5.946929 0.298955
-3.102081 -5.943548 0.299655
-3.115057 -5.942052 0.300539
-3.131060 -5.947367 0.302066
-3.145633 -5.949207 0.303287
-3.157986 -5.945943 0.304045
-3.167397 -5.936175 0.304203
-3.181418 -5.936516 0.305320
-3.195517 -5.936889 0.306454
-3.206919 -5.931418 0.307045
-3.219277 -5.927950 0.307837
-3.231674 -5.924517 0.308643
-3.243791 -5.920465 0.309401
-3.258469 -5.921552 0.310668
-3.270471 -5.917144 0.311415
-3.286139 -5.919945 0.312880
-3.304686 -5.928176 0.314898
-3.315428 -5.921030 0.315416
-3.323480 -5.908774 0.315433
-3.336418 -5.905884 0.316392
-3.351933 -5.907737 0.317841
-3.365327 -5.905506 0.318896
-3.380523 -5.906478 0.320291
-3.397836 -5.911124 0.322079
-3.411046 -5.908202 0.323112
-3.423721 -5.904265 0.324056
-3.433598 -5.895379 0.324499
-3.448590 -5.895400 0.325881
-3.463300 -5.894799 0.327217
-3.478709 -5.895260 0.328684
-3.496303 -5.899235 0.330544
-3.510377 -5.897147 0.331782
-3.524871 -5.895650 0.333102
-3.538145 -5.892059 0.334215
-3.551611 -5.888708 0.335372
-3.563426 -5.882651 0.336251
-3.576159 -5.878017 0.337301
-3.592343 -5.878716 0.338959
-3.609971 -5.881486 0.340871
-3.624511 -5.879326 0.342259
-3.636195 -5.872736 0.343171
-3.649583 -5.868677 0.344387
-3.664230 -5.866414 0.345827
-3.683795 -5.871269 0.348107
-3.702543 -5.874681 0.350254
-3.722273 -5.879283 0.352573
-3.736743 -5.876130 0.354020
-3.752050 -5.874058 0.355620
-3.765694 -5.869534 0.356957
-3.779372 -5.864979 0.358313
-3.795906 -5.864263 0.360154
-3.808260 -5.857709 0.361320
-3.827040 -5.859759 0.363554
-3.849521 -5.866529 0.366403
-3.862613 -5.860600 0.367732
-3.876940 -5.856217 0.369277
-3.896933 -5.859077 0.371756
-3.910995 -5.854094 0.373288
-3.923582 -5.847146 0.374598
-3.945017 -5.851278 0.377348
-3.970843 -5.860619 0.380814
-3.979933 -5.848927 0.381609
-3.989545 -5.837901 0.382508
-3.996780 -5.824012 0.383048
-4.023700 -5.833810 0.386740
-4.041105 -5.831918 0.388930
-4.066538 -5.839315 0.392408
-4.084367 -5.837503 0.394692
-4.095856 -5.828199 0.395987
-4.106239 -5.817601 0.397126
-4.137541 -5.830712 0.401576
-4.149842 -5.822037 0.403045
-4.169895 -5.821941 0.405745
-4.192178 -5.824098 0.408806
-4.211440 -5.822712 0.411403
-4.226897 -5.817033 0.413413
-4.241615 -5.810464 0.415316
-4.267867 -5.816051 0.419030
-4.283121 -5.809774 0.421030
-4.292495 -5.797295 0.422119
-4.319553 -5.803091 0.425966
-4.347086 -5.809071 0.429884
-4.366519 -5.806551 0.432539
-4.390937 -5.808892 0.435962
-4.409521 -5.805217 0.438471
-4.426094 -5.799457 0.440659
-4.444477 -5.795403 0.443113
-4.461632 -5.790080 0.445361
-4.479566 -5.785450 0.447710
-4.498621 -5.781830 0.450207
-4.515147 -5.775771 0.452287
-4.535420 -5.773190 0.454913
-4.553141 -5.768198 0.457109
-4.572314 -5.764526 0.459489
-4.585649 -5.755556 0.460930
-4.596670 -5.744601 0.461971
-4.602098 -5.728816 0.462111
-4.599971 -5.706612 0.461050
-4.605399 -5.691372 0.461090
-4.607882 -5.673838 0.460628
-4.605058 -5.652052 0.459307
-4.607658 -5.635273 0.458751
-4.607106 -5.616145 0.457661
-4.604908 -5.596005 0.456264
-4.612403 -5.584291 0.456260
-4.622486 -5.574961 0.456574
-4.620558 -5.556055 0.455030
-4.615135 -5.534706 0.452908
-4.653495 -5.455557 0.447558
-1.794051 -6.116742 0.246335
-1.802851 -6.122798 0.248007
-1.813095 -6.113838 0.248625
-1.823298 -6.106737 0.249306
-1.832957 -6.108469 0.250523
-1.842937 -6.108206 0.251548
-1.853513 -6.101518 0.252075
-1.863482 -6.106174 0.253321
-1.873240 -6.117702 0.254987
-1.884130 -6.113327 0.255495
-1.895469 -6.102545 0.255495
-1.906321 -6.103351 0.256244
-1.916830 -6.115630 0.257745
-1.928248 -6.110786 0.257987
-1.939837 -6.103740 0.258018
-1.951573 -6.094051 0.257808
-1.963180 -6.090731 0.257997
-1.974679 -6.096324 0.258773
-1.986322 -6.102606 0.259556
-1.998234 -6.099984 0.259661
-2.010235 -6.095106 0.259566
-2.022262 -6.094259 0.259723
-2.034359 -6.092410 0.259775
-2.046530 -6.094319 0.260067
-2.058753 -6.093173 0.260113
-2.071036 -6.092985 0.260204
-2.083252 -6.086672 0.259835
-2.095478 -6.081336 0.259517
-2.107731 -6.077289 0.259278
-2.120238 -6.080933 0.259580
-2.132959 -6.088500 0.260155
-2.145671 -6.093583 0.260544
-2.158481 -6.099244 0.260971
-2.171282 -6.103349 0.261284
-2.192340 -6.251245 0.271947
-2.205866 -6.254322 0.272188
-2.219316 -6.255656 0.272307
-2.234157 -6.276198 0.273815
-2.251335 -6.324799 0.277351
-2.267508 -6.355194 0.279586
-2.282580 -6.369302 0.280658
-2.295929 -6.362822 0.280257
-2.308734 -6.351252 0.279502
-2.323115 -6.356554 0.279976
-2.338929 -6.375056 0.281417
-2.352833 -6.374485 0.281497
-2.364037 -6.350316 0.279888
-2.377833 -6.349863 0.280007
-2.391721 -6.350188 0.280199
-2.404404 -6.341091 0.279725
-2.417958 -6.339170 0.279788
-2.432106 -6.341669 0.280188
-2.444815 -6.333896 0.279861
-2.458407 -6.332592 0.280021
-2.473284 -6.339764 0.280815
-2.487094 -6.339674 0.281100
-2.501418 -6.342723 0.281632
-2.514988 -6.341022 0.281836
-2.528950 -6.341659 0.282229
-2.541103 -6.331931 0.281880
-2.554306 -6.328464 0.282007
-2.567839 -6.326889 0.282290
-2.582381 -6.330609 0.282982
-2.596237 -6.330568 0.283415
-2.609878 -6.329377 0.283780
-2.621806 -6.319801 0.283540
-2.633846 -6.311117 0.283381
-2.645405 -6.300495 0.283091
-2.656118 -6.286398 0.282555
-2.667435 -6.275505 0.282270
-2.680759 -6.273732 0.282685
-2.692706 -6.266051 0.282670
-2.703302 -6.252926 0.282256
-2.713100 -6.236950 0.281637
-2.722596 -6.220281 0.280974
-2.737806 -6.226684 0.282080
-2.775410 -6.319371 0.289804
-2.779706 -6.282032 0.287610
-2.788103 -6.261228 0.286687
-2.801942 -6.260977 0.287356
-2.817810 -6.267910 0.288596
-2.833707 -6.274586 0.289836
-2.846886 -6.271476 0.290330
-2.859983 -6.268067 0.290815
-2.875122 -6.271502 0.291849
-2.883820 -6.253446 0.291207
-2.898093 -6.253950 0.292037
-2.910991 -6.249918 0.292521
-2.923599 -6.244973 0.292945
-2.933111 -6.230484 0.292617
-2.943668 -6.219495 0.292575
-2.952703 -6.204151 0.292189
-2.967088 -6.204939 0.293111
-2.983556 -6.211635 0.294528
-2.999144 -6.215481 0.295730
-3.011705 -6.210537 0.296228
-3.024044 -6.204985 0.296687
-3.032152 -6.187850 0.296200
-3.035492 -6.158168 0.294675
-3.045449 -6.146834 0.294670
-3.059891 -6.147480 0.295670
-3.073169 -6.144961 0.296418
-3.084116 -6.136412 0.296669
-3.099330 -6.138734 0.297847
-3.095551 -6.058696 0.293020
-3.071045 -5.965159 0.285993
-3.078190 -5.949728 0.285632
-3.092963 -5.952608 0.286856
-3.102284 -5.942559 0.286971
-3.115810 -5.942338 0.287948
-3.129868 -5.943205 0.289034
-3.145424 -5.947297 0.290417
-3.158826 -5.946378 0.291372
-3.168508 -5.937196 0.291605
-3.176905 -5.925324 0.291602
-3.188285 -5.920002 0.292191
-3.203191 -5.922140 0.293461
-3.214515 -5.916611 0.294052
-3.229862 -5.919401 0.295409
-3.247871 -5.927437 0.297263
-3.258917 -5.921103 0.297816
-3.272615 -5.920081 0.298869
-3.287589 -5.921470 0.300159
-3.301786 -5.921184 0.301309
-3.313532 -5.916047 0.302018
-3.322029 -5.904698 0.302150
-3.332502 -5.897197 0.302653
-3.348705 -5.900422 0.304186
-3.369162 -5.911297 0.306472
-3.382957 -5.909646 0.307579
-3.395241 -5.905167 0.308426
-3.412688 -5.909875 0.310180
-3.423432 -5.902502 0.310773
-3.437244 -5.900517 0.311908
-3.449535 -5.895805 0.312787
-3.463533 -5.893980 0.313968
-3.477336 -5.891723 0.315122
-3.495532 -5.896739 0.317026
-3.513446 -5.901046 0.318884
-3.528210 -5.899950 0.320216
-3.539401 -5.892931 0.320960
-3.553294 -5.890257 0.322165
-3.563595 -5.881777 0.322786
-3.576440 -5.877330 0.323840
-3.593688 -5.879696 0.325626
-3.610092 -5.880563 0.327280
-3.625424 -5.879625 0.328767
-3.638181 -5.874659 0.329846
-3.651177 -5.869998 0.330976
-3.663954 -5.864951 0.332083
-3.679387 -5.863750 0.333629
-3.699524 -5.869258 0.335936
-3.721645 -5.877360 0.338564
-3.739498 -5.879055 0.340519
-3.752223 -5.873312 0.341674
-3.765190 -5.867856 0.342881
-3.779662 -5.864424 0.344340
-3.795367 -5.862582 0.346005
-3.810629 -5.860003 0.347614
-3.825859 -5.857260 0.349232
-3.847160 -5.862486 0.351807
-3.864463 -5.862160 0.353772
-3.878941 -5.857971 0.355313
-3.898273 -5.859965 0.357618
-3.911821 -5.854323 0.359046
-3.921838 -5.844118 0.359949
-3.950505 -5.857385 0.363727
-3.964569 -5.852015 0.365281
-3.979752 -5.847938 0.367022
-3.987951 -5.835205 0.367715
-3.997982 -5.824739 0.368708
-4.014949 -5.822596 0.370772
-4.038085 -5.827628 0.373785
-4.069392 -5.841984 0.378047
-4.086436 -5.839240 0.380164
-4.092447 -5.823601 0.380631
-4.104215 -5.814639 0.381985
-4.135179 -5.827397 0.386243
-4.145572 -5.816615 0.387419
-4.160896 -5.811315 0.389350
-4.189780 -5.820844 0.393328
-4.210133 -5.820679 0.396036
-4.235207 -5.825413 0.399461
-4.256688 -5.826005 0.402356
-4.270739 -5.818496 0.404149
-4.288610 -5.814939 0.406521
-4.314397 -5.819486 0.410078
-4.337914 -5.821406 0.413299
-4.344355 -5.805651 0.413979
-4.363740 -5.803096 0.416587
-4.387051 -5.804334 0.419775
-4.410236 -5.805241 0.422937
-4.429857 -5.802447 0.425562
-4.442645 -5.792876 0.427163
-4.461417 -5.789097 0.429637
-4.481523 -5.786507 0.432290
-4.498437 -5.780796 0.434450
-4.514423 -5.774183 0.436448
-4.533416 -5.770363 0.438861
-4.554843 -5.768743 0.441600
-4.571453 -5.762651 0.443591
-4.583936 -5.752848 0.444935
-4.594599 -5.741515 0.445969
-4.594444 -5.720712 0.445370
-4.594654 -5.700553 0.444780
-4.602269 -5.687182 0.445224
-4.605150 -5.669932 0.444922
-4.605429 -5.650747 0.444187
-4.601625 -5.628432 0.442803
-4.598845 -5.607385 0.441512
-4.599531 -5.589625 0.440665
-4.609252 -5.579698 0.441057
-4.611612 -5.563944 0.440324
-4.615152 -5.549480 0.439694
-4.594423 -5.515705 0.435536
-4.638683 -5.534685 0.440578
-4.629510 -5.494911 0.436549
-4.642959 -5.489775 0.436986
-4.633655 -5.452137 0.432590
-4.633763 -5.437563 0.430977
-1.792930 -6.118377 0.235323
-1.801663 -6.126019 0.237017
-1.811724 -6.120268 0.237823
-1.822595 -6.105873 0.238023
-1.832859 -6.100406 0.238722
-1.842504 -6.105406 0.240029
-1.852648 -6.106036 0.241001
-1.862805 -6.109127 0.242075
-1.872858 -6.117056 0.243406
-1.883682 -6.115121 0.244041
-1.895532 -6.095957 0.243489
-1.906119 -6.103236 0.244609
-1.916762 -6.113963 0.245904
-1.928024 -6.114686 0.246487
-1.939825 -6.103888 0.246254
-1.951608 -6.094742 0.246078
-1.963120 -6.097528 0.246645
-1.974774 -6.100004 0.247147
-1.986621 -6.098617 0.247349
-1.998491 -6.102025 0.247831
-2.010555 -6.096515 0.247679
-2.022627 -6.097704 0.247942
-2.034782 -6.095428 0.247941
-2.047002 -6.096516 0.248138
-2.059273 -6.095514 0.248169
-2.071617 -6.096397 0.248306
-2.083940 -6.093239 0.248152
-2.096326 -6.092177 0.248123
-2.108650 -6.088004 0.247872
-2.120821 -6.079501 0.247319
-2.133339 -6.081409 0.247458
-2.146220 -6.090775 0.248095
-2.159120 -6.098273 0.248603
-2.172385 -6.111039 0.249464
-2.193395 -6.256592 0.259269
-2.206495 -6.252240 0.258981
-2.220184 -6.257200 0.259326
-2.234910 -6.275883 0.260600
-2.253425 -6.341797 0.265065
-2.268401 -6.356304 0.266076
-2.282960 -6.364308 0.266661
-2.296602 -6.361341 0.266518
-2.309577 -6.351671 0.265935
-2.323514 -6.352524 0.266075
-2.340203 -6.379529 0.267995
-2.353504 -6.373300 0.267688
-2.367079 -6.369985 0.267593
-2.380077 -6.362092 0.267204
-2.390779 -6.336284 0.265619
-2.403429 -6.327511 0.265201
-2.419462 -6.344687 0.266560
-2.432865 -6.341644 0.266565
-2.445659 -6.334519 0.266311
-2.458529 -6.328351 0.266138
-2.473961 -6.339317 0.267149
-2.489170 -6.348171 0.268037
-2.501379 -6.337959 0.267641
-2.515990 -6.342669 0.268283
-2.529014 -6.337826 0.268289
-2.540637 -6.325247 0.267780
-2.553984 -6.322788 0.267983
-2.569390 -6.331452 0.268970
-2.582461 -6.327374 0.269096
-2.596925 -6.330544 0.269741
-2.610418 -6.328642 0.270053
-2.621750 -6.316218 0.269649
-2.633422 -6.305896 0.269405
-2.645921 -6.299791 0.269470
-2.657835 -6.291205 0.269375
-2.668827 -6.278789 0.269025
-2.678953 -6.263029 0.268451
-2.693045 -6.264743 0.269122
-2.706001 -6.261537 0.269461
-2.718301 -6.255667 0.269625
-2.727892 -6.239038 0.269035
-2.737811 -6.224234 0.268585
-2.753601 -6.232573 0.269802
-2.774716 -6.260689 0.272461
-2.789201 -6.262972 0.273284
-2.803805 -6.265489 0.274140
-2.817568 -6.264780 0.274778
-2.831108 -6.263186 0.275365
-2.847320 -6.270794 0.276639
-2.860917 -6.269104 0.277249
-2.869823 -6.251626 0.276710
-2.877032 -6.229003 0.275794
-2.890140 -6.226121 0.276346
-2.908738 -6.240724 0.278212
-2.922403 -6.239244 0.278897
-2.931920 -6.224866 0.278628
-2.947905 -6.230484 0.279870
-2.960430 -6.225432 0.280321
-2.968866 -6.208335 0.279868
-2.978961 -6.196441 0.279814
-2.994598 -6.200644 0.280999
-3.009897 -6.203637 0.282106
-3.026016 -6.208697 0.283388
-3.036958 -6.199283 0.283564
-3.044580 -6.181026 0.283057
-3.048092 -6.152190 0.281724
-3.058790 -6.142911 0.281920
-3.071551 -6.139102 0.282555
-3.089697 -6.149042 0.284289
-3.103965 -6.148798 0.285231
-3.114149 -6.138258 0.285363
-3.087942 -6.038434 0.278326
-3.073310 -5.969153 0.273693
-3.076434 -5.944045 0.272603
-3.089082 -5.941963 0.273382
-3.103987 -5.945076 0.274596
-3.115155 -5.939377 0.275100
-3.126130 -5.933258 0.275577
-3.139576 -5.932718 0.276525
-3.157735 -5.942529 0.278349
-3.167837 -5.934309 0.278681
-3.175707 -5.921328 0.278617
-3.185085 -5.911761 0.278845
-3.200605 -5.915284 0.280191
-3.217185 -5.920816 0.281725
-3.230447 -5.919240 0.282666
-3.244183 -5.918540 0.283695
-3.259565 -5.921052 0.285016
-3.275237 -5.923960 0.286387
-3.287017 -5.918997 0.287084
-3.296896 -5.910310 0.287463
-3.308881 -5.905750 0.288213
-3.320693 -5.900835 0.288942
-3.333701 -5.898154 0.289882
-3.348042 -5.897888 0.291052
-3.366835 -5.905709 0.292970
-3.379200 -5.901502 0.293816
-3.396041 -5.905333 0.295410
-3.408345 -5.900847 0.296259
-3.423615 -5.901564 0.297601
-3.437485 -5.899683 0.298719
-3.449456 -5.894426 0.299537
-3.463658 -5.892960 0.300724
-3.479684 -5.894476 0.302211
-3.494029 -5.893005 0.303433
-3.513640 -5.900158 0.305500
-3.530282 -5.902151 0.307097
-3.542693 -5.897091 0.308031
-3.549127 -5.882384 0.308038
-3.562982 -5.879640 0.309224
-3.577505 -5.877859 0.310524
-3.594198 -5.879352 0.312169
-3.612242 -5.882754 0.314029
-3.627680 -5.881957 0.315494
-3.641358 -5.878364 0.316698
-3.655220 -5.874964 0.317942
-3.665675 -5.866428 0.318678
-3.678634 -5.861582 0.319809
-3.698076 -5.866103 0.321934
-3.719808 -5.873673 0.324412
-3.736889 -5.874307 0.326196
-3.751945 -5.871907 0.327686
-3.767602 -5.870231 0.329279
-3.783137 -5.868254 0.330867
-3.799124 -5.866766 0.332534
-3.812086 -5.861031 0.333766
-3.830081 -5.862003 0.335757
-3.846935 -5.861264 0.337593
-3.862670 -5.858888 0.339277
-3.883042 -5.862438 0.341656
-3.897511 -5.858103 0.343183
-3.912245 -5.854007 0.344764
-3.928170 -5.851319 0.346535
-3.939488 -5.842700 0.347650
-3.957703 -5.842651 0.349786
-3.974691 -5.840898 0.351759
-3.993492 -5.841203 0.354010
-4.013219 -5.842431 0.356410
-4.018356 -5.825940 0.356717
-4.032393 -5.820138 0.358329
-4.065629 -5.836836 0.362723
-4.091107 -5.843980 0.366010
-4.103657 -5.835856 0.367453
-4.111697 -5.822523 0.368266
-4.131734 -5.822827 0.370816
-4.155771 -5.827409 0.373953
-4.169305 -5.820020 0.375600
-4.185828 -5.815853 0.377688
-4.223220 -5.834324 0.382770
-4.237312 -5.827059 0.384534
-4.254540 -5.823079 0.386758
-4.271308 -5.818476 0.388926
-4.287201 -5.812835 0.390978
-4.312886 -5.817284 0.394431
-4.329439 -5.812033 0.396589
-4.341310 -5.801899 0.398085
-4.364512 -5.803222 0.401195
-4.385106 -5.801713 0.403931
-4.405347 -5.799695 0.406615
-4.428532 -5.800427 0.409709
-4.447670 -5.797028 0.412220
-4.461522 -5.788422 0.413971
-4.479254 -5.783526 0.416256
-4.496203 -5.777827 0.418411
-4.511891 -5.770908 0.420367
-4.533200 -5.769212 0.423090
-4.556651 -5.769399 0.426084
-4.574418 -5.764287 0.428241
-4.582900 -5.750777 0.429053
-4.589313 -5.735575 0.429533
-4.588290 -5.713976 0.428926
-4.592668 -5.697464 0.429033
-4.598875 -5.682800 0.429346
-4.606177 -5.669319 0.429761
-4.601099 -5.645454 0.428391
-4.597626 -5.623371 0.427191
-4.601109 -5.607543 0.426903
-4.598989 -5.587337 0.425777
-4.599268 -5.569500 0.424924
-4.610460 -5.560976 0.425514
-4.607851 -5.541420 0.424134
-4.616950 -5.531714 0.424299
-4.637252 -5.514703 0.424703
-4.631321 -5.493863 0.422613
-4.637093 -5.452064 0.419177
-4.568779 -5.385037 0.408533
-1.791710 -6.121493 0.224343
-1.801527 -6.117414 0.225273
-1.811210 -6.116695 0.226342
-1.820804 -6.119203 0.227545
-1.831512 -6.109435 0.227966
-1.841308 -6.113754 0.229163
-1.851299 -6.118166 0.230310
-1.861748 -6.118514 0.231158
-1.872171 -6.122056 0.232141
-1.883501 -6.112658 0.232281
-1.894556 -6.110065 0.232775
-1.905765 -6.106923 0.233178
-1.916599 -6.115147 0.234225
-1.928024 -6.113490 0.234613
-1.939893 -6.102412 0.234365
-1.951638 -6.096356 0.234377
-1.963279 -6.096674 0.234738
-1.975051 -6.096164 0.235002
-1.986851 -6.099628 0.235474
-1.998794 -6.101653 0.235817
-2.010854 -6.102235 0.236036
-2.023012 -6.098808 0.235972
-2.035214 -6.097684 0.236022
-2.047478 -6.097833 0.236126
-2.059782 -6.096198 0.236095
-2.072145 -6.096009 0.236135
-2.084507 -6.093530 0.236014
-2.096994 -6.095517 0.236159
-2.109476 -6.095458 0.236164
-2.121562 -6.082870 0.235375
-2.133970 -6.081048 0.235254
-2.146476 -6.081401 0.235266
-2.159205 -6.085970 0.235540
-2.172660 -6.103167 0.236606
-2.194058 -6.255292 0.246134
-2.207252 -6.252443 0.245948
-2.220728 -6.254096 0.246049
-2.237287 -6.298370 0.248831
-2.254958 -6.351603 0.252182
-2.270045 -6.366831 0.253162
-2.284075 -6.368083 0.253276
-2.297110 -6.358251 0.252707
-2.309997 -6.347860 0.252115
-2.323711 -6.346698 0.252117
-2.338427 -6.355167 0.252738
-2.354007 -6.370764 0.253823
-2.367548 -6.367308 0.253726
-2.380428 -6.358592 0.253315
-2.390964 -6.331676 0.251773
-2.403700 -6.323792 0.251445
-2.419521 -6.339524 0.252624
-2.433625 -6.341760 0.252970
-2.445351 -6.327239 0.252273
-2.459667 -6.331117 0.252757
-2.475171 -6.342492 0.253736
-2.487350 -6.332043 0.253347
-2.501225 -6.332619 0.253676
-2.515190 -6.333645 0.254052
-2.528243 -6.329259 0.254100
-2.541612 -6.326845 0.254291
-2.555081 -6.325047 0.254539
-2.569213 -6.326829 0.255034
-2.584413 -6.334042 0.255896
-2.597059 -6.327788 0.255909
-2.609243 -6.319449 0.255803
-2.621238 -6.310502 0.255671
-2.634209 -6.306519 0.255876
-2.645796 -6.296187 0.255683
-2.658989 -6.293521 0.256004
-2.669704 -6.279851 0.255619
-2.677395 -6.253490 0.254412
-2.686797 -6.235413 0.253756
-2.702341 -6.243627 0.254847
-2.721599 -6.266620 0.256935
-2.733115 -6.257525 0.256915
-2.742904 -6.241871 0.256468
-2.754266 -6.232773 0.256469
-2.771966 -6.247922 0.258108
-2.788464 -6.257929 0.259422
-2.804654 -6.266334 0.260648
-2.816451 -6.258554 0.260793
-2.831128 -6.261082 0.261651
-2.843563 -6.255630 0.261979
-2.856804 -6.252987 0.262512
-2.866451 -6.238269 0.262225
-2.875022 -6.220368 0.261724
-2.888213 -6.217891 0.262297
-2.910940 -6.245778 0.264998
-2.922228 -6.236756 0.265146
-2.933711 -6.228491 0.265355
-2.949582 -6.233696 0.266522
-2.964316 -6.235207 0.267444
-2.973706 -6.220781 0.267247
-2.981468 -6.201921 0.266737
-2.995711 -6.202042 0.267590
-3.012536 -6.209310 0.268970
-3.026883 -6.209346 0.269844
-3.039159 -6.203576 0.270309
-3.049964 -6.193859 0.270495
-3.055996 -6.171567 0.269765
-3.058791 -6.141251 0.268442
-3.071218 -6.136593 0.269009
-3.087705 -6.142307 0.270355
-3.109408 -6.160893 0.272678
-3.114314 -6.137054 0.271845
-3.063432 -5.943716 0.259135
-3.077652 -5.945489 0.260183
-3.090081 -5.942862 0.260907
-3.105155 -5.946346 0.262110
-3.117005 -5.942193 0.262738
-3.125814 -5.931106 0.262837
-3.140358 -5.933048 0.263955
-3.156211 -5.937721 0.265300
-3.168617 -5.934606 0.266047
-3.176888 -5.922485 0.266091
-3.188912 -5.918559 0.266790
-3.210346 -5.934490 0.269087
-3.220290 -5.925920 0.269439
-3.231053 -5.919117 0.269939
-3.248691 -5.926372 0.271589
-3.260284 -5.921140 0.272239
-3.273788 -5.919713 0.273209
-3.285271 -5.914205 0.273855
-3.294975 -5.905227 0.274222
-3.307541 -5.901839 0.275061
-3.323585 -5.905025 0.276463
-3.338982 -5.906793 0.277762
-3.351551 -5.903121 0.278617
-3.359334 -5.890577 0.278725
-3.378672 -5.899244 0.280657
-3.396794 -5.905400 0.282398
-3.409928 -5.902392 0.283364
-3.421417 -5.896411 0.284083
-3.437707 -5.898806 0.285550
-3.450396 -5.894796 0.286469
-3.465972 -5.895671 0.287836
-3.483569 -5.899809 0.289514
-3.497896 -5.898251 0.290702
-3.508454 -5.890338 0.291331
-3.530006 -5.900481 0.293616
-3.541966 -5.894705 0.294472
-3.550694 -5.883712 0.294861
-3.564742 -5.881261 0.296050
-3.581227 -5.882551 0.297606
-3.595638 -5.880437 0.298866
-3.609447 -5.877293 0.300047
-3.625584 -5.877617 0.301577
-3.640041 -5.875246 0.302872
-3.654681 -5.873045 0.304204
-3.665485 -5.865050 0.304995
-3.679205 -5.861338 0.306219
-3.699621 -5.867276 0.308413
-3.719720 -5.872484 0.310568
-3.735090 -5.870692 0.312058
-3.749139 -5.866910 0.313373
-3.766721 -5.867976 0.315201
-3.780814 -5.864030 0.316549
-3.795691 -5.861066 0.318020
-3.813211 -5.861579 0.319876
-3.831577 -5.863050 0.321863
-3.849945 -5.864322 0.323863
-3.867556 -5.864398 0.325770
-3.877918 -5.854826 0.326682
-3.895939 -5.855165 0.328676
-3.914487 -5.855993 0.330756
-3.928228 -5.850522 0.332186
-3.939102 -5.841363 0.333237
-3.953286 -5.836314 0.334762
-3.974405 -5.839724 0.337259
-3.997562 -5.845369 0.340050
-4.011550 -5.839618 0.341597
-4.017711 -5.824395 0.342087
-4.042206 -5.831036 0.345108
-4.068651 -5.839644 0.348410
-4.085701 -5.836944 0.350441
-4.100414 -5.831393 0.352170
-4.125021 -5.837054 0.355265
-4.131633 -5.822019 0.355922
-4.164186 -5.836166 0.360128
-4.181363 -5.832749 0.362255
-4.191334 -5.821252 0.363416
-4.211614 -5.821004 0.365993
-4.237340 -5.826435 0.369322
-4.251567 -5.819247 0.371102
-4.265339 -5.811502 0.372831
-4.285781 -5.810699 0.375475
-4.304255 -5.807655 0.377861
-4.326476 -5.808325 0.380761
-4.344627 -5.804626 0.383115
-4.363731 -5.801761 0.385600
-4.387362 -5.803288 0.388700
-4.408872 -5.802490 0.391511
-4.429373 -5.800529 0.394181
-4.446561 -5.795198 0.396396
-4.463362 -5.789420 0.398549
-4.479140 -5.782605 0.400551
-4.493460 -5.774380 0.402341
-4.510464 -5.768677 0.404473
-4.535198 -5.770128 0.407624
-4.560795 -5.772219 0.410863
-4.577639 -5.766171 0.412889
-4.583417 -5.750131 0.413390
-4.589972 -5.734988 0.413957
-4.591490 -5.715575 0.413806
-4.594670 -5.697912 0.413835
-4.598638 -5.681207 0.413923
-4.602203 -5.664418 0.413905
-4.600323 -5.643246 0.413106
-4.598843 -5.622780 0.412306
-4.603905 -5.608186 0.412322
-4.606282 -5.591629 0.411919
-4.608665 -5.575394 0.411454
-4.612087 -5.560336 0.411063
-4.619801 -5.549080 0.411173
-4.595203 -5.512012 0.406964
-4.618420 -5.497402 0.407879
-4.622055 -5.484136 0.407188
-4.613740 -5.431408 0.402249
-4.645992 -5.441358 0.404980
-1.792337 -6.104444 0.212218
-1.801973 -6.102542 0.213225
-1.811461 -6.104324 0.214376
-1.820141 -6.118634 0.216158
-1.829826 -6.123332 0.217365
-1.840507 -6.117009 0.217908
-1.851313 -6.110608 0.218384
-1.860834 -6.126093 0.220025
-1.871507 -6.127123 0.220804
-1.883131 -6.114104 0.220733
-1.894212 -6.112468 0.221245
-1.904786 -6.124332 0.222470
-1.916604 -6.113026 0.222322
-1.928396 -6.103388 0.222214
-1.940089 -6.097921 0.222294
-1.951720 -6.096922 0.222582
-1.963582 -6.091019 0.222542
-1.975275 -6.095475 0.223057
-1.987161 -6.096766 0.223350
-1.999095 -6.102476 0.223864
-2.011227 -6.100109 0.223876
-2.023396 -6.103234 0.224176
-2.035654 -6.099711 0.224063
-2.047976 -6.102023 0.224264
-2.060334 -6.100635 0.224229
-2.072623 -6.092285 0.223772
-2.084960 -6.088113 0.223541
-2.097454 -6.090389 0.223673
-2.109843 -6.087311 0.223484
-2.122425 -6.089930 0.223618
-2.134825 -6.086652 0.223405
-2.147110 -6.081009 0.223051
-2.159609 -6.080585 0.223000
-2.174428 -6.123715 0.225479
-2.194660 -6.253168 0.232973
-2.208103 -6.254380 0.233024
-2.221683 -6.257350 0.233183
-2.237105 -6.285441 0.234809
-2.255458 -6.348129 0.238452
-2.271323 -6.373022 0.239912
-2.285317 -6.373512 0.239966
-2.297955 -6.359088 0.239168
-2.310493 -6.345065 0.238406
-2.324345 -6.345427 0.238493
-2.338182 -6.345633 0.238586
-2.352268 -6.348089 0.238826
-2.366091 -6.348058 0.238937
-2.379452 -6.344188 0.238841
-2.392191 -6.335616 0.238487
-2.404792 -6.326594 0.238122
-2.419975 -6.337480 0.238937
-2.434035 -6.339511 0.239252
-2.446893 -6.333008 0.239086
-2.461160 -6.336399 0.239516
-2.475469 -6.339827 0.239967
-2.488521 -6.335043 0.239953
-2.501026 -6.327133 0.239771
-2.514577 -6.325877 0.239998
-2.528382 -6.326115 0.240331
-2.542468 -6.327863 0.240770
-2.555147 -6.321722 0.240759
-2.568144 -6.317528 0.240880
-2.582851 -6.322417 0.241559
-2.595935 -6.318711 0.241742
-2.606497 -6.302547 0.241194
-2.620616 -6.304346 0.241737
-2.634540 -6.305050 0.242231
-2.648049 -6.303710 0.242619
-2.658604 -6.288912 0.242207
-2.672206 -6.288193 0.242661
-2.674011 -6.236088 0.239999
-2.686372 -6.231008 0.240208
-2.701731 -6.238544 0.241204
-2.719045 -6.253670 0.242684
-2.735743 -6.265624 0.243990
-2.748196 -6.260311 0.244247
-2.756558 -6.239301 0.243540
-2.772795 -6.248776 0.244740
-2.789837 -6.260786 0.246117
-2.804136 -6.262227 0.246849
-2.816707 -6.257304 0.247196
-2.830435 -6.256505 0.247814
-2.842329 -6.249261 0.248037
-2.853643 -6.240166 0.248152
-2.864990 -6.231358 0.248294
-2.875074 -6.218561 0.248188
-2.889153 -6.218987 0.248943
-2.908016 -6.234519 0.250689
-2.924785 -6.242861 0.251989
-2.934473 -6.228961 0.251852
-2.948370 -6.228148 0.252580
-2.964077 -6.232646 0.253670
-2.975192 -6.223342 0.253861
-2.984550 -6.209085 0.253730
-2.998127 -6.207184 0.254428
-3.014136 -6.212061 0.255592
-3.029331 -6.214406 0.256601
-3.040334 -6.205070 0.256832
-3.049441 -6.190742 0.256730
-3.053508 -6.163265 0.255732
-3.060627 -6.144423 0.255322
-3.070986 -6.134357 0.255516
-3.086399 -6.137343 0.256621
-3.104570 -6.147071 0.258209
-3.110972 -6.127137 0.257739
-3.068896 -5.955481 0.247472
-3.077655 -5.944028 0.247552
-3.091823 -5.945515 0.248558
-3.104990 -5.944507 0.249398
-3.117943 -5.942910 0.250206
-3.130219 -5.939687 0.250906
-3.136787 -5.923606 0.250677
-3.158962 -5.942401 0.253005
-3.169798 -5.935777 0.253485
-3.180479 -5.928854 0.253949
-3.194619 -5.929365 0.254974
-3.208861 -5.929956 0.256018
-3.221721 -5.927522 0.256846
-3.234877 -5.925629 0.257725
-3.244517 -5.916482 0.258064
-3.259468 -5.918127 0.259233
-3.272728 -5.916238 0.260145
-3.285356 -5.913021 0.260965
-3.296448 -5.906754 0.261558
-3.310532 -5.906264 0.262612
-3.326954 -5.910110 0.264020
-3.343229 -5.913466 0.265407
-3.350794 -5.900392 0.265502
-3.360815 -5.892000 0.265976
-3.384917 -5.909321 0.268528
-3.399622 -5.909197 0.269697
-3.412476 -5.905642 0.270603
-3.423721 -5.899191 0.271283
-3.439060 -5.899892 0.272563
-3.453599 -5.899059 0.273733
-3.469656 -5.900705 0.275126
-3.485206 -5.901323 0.276451
-3.497154 -5.895761 0.277273
-3.510745 -5.892898 0.278336
-3.524340 -5.889961 0.279408
-3.540356 -5.890872 0.280827
-3.552708 -5.885739 0.281743
-3.569039 -5.886894 0.283222
-3.581614 -5.881971 0.284188
-3.595296 -5.878728 0.285318
-3.607708 -5.873444 0.286283
-3.628129 -5.880347 0.288357
-3.642319 -5.877545 0.289586
-3.653730 -5.870491 0.290447
-3.665673 -5.864211 0.291394
-3.678929 -5.859828 0.292531
-3.702065 -5.869729 0.295013
-3.720015 -5.871822 0.296804
-3.732300 -5.865644 0.297844
-3.741785 -5.855478 0.298525
-3.760794 -5.858652 0.300492
-3.778691 -5.860062 0.302322
-3.793387 -5.856893 0.303738
-3.808208 -5.853787 0.305185
-3.836380 -5.868513 0.308412
-3.851045 -5.864810 0.309863
-3.866748 -5.862370 0.311466
-3.881085 -5.858017 0.312905
-3.895106 -5.853159 0.314318
-3.914279 -5.854812 0.316422
-3.926402 -5.847306 0.317619
-3.938538 -5.839775 0.318835
-3.954817 -5.837356 0.320608
-3.977625 -5.842844 0.323248
-3.994168 -5.840387 0.325088
-4.005977 -5.832054 0.326329
-4.025035 -5.832371 0.328529
-4.045354 -5.833983 0.330909
-4.067174 -5.837131 0.333499
-4.081038 -5.830748 0.335075
-4.091465 -5.820316 0.336224
-4.107107 -5.815838 0.338065
-4.139559 -5.830271 0.342094
-4.159563 -5.830265 0.344530
