ply
format ascii 1.0
comment ---
element vertex 1594
property float x
property float y
property float z
element face 0
property list uchar uint vertex_indices
end_header
-3.463741 -3.237977 -1.463709
-3.471891 -3.225918 -1.460981
-3.480516 -3.214644 -1.458789
-3.485718 -3.198539 -1.453194
-3.491639 -3.183639 -1.448413
-3.498069 -3.169604 -1.444216
-3.505398 -3.156949 -1.440974
-3.568901 -3.198124 -1.482089
-3.579706 -3.189695 -1.482029
-3.583593 -3.062642 -1.425437
-3.599120 -3.060882 -1.430140
-3.635769 -3.084903 -1.454066
-3.656917 -3.089402 -1.463623
-3.670106 -3.084060 -1.465889
-3.674587 -3.068299 -1.460335
-3.679662 -3.053387 -1.455383
-3.687189 -3.041456 -1.452664
-3.703412 -3.039595 -1.457617
-3.712429 -3.029387 -1.456223
-3.748728 -3.049922 -1.478498
-3.771461 -3.054721 -1.488811
-3.777000 -3.040274 -1.484276
-3.779793 -3.022948 -1.477462
-3.790637 -3.014479 -1.477541
-3.798916 -3.003257 -1.475463
-3.817693 -3.003165 -1.482182
-3.829314 -2.995403 -1.482878
-3.836914 -2.983452 -1.480247
-3.849744 -2.976906 -1.481938
-3.872008 -2.979849 -1.491305
-3.871615 -2.959844 -1.482190
-3.872056 -2.940888 -1.473854
-3.881387 -2.930848 -1.472739
-3.900458 -2.930266 -1.479396
-3.897255 -2.908122 -1.468332
-3.910313 -2.901685 -1.470201
-3.929479 -2.900920 -1.476831
-3.957430 -2.908138 -1.490228
-3.975460 -2.905875 -1.495790
-3.985610 -2.896281 -1.495222
-3.992711 -2.883938 -1.492324
-4.014663 -2.884877 -1.500766
-4.022463 -2.873112 -1.498396
-4.026758 -2.858328 -1.493411
-4.035997 -2.847911 -1.492183
-4.042909 -2.835515 -1.489232
-4.065372 -2.836305 -1.497835
-4.079870 -2.830207 -1.500475
-4.089660 -2.820128 -1.499633
-4.095021 -2.806423 -1.495569
-4.099582 -2.792142 -1.490965
-4.108411 -2.781363 -1.489488
-4.137137 -2.786351 -1.502307
-4.120992 -2.755851 -1.482948
-4.123989 -2.740617 -1.477386
-4.128963 -2.727002 -1.473277
-4.141809 -2.719423 -1.474743
-4.177686 -2.729059 -1.492303
-4.143289 -2.686107 -1.460772
-4.143995 -2.669620 -1.453865
-4.138321 -2.648630 -1.442630
-4.130516 -2.626334 -1.430043
-4.136564 -2.614134 -1.427029
-4.146435 -2.604653 -1.426637
-4.146901 -2.588614 -1.419894
-4.143950 -2.570345 -1.410918
-4.135915 -2.548790 -1.398626
-4.138943 -2.534906 -1.393814
-4.141172 -2.520563 -1.388517
-4.141881 -2.505302 -1.382264
-4.140922 -2.489058 -1.374975
-4.142355 -2.474473 -1.369314
-4.138029 -2.456318 -1.359961
-4.125185 -2.432987 -1.345184
-4.124927 -2.417746 -1.338643
-4.127363 -2.404257 -1.333886
-4.126067 -2.388568 -1.326789
-4.121738 -2.371175 -1.317830
-4.122854 -2.357155 -1.312389
-4.123473 -2.342916 -1.306680
-4.123440 -2.328379 -1.300612
-4.117768 -2.310708 -1.291081
-4.119103 -2.297147 -1.285977
-4.117859 -2.282210 -1.279322
-4.102923 -2.259834 -1.264308
-4.127838 -2.259391 -1.273801
-4.102280 -2.231598 -1.252467
-4.105494 -2.219467 -1.248760
-4.100146 -2.202882 -1.239912
-4.100327 -2.189292 -1.234458
-4.104086 -2.177590 -1.231186
-4.104447 -2.164191 -1.225911
-4.103415 -2.150159 -1.219850
-4.103373 -2.136688 -1.214418
-4.098855 -2.121110 -1.206396
-4.094086 -2.105531 -1.198287
-4.093428 -2.092008 -1.192636
-4.100278 -2.082039 -1.191379
-4.086613 -2.062637 -1.178277
-4.081265 -2.047225 -1.170061
-4.082828 -2.035017 -1.165861
-4.084314 -2.022810 -1.161643
-4.080474 -2.008336 -1.154428
-4.075974 -1.993684 -1.146891
-4.079320 -1.982447 -1.143821
-4.083536 -1.971589 -1.141252
-4.084346 -1.959349 -1.136793
-4.073993 -1.942672 -1.126161
-4.073325 -1.930022 -1.120961
-4.070214 -1.916495 -1.114448
-4.069328 -1.903931 -1.109197
-4.065293 -1.890261 -1.102257
-4.056959 -1.875117 -1.093025
-4.056023 -1.862863 -1.087862
-4.059433 -1.852273 -1.085072
-4.058330 -1.840135 -1.079869
-4.056507 -1.827855 -1.074310
-4.058741 -1.817093 -1.070944
-4.061273 -1.806514 -1.067750
-4.050911 -1.791744 -1.057764
-4.054806 -1.781865 -1.055341
-4.055140 -1.770930 -1.051061
-4.054771 -1.759905 -1.046438
-4.046626 -1.746616 -1.037805
-4.036176 -1.732861 -1.028042
-4.038142 -1.723091 -1.024738
-4.040641 -1.713620 -1.021724
-4.045406 -1.704948 -1.019882
-4.043303 -1.694448 -1.014556
-4.036794 -1.682916 -1.007035
-4.033042 -1.672388 -1.000959
-4.045745 -1.666530 -1.003186
-4.044712 -1.657096 -0.998522
-4.038885 -1.646612 -0.991506
-4.033157 -1.636400 -0.984593
-4.009528 -1.621909 -0.968894
-2.568572 -3.846371 -1.483532
-2.583246 -3.792178 -1.462903
-2.625566 -3.804683 -1.483392
-2.655576 -3.755048 -1.469272
-2.663382 -3.729231 -1.459260
-2.672653 -3.709815 -1.452775
-2.689018 -3.718867 -1.462325
-2.705905 -3.728981 -1.472519
-2.725520 -3.748535 -1.488126
-2.736598 -3.734868 -1.484863
-2.746207 -3.715930 -1.478550
-2.764988 -3.730222 -1.491255
-2.773681 -3.708126 -1.483078
-2.782831 -3.688130 -1.476053
-2.793391 -3.673359 -1.472001
-2.805853 -3.665168 -1.471737
-2.822477 -3.670531 -1.479360
-2.825718 -3.632828 -1.461853
-2.844714 -3.645542 -1.473789
-2.853566 -3.626457 -1.467093
-2.862923 -3.609397 -1.461546
-2.875643 -3.602711 -1.462099
-2.892974 -3.609499 -1.470649
-2.907968 -3.609214 -1.475039
-2.920833 -3.602808 -1.475800
-2.936705 -3.563448 -1.461382
-2.954117 -3.569831 -1.469816
-2.968202 -3.567133 -1.472812
-2.981049 -3.522635 -1.455076
-3.014144 -3.568010 -1.487405
-3.025888 -3.522081 -1.468731
-3.062602 -3.537184 -1.487566
-3.078161 -3.502525 -1.475698
-3.083264 -3.479718 -1.466294
-3.091008 -3.463295 -1.460833
-3.103369 -3.457314 -1.461903
-3.125411 -3.472272 -1.476189
-3.139851 -3.470493 -1.479988
-3.141521 -3.441803 -1.466738
-3.160330 -3.449260 -1.476426
-3.161233 -3.419775 -1.462581
-3.169036 -3.404851 -1.457985
-3.188510 -3.413401 -1.468465
-3.215760 -3.436851 -1.488645
-3.225309 -3.425236 -1.486256
-3.227793 -3.400252 -1.475168
-3.231928 -3.378873 -1.466363
-3.242011 -3.368974 -1.465018
-3.258115 -3.370258 -1.471016
-3.278429 -3.379007 -1.481986
-3.282811 -3.358778 -1.473872
-3.293420 -3.349929 -1.473264
-3.312067 -3.355214 -1.482076
-3.322898 -3.346688 -1.481725
-3.321651 -3.317564 -1.467558
-3.341579 -3.298312 -1.465297
-3.347492 -3.282104 -1.459702
-3.357754 -3.273197 -1.459044
-3.381438 -3.285932 -1.473182
-3.409532 -3.305212 -1.491925
-3.398765 -3.262790 -1.468328
-3.412091 -3.258607 -1.470994
-3.420345 -3.246561 -1.468232
-3.425486 -3.229894 -1.462240
-3.440778 -3.228665 -1.467003
-3.457627 -3.229600 -1.473330
-3.467730 -3.220445 -1.472607
-3.475567 -3.208034 -1.469584
-3.479782 -3.190534 -1.462932
-3.476093 -3.162047 -1.448405
-3.496791 -3.145348 -1.447968
-3.509599 -3.140381 -1.450200
-3.553497 -3.177474 -1.482923
-3.548682 -3.148289 -1.467721
-3.552884 -3.131514 -1.461465
-3.578133 -3.076937 -1.445309
-3.584166 -3.063229 -1.441160
-3.602310 -3.064662 -1.448321
-3.629891 -3.077462 -1.464096
-3.653692 -3.085212 -1.476202
-3.665553 -3.078274 -1.477285
-3.667500 -3.059517 -1.469388
-3.682409 -3.056209 -1.473245
-3.692771 -3.047497 -1.472996
-3.693274 -3.027446 -1.464007
-3.706552 -3.022169 -1.466397
-3.728227 -3.026266 -1.476113
-3.772825 -3.055612 -1.505664
-3.760524 -3.021458 -1.485627
-3.765642 -3.006820 -1.480814
-3.770418 -2.991934 -1.475771
-3.781161 -2.983534 -1.475857
-3.789984 -2.973094 -1.474322
-3.810217 -2.974597 -1.482380
-3.825029 -2.970273 -1.485820
-3.841754 -2.967800 -1.490806
-3.854320 -2.960976 -1.492306
-3.862137 -2.949346 -1.489898
-3.864590 -2.932452 -1.483149
-3.877715 -2.926170 -1.485119
-3.895111 -2.923963 -1.490505
-3.888483 -2.898561 -1.476600
-3.890215 -2.881428 -1.469507
-3.914973 -2.886076 -1.480715
-3.944757 -2.895093 -1.495749
-3.963028 -2.893136 -1.501606
-3.962492 -2.873910 -1.492764
-3.972454 -2.864330 -1.492143
-3.997799 -2.868441 -1.503364
-4.006069 -2.857216 -1.501393
-4.008237 -2.840702 -1.494801
-4.020393 -2.832937 -1.495838
-4.025032 -2.818714 -1.491205
-4.034562 -2.808708 -1.490282
-4.052245 -2.805508 -1.495439
-4.071053 -2.803090 -1.501373
-4.079897 -2.792366 -1.499902
-4.089479 -2.782247 -1.498986
-4.090793 -2.765512 -1.492049
-4.091336 -2.748304 -1.484625
-4.097075 -2.735310 -1.481025
-4.103462 -2.722875 -1.477926
-4.112855 -2.712785 -1.477002
-4.125333 -2.705025 -1.478279
-4.118748 -2.682922 -1.466067
-4.116066 -2.663963 -1.456722
-4.129941 -2.657325 -1.459052
-4.134460 -2.643818 -1.454845
-4.121119 -2.617568 -1.438307
-4.127179 -2.605420 -1.435302
-4.144088 -2.600914 -1.439764
-4.145518 -2.585538 -1.433618
-4.141718 -2.566676 -1.423977
-4.127472 -2.540910 -1.407370
-4.129565 -2.526438 -1.401908
-4.140903 -2.518178 -1.402682
-4.140991 -2.502488 -1.395955
-4.137708 -2.484722 -1.387054
-4.135687 -2.467923 -1.379069
-4.131557 -2.449922 -1.369770
-4.131765 -2.434802 -1.363391
-4.129925 -2.418511 -1.355737
-4.126876 -2.401605 -1.347367
-4.120703 -2.382949 -1.337060
-4.118163 -2.366646 -1.329175
-4.123810 -2.355302 -1.326583
-4.129096 -2.343756 -1.323781
-4.122098 -2.325142 -1.313233
-4.117282 -2.307951 -1.304151
-4.113337 -2.291399 -1.295692
-4.113991 -2.277535 -1.290172
-4.109659 -2.261003 -1.281602
-4.105160 -2.244514 -1.273001
-4.102736 -2.229271 -1.265748
-4.096685 -2.212212 -1.256332
-4.094662 -2.197407 -1.249449
-4.099846 -2.186411 -1.246997
-4.100221 -2.172964 -1.241652
-4.102713 -2.160640 -1.237621
-4.101810 -2.146665 -1.231585
-4.102218 -2.133404 -1.226376
-4.093444 -2.115767 -1.215753
-4.092516 -2.102039 -1.209852
-4.094207 -2.089612 -1.205536
-4.092261 -2.075536 -1.199116
-4.088026 -2.060496 -1.191408
-4.079926 -2.043826 -1.181511
-4.082728 -2.032160 -1.177995
-4.085078 -2.020316 -1.174238
-4.084200 -2.007108 -1.168652
-4.080928 -1.992950 -1.161735
-4.081522 -1.980513 -1.157064
-4.082964 -1.968480 -1.152901
-4.080562 -1.954927 -1.146595
-4.075935 -1.940577 -1.139081
-4.068016 -1.925050 -1.129779
-4.067228 -1.912460 -1.124510
-4.067647 -1.900414 -1.119942
-4.061127 -1.885826 -1.111570
-4.058490 -1.872835 -1.105388
-4.055457 -1.859815 -1.099028
-4.057233 -1.848646 -1.095327
-4.060775 -1.838175 -1.092601
-4.058584 -1.825771 -1.086786
-4.059283 -1.814486 -1.082561
-4.058874 -1.802933 -1.077763
-4.057881 -1.791311 -1.072680
-4.051718 -1.778145 -1.064879
-4.051189 -1.766979 -1.060111
-4.051454 -1.756208 -1.055786
-4.050851 -1.745311 -1.051031
-4.033662 -1.729539 -1.037640
-4.035380 -1.719745 -1.034182
-4.049494 -1.713734 -1.037161
-4.034831 -1.699454 -1.025265
-4.041821 -1.691631 -1.024577
-4.044873 -1.682825 -1.021873
-4.030480 -1.669396 -1.010297
-4.041735 -1.663196 -1.011819
-4.045662 -1.655144 -1.009622
-4.039751 -1.644691 -1.002487
-4.036796 -1.635242 -0.996888
-4.049949 -1.630068 -0.999369
-2.576812 -3.771327 -1.466347
-2.605356 -3.783927 -1.482466
-2.643644 -3.773826 -1.490497
-2.656494 -3.710678 -1.463808
-2.664881 -3.688108 -1.455438
-2.694175 -3.692986 -1.467141
-2.722799 -3.692779 -1.475989
-2.740581 -3.704708 -1.487385
-2.743715 -3.663024 -1.467751
-2.754405 -3.649266 -1.464225
-2.772794 -3.662297 -1.476294
-2.785836 -3.656384 -1.477340
-2.796180 -3.641443 -1.473084
-2.805662 -3.623996 -1.467318
-2.817941 -3.615894 -1.467027
-2.828146 -3.601362 -1.462919
-2.841893 -3.598052 -1.465447
-2.852500 -3.585179 -1.462288
-2.867184 -3.584679 -1.466501
-2.879821 -3.578057 -1.467066
-2.892579 -3.571846 -1.467879
-2.896232 -3.540065 -1.453269
-2.906147 -3.526543 -1.449617
-2.923428 -3.533370 -1.458297
-2.943219 -3.546553 -1.470902
-2.954046 -3.535576 -1.468828
-2.953673 -3.495807 -1.449098
-2.963179 -3.482354 -1.445424
-3.005321 -3.551080 -1.492412
-3.002740 -3.470574 -1.452017
-3.027959 -3.495457 -1.472190
-3.051707 -3.515997 -1.489784
-3.061646 -3.503700 -1.486918
-3.060918 -3.467199 -1.468820
-3.065985 -3.444704 -1.459445
-3.079237 -3.440936 -1.461865
-3.092539 -3.437250 -1.464360
-3.111922 -3.446687 -1.475236
-3.127447 -3.447499 -1.480680
-3.125757 -3.411943 -1.462843
-3.143944 -3.418453 -1.471961
-3.166312 -3.433205 -1.486469
-3.172924 -3.415605 -1.480124
-3.190571 -3.420313 -1.488245
-3.205436 -3.419281 -1.492685
-3.210213 -3.398552 -1.484271
-3.217502 -3.383020 -1.479220
-3.222079 -3.362609 -1.470927
-3.246701 -3.351383 -1.473831
-3.254094 -3.336803 -1.469340
-3.262993 -3.297807 -1.453686
-3.294037 -3.325406 -1.477493
-3.304976 -3.317364 -1.477399
-3.303937 -3.288869 -1.463446
-3.315702 -3.282534 -1.464480
-3.324942 -3.271972 -1.462644
-3.338098 -3.267955 -1.465289
-3.345247 -3.254081 -1.461180
-3.353373 -3.241942 -1.458247
-3.368669 -3.241329 -1.463291
-3.381745 -3.237071 -1.465845
-3.398207 -3.238005 -1.472054
-3.408377 -3.229082 -1.471408
-3.417935 -3.219262 -1.470134
-3.431199 -3.215057 -1.472828
-3.448073 -3.216131 -1.479293
-3.456942 -3.205263 -1.477316
-3.466174 -3.194992 -1.475760
-3.474068 -3.182856 -1.472862
-3.466018 -3.148216 -1.453740
-3.470867 -3.132256 -1.447984
-3.478079 -3.119752 -1.444700
-3.494675 -3.120210 -1.450850
-3.516136 -3.127075 -1.461746
-3.536915 -3.132696 -1.471826
-3.539283 -3.091661 -1.453527
-3.543828 -3.075906 -1.447822
-3.563972 -3.080315 -1.457142
-3.574838 -3.072680 -1.457514
-3.586045 -3.065459 -1.458211
-3.601313 -3.063251 -1.462715
-3.618733 -3.063548 -1.469170
-3.659445 -3.091926 -1.497115
-3.652852 -3.041762 -1.471475
-3.675753 -3.047985 -1.482699
-3.699428 -3.054787 -1.494480
-3.693787 -3.027549 -1.479835
-3.698647 -3.012647 -1.474730
-3.718840 -3.015129 -1.483266
-3.723359 -2.999919 -1.477909
-3.735420 -2.993150 -1.479214
-3.739910 -2.978086 -1.473927
-3.738550 -2.956846 -1.463658
-3.760560 -2.960789 -1.473567
-3.773969 -2.955383 -1.476022
-3.788742 -2.951324 -1.479605
-3.804733 -2.948414 -1.484172
-3.821786 -2.946458 -1.489575
-3.836626 -2.942111 -1.493071
-3.843868 -2.930059 -1.490238
-3.850946 -2.917903 -1.487303
-3.877944 -2.925310 -1.500699
-3.877946 -2.906209 -1.491982
-3.877724 -2.887099 -1.483186
-3.887474 -2.877648 -1.482506
-3.905092 -2.875579 -1.488125
-3.927364 -2.877674 -1.497380
-3.940180 -2.870836 -1.499056
-3.945996 -2.857578 -1.495209
-3.975081 -2.865314 -1.509593
-3.980305 -2.851456 -1.505270
-3.991543 -2.842976 -1.505643
-4.005899 -2.837180 -1.508408
-4.006664 -2.819589 -1.500750
-4.014179 -2.807912 -1.498307
-4.021205 -2.795860 -1.495520
-4.030044 -2.785363 -1.494126
-4.044556 -2.779557 -1.496991
-4.064160 -2.777817 -1.503614
-4.069982 -2.764765 -1.499962
-4.066650 -2.744461 -1.489605
-4.068322 -2.728328 -1.483021
-4.081530 -2.721338 -1.484912
-4.091538 -2.711803 -1.484463
-4.100440 -2.701405 -1.483218
-4.111629 -2.692736 -1.483625
-4.110051 -2.674474 -1.474912
-4.111804 -2.658847 -1.468651
-4.122489 -2.649870 -1.468765
-4.130603 -2.638997 -1.467068
-4.128145 -2.620559 -1.457988
-4.123039 -2.600417 -1.447153
-4.125130 -2.585526 -1.441409
-4.144714 -2.582843 -1.447778
-4.138244 -2.562139 -1.436211
-4.116917 -2.531595 -1.414611
-4.125698 -2.521654 -1.413672
-4.132735 -2.510542 -1.411561
-4.136984 -2.497612 -1.407591
-4.137364 -2.482226 -1.401067
-4.128685 -2.461148 -1.388565
-4.132696 -2.448328 -1.384595
-4.135356 -2.434708 -1.379767
-4.134319 -2.418865 -1.372553
-4.129866 -2.401051 -1.363169
-4.121539 -2.381058 -1.351349
-4.116264 -2.363096 -1.341611
-4.118815 -2.349912 -1.337006
-4.125278 -2.339058 -1.334949
-4.126542 -2.325207 -1.329585
-4.114870 -2.304072 -1.316041
-4.112395 -2.288344 -1.308436
-4.104781 -2.269879 -1.297659
-4.107858 -2.257450 -1.293678
-4.109001 -2.244009 -1.288521
-4.105081 -2.227921 -1.280257
-4.097628 -2.210093 -1.269876
-4.108371 -2.201911 -1.270789
-4.106854 -2.187350 -1.264169
-4.104027 -2.172212 -1.256802
-4.096503 -2.154822 -1.246638
-4.103619 -2.144832 -1.245415
-4.100873 -2.130000 -1.238253
-4.098682 -2.115532 -1.231479
-4.089580 -2.097872 -1.220629
-4.088121 -2.083968 -1.214409
-4.089439 -2.071424 -1.209878
-4.085304 -2.056437 -1.202162
-4.081460 -2.041692 -1.194675
-4.080560 -2.028357 -1.188962
-4.083315 -2.016687 -1.185415
-4.084730 -2.004465 -1.181111
-4.083827 -1.991302 -1.175496
-4.082229 -1.977920 -1.169518
-4.078937 -1.963923 -1.162610
-4.073902 -1.949324 -1.154756
-4.075666 -1.937569 -1.150812
-4.072248 -1.923821 -1.143962
-4.066258 -1.909192 -1.135711
-4.068418 -1.897816 -1.132079
-4.069826 -1.886210 -1.128044
-4.062329 -1.871382 -1.119087
-4.060128 -1.858654 -1.113118
-4.060091 -1.846818 -1.108376
-4.060938 -1.835391 -1.104144
-4.063746 -1.824735 -1.101003
-4.061450 -1.812420 -1.095100
-4.057112 -1.799563 -1.088127
-4.049761 -1.785884 -1.079573
-4.051109 -1.775230 -1.075746
-4.050165 -1.763968 -1.070712
-4.049124 -1.752827 -1.065654
-4.047389 -1.741632 -1.060258
-4.032973 -1.726777 -1.048202
-4.036719 -1.717628 -1.045778
-4.035965 -1.707293 -1.041008
-4.028071 -1.695088 -1.032546
-4.043803 -1.689805 -1.036405
-4.041197 -1.679464 -1.030745
-4.036331 -1.668718 -1.023960
-4.035151 -1.659194 -1.019113
-4.043141 -1.652290 -1.018980
-4.030697 -1.640213 -1.008454
-4.033744 -1.632388 -1.005853
-4.061276 -1.630869 -1.015615
-2.578127 -3.726583 -1.460706
-2.598474 -3.762252 -1.485373
-2.613651 -3.771513 -1.495213
-2.657343 -3.667204 -1.458362
-2.666523 -3.648635 -1.452117
-2.681301 -3.652248 -1.458652
-2.694421 -3.648776 -1.461096
-2.705242 -3.636272 -1.458281
-2.715670 -3.622367 -1.454614
-2.723424 -3.598948 -1.445336
-2.741600 -3.612944 -1.457973
-2.754908 -3.609150 -1.460189
-2.766073 -3.597890 -1.457994
-2.781431 -3.600733 -1.464138
-2.794572 -3.595945 -1.465771
-2.803711 -3.578257 -1.459710
-2.815484 -3.569279 -1.458817
-2.830251 -3.569655 -1.463527
-2.846825 -3.575294 -1.471429
-2.861171 -3.573908 -1.475134
-2.868609 -3.552202 -1.466548
-2.872736 -3.521575 -1.452486
-2.885066 -3.514996 -1.452993
-2.899618 -3.514661 -1.457321
-2.930125 -3.517357 -1.468128
-2.939727 -3.503522 -1.464213
-2.946445 -3.482511 -1.455832
-2.955639 -3.468368 -1.451666
-2.972116 -3.472851 -1.459082
-2.997674 -3.463005 -1.462271
-3.011169 -3.459833 -1.464988
-3.035562 -3.482394 -1.483968
-3.046890 -3.473729 -1.483304
-3.051028 -3.448688 -1.472240
-3.056140 -3.426448 -1.462894
-3.068022 -3.419806 -1.463465
-3.080079 -3.413604 -1.464329
-3.098203 -3.420587 -1.473692
-3.103435 -3.399704 -1.465128
-3.111367 -3.384950 -1.460485
-3.126328 -3.385064 -1.465483
-3.147604 -3.397978 -1.478872
-3.168003 -3.378164 -1.475972
-3.182299 -3.376497 -1.479948
-3.187022 -3.356130 -1.471594
-3.193245 -3.339020 -1.465352
-3.211272 -3.344543 -1.474144
-3.226645 -3.344818 -1.479500
-3.234265 -3.330629 -1.475203
-3.237686 -3.308997 -1.465876
-3.240916 -3.260464 -1.443476
-3.281006 -3.277548 -1.465578
-3.288401 -3.263892 -1.461555
-3.294422 -3.248083 -1.456031
-3.315428 -3.257524 -1.467900
-3.323072 -3.244525 -1.464322
-3.330615 -3.231504 -1.460712
-3.333900 -3.211771 -1.452400
-3.346530 -3.207212 -1.454663
-3.362840 -3.208386 -1.460982
-3.380107 -3.210853 -1.468270
-3.393195 -3.206670 -1.470912
-3.406963 -3.203446 -1.474265
-3.416943 -3.194436 -1.473522
-3.431320 -3.191988 -1.477486
-3.442561 -3.184818 -1.478093
-3.448856 -3.170462 -1.473523
-3.449288 -3.147849 -1.462941
-3.461771 -3.142658 -1.464965
-3.470425 -3.132040 -1.463049
-3.475868 -3.117033 -1.457906
-3.486966 -3.109935 -1.458558
-3.507211 -3.115216 -1.468380
-3.522485 -3.113539 -1.473124
-3.524545 -3.094207 -1.464751
-3.527956 -3.076892 -1.457829
-3.536428 -3.066339 -1.455943
-3.546850 -3.058340 -1.455978
-3.566377 -3.061880 -1.464772
-3.579070 -3.056591 -1.466928
-3.586794 -3.045072 -1.464348
-3.615708 -3.059620 -1.481769
-3.628373 -3.053949 -1.483760
-3.626746 -3.031058 -1.472443
-3.662115 -3.052408 -1.495445
-3.664141 -3.033946 -1.487560
-3.675140 -3.026118 -1.487959
-3.680378 -3.011649 -1.483138
-3.687612 -2.999572 -1.480179
-3.705480 -2.999527 -1.486769
-3.716654 -2.991845 -1.487331
-3.720284 -2.975833 -1.481226
-3.725112 -2.961278 -1.476250
-3.728621 -2.945421 -1.470186
-3.750346 -2.949130 -1.479991
-3.770153 -2.950547 -1.488025
-3.779766 -2.941106 -1.487233
-3.788929 -2.931207 -1.486068
-3.804961 -2.928340 -1.490730
-3.814019 -2.918295 -1.489472
-3.823961 -2.909149 -1.488969
-3.826492 -2.892672 -1.482311
-3.836143 -2.883315 -1.481615
-3.844600 -2.872804 -1.479947
-3.865330 -2.874074 -1.488325
-3.880139 -2.869509 -1.491797
-3.893034 -2.863045 -1.493684
-3.906345 -2.856903 -1.495884
-3.921774 -2.852634 -1.499750
-3.937946 -2.848926 -1.504162
-3.947037 -2.838730 -1.502934
-3.965474 -2.836852 -1.509058
-3.974729 -2.826732 -1.507943
-3.978544 -2.811886 -1.502615
-4.010195 -2.821102 -1.518845
-4.003159 -2.796972 -1.505179
-4.005502 -2.781043 -1.498826
-4.013054 -2.769582 -1.496498
-4.031767 -2.767352 -1.502631
-4.046377 -2.761610 -1.505614
-4.055127 -2.751045 -1.504181
-4.032333 -2.715317 -1.479293
-4.040379 -2.704482 -1.477489
-4.071720 -2.711853 -1.492854
-4.079285 -2.700481 -1.490645
-4.084285 -2.687170 -1.486588
-4.096128 -2.679095 -1.487532
-4.110452 -2.672822 -1.490253
-4.108614 -2.654510 -1.481349
-4.113386 -2.641200 -1.477252
-4.119971 -2.629263 -1.474483
-4.123237 -2.614980 -1.469393
-4.121188 -2.597019 -1.460614
-4.123877 -2.582533 -1.455235
-4.127037 -2.568458 -1.450237
-4.136860 -2.559014 -1.449903
-4.123904 -2.534139 -1.433861
-4.121731 -2.516788 -1.425372
-4.130893 -2.507078 -1.424705
-4.125089 -2.487565 -1.413870
-4.127700 -2.473684 -1.408828
-4.132843 -2.461490 -1.405535
-4.133399 -2.446429 -1.399198
-4.134666 -2.431908 -1.393393
-4.135213 -2.417025 -1.387160
-4.135290 -2.401945 -1.380673
-4.128960 -2.383103 -1.370031
-4.122279 -2.364234 -1.359254
-4.110866 -2.342768 -1.345492
-4.114167 -2.330101 -1.341392
-4.120708 -2.319335 -1.339416
-4.117507 -2.303034 -1.331195
-4.099167 -2.278380 -1.313366
-4.112700 -2.271693 -1.315980
-4.112313 -2.257292 -1.309746
-4.112363 -2.243206 -1.303839
-4.115007 -2.230576 -1.299608
-4.112433 -2.215236 -1.292147
-4.108002 -2.199036 -1.283591
-4.108584 -2.185535 -1.278210
-4.100575 -2.167744 -1.267572
-4.100937 -2.154306 -1.262161
-4.099344 -2.139963 -1.255595
-4.100324 -2.126956 -1.250645
-4.095343 -2.111137 -1.242119
-4.084227 -2.092538 -1.229958
-4.087083 -2.080667 -1.226287
-4.087386 -2.067644 -1.221111
-4.085061 -2.053482 -1.214406
-4.080081 -2.038219 -1.206176
-4.079259 -2.024914 -1.200462
-4.081079 -2.012828 -1.196338
-4.082333 -2.000537 -1.191908
-4.083364 -1.988197 -1.187375
-4.079760 -1.973975 -1.180179
-4.072872 -1.958515 -1.171135
-4.075016 -1.946856 -1.167353
-4.074539 -1.934194 -1.162088
-4.071593 -1.920642 -1.155446
-4.071944 -1.908471 -1.150721
-4.071885 -1.896218 -1.145789
-4.071999 -1.884110 -1.140982
-4.069033 -1.870954 -1.134474
-4.062361 -1.856581 -1.125937
-4.060331 -1.844034 -1.120039
-4.063814 -1.833543 -1.117227
-4.062259 -1.821381 -1.111647
-4.061368 -1.809575 -1.106463
-4.045212 -1.792809 -1.092961
-4.044682 -1.781470 -1.088065
-4.044355 -1.770333 -1.083306
-4.047095 -1.760308 -1.080227
-4.050004 -1.750451 -1.077252
-4.044626 -1.738177 -1.069850
-4.036281 -1.725223 -1.060914
-4.044554 -1.717436 -1.060864
-4.045078 -1.707479 -1.056705
-4.043373 -1.697055 -1.051396
-4.037532 -1.685665 -1.043951
-4.047463 -1.678871 -1.044793
-4.040494 -1.667581 -1.036831
-4.034824 -1.656893 -1.029599
-4.025610 -1.645518 -1.020591
-4.035923 -1.639458 -1.021681
-4.034006 -1.630400 -1.016501
-4.001703 -1.613966 -0.995878
-2.635937 -3.644550 -1.455599
-2.670613 -3.619846 -1.454611
-2.686543 -3.627990 -1.463843
-2.692987 -3.599418 -1.451519
-2.703521 -3.586682 -1.448446
-2.717123 -3.585149 -1.451968
-2.748749 -3.596482 -1.467608
-2.755642 -3.570876 -1.456805
-2.769725 -3.569990 -1.460733
-2.783184 -3.566809 -1.463296
-2.796687 -3.563627 -1.465866
-2.804152 -3.541272 -1.456853
-2.819996 -3.545464 -1.463876
-2.836458 -3.551174 -1.471860
-2.853592 -3.558488 -1.480867
-2.857566 -3.526779 -1.466044
-2.865723 -3.508059 -1.459101
-2.878451 -3.502759 -1.460376
-2.898518 -3.517905 -1.474288
-2.909631 -3.507901 -1.472704
-2.915410 -3.483743 -1.462311
-2.927404 -3.476680 -1.462514
-2.941629 -3.475513 -1.466408
-2.951958 -3.464279 -1.464012
-2.960249 -3.448132 -1.458511
-2.971455 -3.439590 -1.457781
-2.987785 -3.443702 -1.465066
-3.003745 -3.446667 -1.471673
-3.019703 -3.449413 -1.478189
-3.030347 -3.439548 -1.476684
-3.041191 -3.430302 -1.475574
-3.048692 -3.413627 -1.469678
-3.057362 -3.399908 -1.465659
-3.070142 -3.395497 -1.467653
-3.082347 -3.389829 -1.468848
-3.092559 -3.379924 -1.467295
-3.099361 -3.362963 -1.461119
-3.114257 -3.363172 -1.466187
-3.125304 -3.355338 -1.465995
-3.140123 -3.355213 -1.470907
-3.145215 -3.335520 -1.462878
-3.161257 -3.337787 -1.469422
-3.173071 -3.331627 -1.470389
-3.182656 -3.321204 -1.468513
-3.197089 -3.320088 -1.472893
-3.216222 -3.327640 -1.483164
-3.221450 -3.309174 -1.475890
-3.224812 -3.287620 -1.466475
-3.234755 -3.278301 -1.465348
-3.237071 -3.255502 -1.454992
-3.259606 -3.268608 -1.469243
-3.266411 -3.253958 -1.464464
-3.285540 -3.234591 -1.461729
-3.302419 -3.237245 -1.468961
-3.311198 -3.226295 -1.466737
-3.307828 -3.195625 -1.450653
-3.321117 -3.192375 -1.453791
-3.338057 -3.194853 -1.461014
-3.346482 -3.183705 -1.458622
-3.352769 -3.169325 -1.453917
-3.373975 -3.178051 -1.465722
-3.393365 -3.183647 -1.475378
-3.407445 -3.180967 -1.479149
-3.422879 -3.180187 -1.484334
-3.429144 -3.165793 -1.479675
-3.425807 -3.137622 -1.464934
-3.429399 -3.119856 -1.457709
-3.449663 -3.125962 -1.467994
-3.463760 -3.123111 -1.471756
-3.473682 -3.114359 -1.471184
-3.481478 -3.102713 -1.468461
-3.495047 -3.098975 -1.471636
-3.511814 -3.099430 -1.477993
-3.519824 -3.088088 -1.475524
-3.514931 -3.059906 -1.460302
-3.526587 -3.053617 -1.461597
-3.546314 -3.057637 -1.470776
-3.546392 -3.036475 -1.460751
-3.565324 -3.039239 -1.469057
-3.581768 -3.038677 -1.474874
-3.597067 -3.036541 -1.479530
-3.612792 -3.034784 -1.484532
-3.618572 -3.020945 -1.480131
-3.625489 -3.008571 -1.476854
-3.651219 -3.018373 -1.491064
-3.655755 -3.003159 -1.485575
-3.658777 -2.986345 -1.478773
-3.667274 -2.975929 -1.477040
-3.689804 -2.981330 -1.488013
-3.705982 -2.979363 -1.493146
-3.713740 -2.967982 -1.490706
-3.716189 -2.950875 -1.483590
-3.726528 -2.942441 -1.483517
-3.725962 -2.922379 -1.473897
-3.770177 -2.949759 -1.503377
-3.772425 -2.932598 -1.496191
-3.767139 -2.907836 -1.482613
-3.775913 -2.897760 -1.481219
-3.778643 -2.881601 -1.474705
-3.786302 -2.870518 -1.472434
-3.795065 -2.860569 -1.471118
-3.810192 -2.856861 -1.475131
-3.822481 -2.850293 -1.476742
-3.836254 -2.845089 -1.479560
-3.865747 -2.854686 -1.495245
-3.881079 -2.850613 -1.499198
-3.894302 -2.844471 -1.501395
-3.910656 -2.841130 -1.506094
-3.918210 -2.829672 -1.503680
-3.934786 -2.826351 -1.508490
-3.951181 -2.822735 -1.513103
-3.954685 -2.807663 -1.507496
-3.958576 -2.793041 -1.502254
-3.981201 -2.794630 -1.511685
-3.982695 -2.778000 -1.504616
-3.973317 -2.752367 -1.489232
-4.004810 -2.761093 -1.505388
-4.017106 -2.753611 -1.506712
-4.025002 -2.742490 -1.504680
-4.024413 -2.724554 -1.496258
-4.022875 -2.706030 -1.487211
-4.025594 -2.691044 -1.481439
-4.040355 -2.685556 -1.484684
-4.065474 -2.687959 -1.495556
-4.070306 -2.674606 -1.491384
-4.080811 -2.665600 -1.491408
-4.098409 -2.661860 -1.496598
-4.109223 -2.652964 -1.496817
-4.094652 -2.625495 -1.478724
-4.104694 -2.616173 -1.478473
-4.111690 -2.604647 -1.476049
-4.118732 -2.593176 -1.473680
-4.120525 -2.578056 -1.467622
-4.120753 -2.561954 -1.460522
-4.109581 -2.538188 -1.445509
-4.116500 -2.526929 -1.443243
-4.120688 -2.513858 -1.439103
-4.122801 -2.499470 -1.433570
-4.120903 -2.482547 -1.425335
-4.122042 -2.467721 -1.419251
-4.129192 -2.456817 -1.417310
-4.128526 -2.440989 -1.410096
-4.130239 -2.426755 -1.404549
-4.131347 -2.412225 -1.398646
-4.133202 -2.398231 -1.393293
-4.127657 -2.379858 -1.383074
-4.121126 -2.361071 -1.372294
-4.115984 -2.343284 -1.362524
-4.112537 -2.326641 -1.353952
-4.113759 -2.312806 -1.348496
-4.113373 -2.298128 -1.342044
-4.113362 -2.283747 -1.335888
-4.114811 -2.270252 -1.330722
-4.116730 -2.257070 -1.325899
-4.115078 -2.242015 -1.318839
-4.116040 -2.228446 -1.313495
-4.115272 -2.214028 -1.307100
-4.103879 -2.194186 -1.294078
-4.100451 -2.178639 -1.286150
-4.102996 -2.166219 -1.282007
-4.100281 -2.151212 -1.274632
-4.095980 -2.135524 -1.266334
-4.092973 -2.120583 -1.258898
-4.092345 -2.106882 -1.252975
-4.091739 -2.093261 -1.247110
-4.090106 -2.079230 -1.240663
-4.087901 -2.065018 -1.233918
-4.083556 -2.049925 -1.225935
-4.080544 -2.035542 -1.218810
-4.077253 -2.021135 -1.211569
-4.078214 -2.008674 -1.206905
-4.105415 -2.007478 -1.217785
-4.079588 -1.983670 -1.197342
-4.082312 -1.972094 -1.193798
-4.075876 -1.956806 -1.184926
-4.074461 -1.943687 -1.179035
-4.068041 -1.928670 -1.170285
-4.069217 -1.916770 -1.165973
-4.074162 -1.906379 -1.163846
-4.075962 -1.894819 -1.159927
-4.074232 -1.882007 -1.154018
-4.067827 -1.867590 -1.145495
-4.059495 -1.852646 -1.135942
-4.060798 -1.841316 -1.131868
-4.058845 -1.828937 -1.125990
-4.058482 -1.817236 -1.121033
-4.059762 -1.806208 -1.117014
-4.064385 -1.796397 -1.114859
-4.039305 -1.776968 -1.096367
-4.042678 -1.767080 -1.093601
-4.047953 -1.757896 -1.091882
-4.050473 -1.747947 -1.088665
-4.045636 -1.735883 -1.081481
-4.035694 -1.722499 -1.071593
-4.045708 -1.715262 -1.072479
-4.051171 -1.706777 -1.070915
-4.046272 -1.695465 -1.063838
-4.049053 -1.686531 -1.060878
-4.043579 -1.675484 -1.053576
-4.049444 -1.667745 -1.052283
-4.037933 -1.655523 -1.041900
-4.022156 -1.642481 -1.029371
-4.030396 -1.635947 -1.029402
-4.034684 -1.628536 -1.027385
-4.026024 -1.618065 -1.018715
-2.628068 -3.621268 -1.456714
-2.651409 -3.607229 -1.457443
-2.676689 -3.599413 -1.461785
-2.685172 -3.579157 -1.454234
-2.708799 -3.563940 -1.454064
-2.730682 -3.592029 -1.475359
-2.740005 -3.574762 -1.469492
-2.748367 -3.554534 -1.461790
-2.757212 -3.536403 -1.455298
-2.774948 -3.547916 -1.466748
-2.786403 -3.538460 -1.465493
-2.798378 -3.530753 -1.465291
-2.805683 -3.508596 -1.456228
-2.824214 -3.521267 -1.468504
-2.838777 -3.521397 -1.473121
-2.848704 -3.507708 -1.469220
-2.855726 -3.485932 -1.460277
-2.872736 -3.493094 -1.469276
-2.889170 -3.498246 -1.477077
-2.897197 -3.480021 -1.470293
-2.903361 -3.457232 -1.460602
-2.915728 -3.451504 -1.461597
-2.932992 -3.458598 -1.470702
-2.941195 -3.442074 -1.464895
-2.945433 -3.415932 -1.452940
-2.960331 -3.416980 -1.458255
-2.981650 -3.433579 -1.473561
-2.998835 -3.439584 -1.482168
-3.008685 -3.427865 -1.479420
-3.015214 -3.408604 -1.471786
-3.025090 -3.397494 -1.469392
-3.036972 -3.391131 -1.470075
-3.052186 -3.392274 -1.475668
-3.062091 -3.381552 -1.473536
-3.076714 -3.381252 -1.478243
-3.083244 -3.363488 -1.471478
-3.091835 -3.350436 -1.467791
-3.097619 -3.331759 -1.460355
-3.113248 -3.333687 -1.466594
-3.124384 -3.326317 -1.466671
-3.136317 -3.320597 -1.467863
-3.151652 -3.321602 -1.473595
-3.170270 -3.328828 -1.483573
-3.178349 -3.315467 -1.479686
-3.184413 -3.298481 -1.473318
-3.192698 -3.285944 -1.469948
-3.204215 -3.279549 -1.470766
-3.214655 -3.271201 -1.470258
-3.229903 -3.271575 -1.475766
-3.246384 -3.273978 -1.482726
-3.254718 -3.261853 -1.479660
-3.260467 -3.245381 -1.473553
-3.251823 -3.204485 -1.450332
-3.275726 -3.219533 -1.466213
-3.283139 -3.206479 -1.462424
-3.286980 -3.187676 -1.454552
-3.298748 -3.182105 -1.456021
-3.313308 -3.181007 -1.460696
-3.333433 -3.188641 -1.471658
-3.345749 -3.183632 -1.473639
-3.337184 -3.146074 -1.452198
-3.352741 -3.146330 -1.457946
-3.379730 -3.163796 -1.476240
-3.393366 -3.160624 -1.479646
-3.399342 -3.145975 -1.474693
-3.414288 -3.144660 -1.479503
-3.418215 -3.127212 -1.472466
-3.421068 -3.108447 -1.464408
-3.440192 -3.113016 -1.473636
-3.459353 -3.117360 -1.482779
-3.462976 -3.099885 -1.475661
-3.469952 -3.087224 -1.472116
-3.477441 -3.075365 -1.469157
-3.494971 -3.077054 -1.476457
-3.505802 -3.069649 -1.476904
-3.510776 -3.054553 -1.471482
-3.522129 -3.047882 -1.472495
-3.541468 -3.030174 -1.471195
-3.553169 -3.023890 -1.472550
-3.569836 -3.023723 -1.478701
-3.577222 -3.011993 -1.475850
-3.587342 -3.003654 -1.475655
-3.598525 -2.996590 -1.476477
-3.610366 -2.990278 -1.477913
-3.628189 -2.990943 -1.484938
-3.641648 -2.986341 -1.487816
-3.648762 -2.974363 -1.484794
-3.655850 -2.962428 -1.481791
-3.676437 -2.965739 -1.491152
-3.699529 -2.971578 -1.502670
-3.707767 -2.960762 -1.500658
-3.712247 -2.945898 -1.495307
-3.710805 -2.924787 -1.484752
-3.734346 -2.930546 -1.496434
-3.759513 -2.937705 -1.509406
-3.749941 -2.908308 -1.491858
-3.754568 -2.893988 -1.486860
-3.757606 -2.878161 -1.480550
-3.764353 -2.866223 -1.477501
-3.771584 -2.854831 -1.474903
-3.783776 -2.848390 -1.476545
-3.798619 -2.844483 -1.480404
-3.811078 -2.838162 -1.482221
-3.817458 -2.825965 -1.478949
-3.835517 -2.824885 -1.485397
-3.866437 -2.835672 -1.502370
-3.881631 -2.831464 -1.506265
-3.893227 -2.823847 -1.507183
-3.900295 -2.812084 -1.504423
-3.914009 -2.806330 -1.507049
-3.933537 -2.805652 -1.514304
-3.935630 -2.789479 -1.507586
-3.936276 -2.772188 -1.499797
-3.956830 -2.772160 -1.507781
-3.961889 -2.758756 -1.503532
-3.960675 -2.740156 -1.494440
-3.971801 -2.732007 -1.495013
-4.002766 -2.740142 -1.510882
-4.012033 -2.730230 -1.509935
-4.014559 -2.714890 -1.503853
-4.016351 -2.699078 -1.497278
-4.019154 -2.684187 -1.491534
-4.017198 -2.665692 -1.482274
-4.033149 -2.661178 -1.486492
-4.056697 -2.662331 -1.496314
-4.071443 -2.656600 -1.499523
-4.082626 -2.648112 -1.500078
-4.088983 -2.636022 -1.497092
-4.089510 -2.619717 -1.489889
-4.085439 -2.600223 -1.479423
-4.094455 -2.590260 -1.478500
-4.102492 -2.579593 -1.476882
-4.112545 -2.570334 -1.476718
-4.112122 -2.553820 -1.469111
-4.111964 -2.537616 -1.461764
-4.114791 -2.523548 -1.456588
-4.117143 -2.509237 -1.451128
-4.108951 -2.488061 -1.438372
-4.108943 -2.472450 -1.431412
-4.119057 -2.463465 -1.431500
-4.117683 -2.447127 -1.423697
-4.124311 -2.435947 -1.421434
-4.120589 -2.418339 -1.412150
-4.124604 -2.405638 -1.408188
-4.128104 -2.392665 -1.403914
-4.121437 -2.373638 -1.392858
-4.119720 -2.357733 -1.385206
-4.118661 -2.342330 -1.378059
-4.112872 -2.324292 -1.367844
-4.110471 -2.308359 -1.359952
-4.108524 -2.292799 -1.352424
-4.107910 -2.278091 -1.345832
-4.113663 -2.266979 -1.343429
-4.116424 -2.254237 -1.339108
-4.115658 -2.239640 -1.332553
-4.113615 -2.224449 -1.325232
-4.108020 -2.207500 -1.315707
-4.105270 -2.192166 -1.308067
-4.100208 -2.175758 -1.299027
-4.097019 -2.160429 -1.291239
-4.098023 -2.147291 -1.286141
-4.096538 -2.132984 -1.279528
-4.090733 -2.116671 -1.270283
-4.092389 -2.104056 -1.265724
-4.093563 -2.091255 -1.260901
-4.093668 -2.078003 -1.255455
-4.093458 -2.064668 -1.249856
-4.081333 -2.046018 -1.237056
-4.077176 -2.031130 -1.229177
-4.075898 -2.017618 -1.223091
-4.078226 -2.005743 -1.219210
-4.078850 -1.993175 -1.214333
-4.081320 -1.981438 -1.210584
-4.075847 -1.966450 -1.202152
-4.075733 -1.953781 -1.196940
-4.073794 -1.940450 -1.190688
-4.073577 -1.927895 -1.185483
-4.073631 -1.915523 -1.180465
-4.074441 -1.903518 -1.175915
-4.075430 -1.891653 -1.171493
-4.069160 -1.877169 -1.162920
-4.064120 -1.863300 -1.155109
-4.063485 -1.851168 -1.149859
-4.067550 -1.840804 -1.147306
-4.056327 -1.825186 -1.136118
-4.052537 -1.812350 -1.129192
-4.060174 -1.803516 -1.128711
-4.062639 -1.793012 -1.125333
-4.050351 -1.777816 -1.113767
-4.046109 -1.765464 -1.106737
-4.048439 -1.755365 -1.103371
-4.051993 -1.745770 -1.100689
-4.043626 -1.732675 -1.091501
-4.042737 -1.722061 -1.086444
-4.051310 -1.714400 -1.086544
-4.043437 -1.702083 -1.077754
-4.040672 -1.691471 -1.071769
-4.040721 -1.681851 -1.067328
-4.052112 -1.675524 -1.068958
-4.051120 -1.665946 -1.063992
-4.034970 -1.652555 -1.051045
-4.028384 -1.641992 -1.043231
-4.025956 -1.632745 -1.037654
-4.036750 -1.627041 -1.039019
-4.042406 -1.620170 -1.037696
-2.568182 -3.649808 -1.465276
-2.578221 -3.638620 -1.463328
-2.615132 -3.632138 -1.473220
-2.623489 -3.611753 -1.465740
-2.634632 -3.603083 -1.465136
-2.657175 -3.585872 -1.463928
-2.667845 -3.574562 -1.461669
-2.682019 -3.576517 -1.467337
-2.700014 -3.540928 -1.454874
-2.713902 -3.541051 -1.459412
-2.727367 -3.539295 -1.462822
-2.730872 -3.503053 -1.445225
-2.750042 -3.520626 -1.460401
-2.761569 -3.511995 -1.459593
-2.771011 -3.496664 -1.454650
-2.779018 -3.477104 -1.447060
-2.793179 -3.477210 -1.451584
-2.811276 -3.489131 -1.463462
-2.821126 -3.475653 -1.459596
-2.834139 -3.471792 -1.461708
-2.844885 -3.461321 -1.459689
-2.859818 -3.462961 -1.465265
-2.877156 -3.471111 -1.474977
-2.891469 -3.431090 -1.458862
-2.905133 -3.429159 -1.462232
-2.918125 -3.425393 -1.464454
-2.924843 -3.405470 -1.456348
-2.932753 -3.389072 -1.450456
-2.946620 -3.387899 -1.454342
-2.971482 -3.413600 -1.475628
-2.988993 -3.420633 -1.484950
-2.998286 -3.407778 -1.481396
-2.999922 -3.377243 -1.466286
-3.011605 -3.370668 -1.466773
-3.028996 -3.377136 -1.475838
-3.037792 -3.364032 -1.472068
-3.054783 -3.369266 -1.480408
-3.064183 -3.357696 -1.477660
-3.075308 -3.350020 -1.477494
-3.059442 -3.285313 -1.439239
-3.088827 -3.316683 -1.465126
-3.103687 -3.317166 -1.470425
-3.119938 -3.320323 -1.477573
-3.128615 -3.308084 -1.474354
-3.140121 -3.301620 -1.475045
-3.163316 -3.317974 -1.491304
-3.176955 -3.315367 -1.494714
-3.169160 -3.271980 -1.470162
-3.169461 -3.244738 -1.456569
-3.180870 -3.238600 -1.457479
-3.207364 -3.260028 -1.477528
-3.219449 -3.254774 -1.479152
-3.229107 -3.245176 -1.477762
-3.242013 -3.241374 -1.480437
-3.251883 -3.232237 -1.479384
-3.261146 -3.222127 -1.477646
-3.254540 -3.185219 -1.456906
-3.264985 -3.177588 -1.456856
-3.279188 -3.176196 -1.461271
-3.293428 -3.174738 -1.465681
-3.314156 -3.183624 -1.477576
-3.332531 -3.188385 -1.486591
-3.338656 -3.173562 -1.481487
-3.345104 -3.159425 -1.476852
-3.354028 -3.149263 -1.475095
-3.368043 -3.146913 -1.479063
-3.371675 -3.128841 -1.471498
-3.377919 -3.114898 -1.466936
-3.396208 -3.118799 -1.475586
-3.415831 -3.124376 -1.485562
-3.427868 -3.118766 -1.487262
-3.439182 -3.112084 -1.488180
-3.444849 -3.097457 -1.483127
-3.456660 -3.091507 -1.484610
-3.458907 -3.072401 -1.476118
-3.468846 -3.063977 -1.475718
-3.482214 -3.060163 -1.478855
-3.494522 -3.054853 -1.480878
-3.504050 -3.045839 -1.480066
-3.504675 -3.025305 -1.470323
-3.512391 -3.014139 -1.467804
-3.524981 -3.009220 -1.470161
-3.548615 -3.018080 -1.483371
-3.558928 -3.010046 -1.483378
-3.565951 -2.997972 -1.480194
-3.575285 -2.988785 -1.479291
-3.584644 -2.979644 -1.478428
-3.593286 -2.969671 -1.476899
-3.612017 -2.971576 -1.484943
-3.626685 -2.968538 -1.489067
-3.638645 -2.962272 -1.490613
-3.644408 -2.948915 -1.486392
-3.659216 -2.945825 -1.490569
-3.679727 -2.948956 -1.499923
-3.696628 -2.947864 -1.505876
-3.687027 -2.917774 -1.487775
-3.708722 -2.921822 -1.498047
-3.722086 -2.916724 -1.500749
-3.723679 -2.899149 -1.492964
-3.725071 -2.881550 -1.485097
-3.735722 -2.873680 -1.485453
-3.749990 -2.869477 -1.488963
-3.754050 -2.854876 -1.483581
-3.759043 -2.841324 -1.479067
-3.784130 -2.847710 -1.491829
-3.790912 -2.835887 -1.488847
-3.797828 -2.824252 -1.486015
-3.813543 -2.821081 -1.490625
-3.826400 -2.815079 -1.492792
-3.846580 -2.815860 -1.501029
-3.867395 -2.817014 -1.509701
-3.879410 -2.809883 -1.511031
-3.888497 -2.800052 -1.509951
-3.901598 -2.793824 -1.512150
-3.911578 -2.784758 -1.511799
-3.911805 -2.767128 -1.503603
-3.919810 -2.756416 -1.501723
-3.934704 -2.751641 -1.505347
-3.954509 -2.750929 -1.512821
-3.954647 -2.733506 -1.504727
-3.962692 -2.722816 -1.502913
-3.988110 -2.726421 -1.514652
-4.002334 -2.720635 -1.517592
-4.005089 -2.705534 -1.511660
-4.003828 -2.687349 -1.502712
-4.005122 -2.671350 -1.495806
-4.013217 -2.660773 -1.494132
-4.017622 -2.647365 -1.489689
-4.037961 -2.646158 -1.497257
-4.058384 -2.644818 -1.504809
-4.066527 -2.634137 -1.503156
-4.072776 -2.622068 -1.500119
-4.075314 -2.607332 -1.494381
-4.080857 -2.594855 -1.490900
-4.076645 -2.575475 -1.480348
-4.090861 -2.569266 -1.483255
-4.099017 -2.558742 -1.481762
-4.104889 -2.546642 -1.478644
-4.118341 -2.539733 -1.480967
-4.120358 -2.525042 -1.475141
-4.108927 -2.501491 -1.459861
-4.108230 -2.485290 -1.452280
-4.093524 -2.460104 -1.434960
-4.116473 -2.459446 -1.444048
-4.125475 -2.449694 -1.443373
-4.114988 -2.427679 -1.429248
-4.103164 -2.405092 -1.414337
-4.117269 -2.398676 -1.417294
-4.117708 -2.383873 -1.410919
-4.118583 -2.369418 -1.404897
-4.119101 -2.354834 -1.398686
-4.117362 -2.339014 -1.391016
-4.113058 -2.321826 -1.381700
-4.106252 -2.303358 -1.370800
-4.100794 -2.285828 -1.360890
-4.104435 -2.273519 -1.357062
-4.107178 -2.260745 -1.352674
-4.111441 -2.248836 -1.349315
-4.109789 -2.233776 -1.342137
-4.108329 -2.218913 -1.335142
-4.108345 -2.204914 -1.329154
-4.105037 -2.189272 -1.321084
-4.099698 -2.172710 -1.311782
-4.093165 -2.155688 -1.301797
-4.093602 -2.142273 -1.296305
-4.094735 -2.129257 -1.291293
-4.100363 -2.118458 -1.289137
-4.096688 -2.103223 -1.281182
-4.093864 -2.088498 -1.273818
-4.092022 -2.074326 -1.267117
-4.085779 -2.058232 -1.257752
-4.082408 -2.043572 -1.250222
-4.074814 -2.027144 -1.240167
-4.072976 -2.013391 -1.233690
-4.075525 -2.001615 -1.229917
-4.077562 -1.989652 -1.225856
-4.074459 -1.975580 -1.218731
-4.073168 -1.962359 -1.212738
-4.070644 -1.948724 -1.206051
-4.070842 -1.936278 -1.201020
-4.073444 -1.924850 -1.197440
-4.076828 -1.913771 -1.194336
-4.074469 -1.900540 -1.187881
-4.068378 -1.886022 -1.179291
-4.068146 -1.873829 -1.174159
-4.061253 -1.859311 -1.165204
-4.064020 -1.848428 -1.161871
-4.064061 -1.836658 -1.156988
-4.056703 -1.822435 -1.147905
-4.054924 -1.810310 -1.142053
-4.054542 -1.798795 -1.137026
-4.057932 -1.788653 -1.134151
-4.051950 -1.775574 -1.126022
-4.047259 -1.763113 -1.118666
-4.054198 -1.754486 -1.117831
-4.048021 -1.741905 -1.109716
-4.046801 -1.731047 -1.104389
-4.048544 -1.721247 -1.100721
-4.032545 -1.706416 -1.087357
-4.039740 -1.698580 -1.086734
-4.032860 -1.686879 -1.078462
-4.032095 -1.677125 -1.073553
-4.039684 -1.669844 -1.073170
-4.041710 -1.661189 -1.069797
-4.035833 -1.650623 -1.062223
-4.019517 -1.637596 -1.049150
-4.024820 -1.630417 -1.047626
-4.034351 -1.624445 -1.048338
-4.059808 -1.622519 -1.057403
-2.429466 -3.496120 -1.346169
-2.557615 -3.609302 -1.456021
-2.565965 -3.591374 -1.450025
-2.628361 -3.586757 -1.470012
-2.636914 -3.567680 -1.463110
-2.646560 -3.553136 -1.458875
-2.659854 -3.552855 -1.463210
-2.688094 -3.556878 -1.474687
-2.692132 -3.521090 -1.457399
-2.713445 -3.499106 -1.452884
-2.721997 -3.480957 -1.446178
-2.734300 -3.475851 -1.447471
-2.749850 -3.481385 -1.455348
-2.759323 -3.466687 -1.450697
-2.772154 -3.462982 -1.452857
-2.786845 -3.464984 -1.458589
-2.797350 -3.453844 -1.456112
-2.810259 -3.450139 -1.458288
-2.822268 -3.443710 -1.458755
-2.836984 -3.445186 -1.464223
-2.851080 -3.444668 -1.468457
-2.867790 -3.451333 -1.477288
-2.878183 -3.440199 -1.474807
-2.880514 -3.407437 -1.458454
-2.893943 -3.405197 -1.461614
-2.903223 -3.392013 -1.457741
-2.907400 -3.365961 -1.445523
-2.920074 -3.362169 -1.447671
-2.939829 -3.376047 -1.461338
-2.956741 -3.382375 -1.470167
-2.973804 -3.388741 -1.479082
-2.983773 -3.377880 -1.476738
-2.988445 -3.354781 -1.466316
-3.001278 -3.351114 -1.468685
-3.016379 -3.352589 -1.474489
-3.028255 -3.346653 -1.475403
-3.030315 -3.319045 -1.461852
-3.036037 -3.300080 -1.454012
-3.051923 -3.303367 -1.461090
-3.062162 -3.294461 -1.459997
-3.075086 -3.291279 -1.462779
-3.099297 -3.311312 -1.481356
-3.115263 -3.313900 -1.488179
-3.112908 -3.279538 -1.469786
-3.126035 -3.276584 -1.472830
-3.144594 -3.284171 -1.483162
-3.150214 -3.266490 -1.476114
-3.155788 -3.249038 -1.469184
-3.155286 -3.220491 -1.454494
-3.175676 -3.231230 -1.467145
-3.208641 -3.237339 -1.481936
-3.215452 -3.222814 -1.477016
-3.228637 -3.219718 -1.480166
-3.236732 -3.207694 -1.477002
-3.241506 -3.190110 -1.469857
-3.249515 -3.178287 -1.466795
-3.262251 -3.174512 -1.469506
-3.270439 -3.163145 -1.466769
-3.282085 -3.157545 -1.468197
-3.301135 -3.163876 -1.478319
-3.315036 -3.161678 -1.482303
-3.329613 -3.160433 -1.487025
-3.339383 -3.151562 -1.486188
-3.350186 -3.144324 -1.486558
-3.358364 -3.133093 -1.483984
-3.362915 -3.116501 -1.477413
-3.368497 -3.101658 -1.472106
-3.382621 -3.099538 -1.476305
-3.401908 -3.104798 -1.486099
-3.418251 -3.105538 -1.492567
-3.417802 -3.082256 -1.480876
-3.436087 -3.085618 -1.489391
-3.445268 -3.076099 -1.488138
-3.452577 -3.064054 -1.484944
-3.458419 -3.050115 -1.480275
-3.473316 -3.048455 -1.485082
-3.484848 -3.042195 -1.486363
-3.488249 -3.025237 -1.479318
-3.492842 -3.010024 -1.473591
-3.500469 -2.998862 -1.471014
-3.519689 -3.002468 -1.480097
-3.536598 -3.002920 -1.486764
-3.548311 -2.996738 -1.488212
-3.560967 -2.991669 -1.490573
-3.566113 -2.977422 -1.485588
-3.572573 -2.964879 -1.481946
-3.578187 -2.951425 -1.477544
-3.590760 -2.946250 -1.479859
-3.611003 -2.949910 -1.489432
-3.619107 -2.939368 -1.487431
-3.634384 -2.937019 -1.492188
-3.652499 -2.937724 -1.499530
-3.656569 -2.922619 -1.493783
-3.658303 -2.905086 -1.485963
-3.680189 -2.909658 -1.496665
-3.678436 -2.888515 -1.485762
-3.694995 -2.887127 -1.491530
-3.697402 -2.870682 -1.484532
-3.703993 -2.858760 -1.481352
-3.725708 -2.862484 -1.491619
-3.737880 -2.856215 -1.493358
-3.746380 -2.846187 -1.491861
-3.749261 -2.830578 -1.485492
-3.750471 -2.813463 -1.477752
-3.789738 -2.833668 -1.502853
-3.788587 -2.814220 -1.493086
-3.784327 -2.792023 -1.480789
-3.807825 -2.796338 -1.492108
-3.833048 -2.801978 -1.504748
-3.849511 -2.799199 -1.509924
-3.862766 -2.793342 -1.512373
-3.874918 -2.786412 -1.513885
-3.879276 -2.772450 -1.508974
-3.884231 -2.759112 -1.504606
-3.897446 -2.753094 -1.507002
-3.904357 -2.741535 -1.504275
-3.921412 -2.738717 -1.509735
-3.937342 -2.734798 -1.514236
-3.949845 -2.727879 -1.515963
-3.956013 -2.715641 -1.512661
-3.973295 -2.712577 -1.518138
-3.988957 -2.708051 -1.522289
-3.973235 -2.678199 -1.501966
-3.985857 -2.671296 -1.503804
-3.994859 -2.661482 -1.502836
-3.998531 -2.647521 -1.497793
-4.010640 -2.640130 -1.499233
-4.020648 -2.631082 -1.499065
-4.032599 -2.623471 -1.500365
-4.049114 -2.619195 -1.505076
-4.053075 -2.605555 -1.500364
-4.056964 -2.591933 -1.495645
-4.062347 -2.579458 -1.492078
-4.073359 -2.571030 -1.492687
-4.076993 -2.557367 -1.487887
-4.082805 -2.545288 -1.484722
-4.094769 -2.537471 -1.486045
-4.101831 -2.526258 -1.483819
-4.105969 -2.513091 -1.479515
-4.099247 -2.492765 -1.467495
-4.096966 -2.475573 -1.458747
-4.094284 -2.458266 -1.449798
-4.112171 -2.454304 -1.455412
-4.118812 -2.443051 -1.453091
-4.109452 -2.421779 -1.439636
-4.112263 -2.408284 -1.434751
-4.101420 -2.386493 -1.420480
-4.108801 -2.375976 -1.418867
-4.114023 -2.364157 -1.415789
-4.114073 -2.349304 -1.409216
-4.112850 -2.333797 -1.401837
-4.111090 -2.318088 -1.394161
-4.106335 -2.300786 -1.384540
-4.100945 -2.283277 -1.374580
-4.100439 -2.268635 -1.367956
-4.102707 -2.255601 -1.363226
-4.102283 -2.241157 -1.356760
-4.102606 -2.227193 -1.350837
-4.106949 -2.215421 -1.347590
-4.108465 -2.202189 -1.342528
-4.102933 -2.185385 -1.332940
-4.094766 -2.167388 -1.321733
-4.091892 -2.152219 -1.314016
-4.089476 -2.137380 -1.306654
-4.096498 -2.127241 -1.305355
-4.092834 -2.111934 -1.297291
-4.093913 -2.098990 -1.292281
-4.089122 -2.083349 -1.283621
-4.088984 -2.069979 -1.277936
-4.089978 -2.057190 -1.272998
-4.078972 -2.039069 -1.260653
-4.081680 -2.027214 -1.256871
-4.075098 -2.011341 -1.247401
-4.075619 -1.998666 -1.242348
-4.078364 -1.986990 -1.238683
-4.073376 -1.972124 -1.230346
-4.070362 -1.958199 -1.223260
-4.069327 -1.945182 -1.217413
-4.066813 -1.931662 -1.210716
-4.071488 -1.921069 -1.208352
-4.075135 -1.910101 -1.205382
-4.066846 -1.894636 -1.195364
-4.067185 -1.882584 -1.190497
-4.064951 -1.869674 -1.184147
-4.062066 -1.856650 -1.177454
-4.059690 -1.843943 -1.171098
-4.059945 -1.832292 -1.166302
-4.058893 -1.820299 -1.160777
-4.055883 -1.807774 -1.154158
-4.056219 -1.796523 -1.149490
-4.055769 -1.785141 -1.144397
-4.049504 -1.772026 -1.136032
-4.045979 -1.759992 -1.129268
-4.054921 -1.752028 -1.129554
-4.054161 -1.741154 -1.124388
-4.046982 -1.728518 -1.115671
-4.045300 -1.717750 -1.110063
-4.048408 -1.708565 -1.107136
-4.046366 -1.698053 -1.101383
-4.029546 -1.683588 -1.087560
-4.029994 -1.674240 -1.083268
-4.036252 -1.666654 -1.082161
-4.034181 -1.656975 -1.076540
-4.022770 -1.645052 -1.065917
-4.027232 -1.637523 -1.063899
-4.023730 -1.628125 -1.057629
-4.022935 -1.619625 -1.052846
-4.027956 -1.612754 -1.051180
-2.532160 -3.552782 -1.432305
-2.591343 -3.547993 -1.452103
-2.626478 -3.534588 -1.457590
-2.649257 -3.520762 -1.458205
-2.664461 -3.528048 -1.467174
-2.675824 -3.520068 -1.466805
-2.686761 -3.510363 -1.465351
-2.695731 -3.493516 -1.459459
-2.706235 -3.482352 -1.457036
-2.715775 -3.467921 -1.452552
-2.727811 -3.462172 -1.453441
-2.741301 -3.461158 -1.457283
-2.752940 -3.453855 -1.457193
-2.766398 -3.452375 -1.460757
-2.781309 -3.455249 -1.467082
-2.789852 -3.438186 -1.460815
-2.798087 -3.420598 -1.454170
