ply
format ascii 1.0
comment ---
element vertex 1594
property float x
property float y
property float z
element face 0
property list uchar uint vertex_indices
end_header
-4.353483 -3.557261 -0.360088
-4.344996 -3.546586 -0.357534
-4.332924 -3.537341 -0.354677
-4.325784 -3.526519 -0.352455
-4.320487 -3.515180 -0.350526
-3.612215 -5.892164 -0.465469
-3.635943 -5.896537 -0.468510
-3.638240 -5.887406 -0.467359
-3.654061 -5.886378 -0.468914
-3.677689 -5.889796 -0.472033
-3.678576 -5.879240 -0.470756
-3.674112 -5.865385 -0.468506
-3.701501 -5.870227 -0.472484
-3.714583 -5.866329 -0.473739
-3.725939 -5.861191 -0.474713
-3.741109 -5.858020 -0.476474
-3.754786 -5.853742 -0.478001
-3.773094 -5.851830 -0.480467
-3.793069 -5.850561 -0.483302
-3.824357 -5.855234 -0.488336
-3.830096 -5.845523 -0.488567
-3.837477 -5.836561 -0.489170
-3.844795 -5.827415 -0.489818
-3.837878 -5.810578 -0.487836
-4.582633 -5.889740 -0.621707
-4.499485 -5.803573 -0.605863
-4.494604 -5.784855 -0.604842
-4.524354 -5.780136 -0.610274
-4.550513 -5.773729 -0.615027
-4.560832 -5.760919 -0.616820
-4.578980 -5.751070 -0.620060
-4.602184 -5.743004 -0.624228
-4.637575 -5.739308 -0.630650
-4.654281 -5.728413 -0.633576
-4.646523 -5.708522 -0.631933
-4.644501 -5.690832 -0.631341
-4.642006 -5.673063 -0.630644
-4.640505 -5.655731 -0.630114
-4.640282 -5.638915 -0.629803
-4.650307 -5.625616 -0.631375
-4.647776 -5.608115 -0.630596
-4.648896 -5.591893 -0.630475
-4.642834 -5.573416 -0.629001
-4.637987 -5.555448 -0.627733
-4.638898 -5.539376 -0.627511
-4.635019 -5.521891 -0.626382
-4.634464 -5.505501 -0.625847
-4.646629 -5.492929 -0.627641
-4.638134 -5.474292 -0.625597
-4.628174 -5.455379 -0.623265
-4.626736 -5.439005 -0.622485
-4.626590 -5.423053 -0.621922
-4.632463 -5.408776 -0.622446
-4.625535 -5.391098 -0.620595
-4.614870 -5.372566 -0.618041
-4.617136 -5.357483 -0.617841
-4.607962 -5.339563 -0.615525
-4.588408 -5.319233 -0.611295
-4.589261 -5.304040 -0.610782
-4.603295 -5.291981 -0.612655
-4.604944 -5.276972 -0.612245
-4.605386 -5.261714 -0.611597
-4.620460 -5.249716 -0.613589
-4.605539 -5.231140 -0.610110
-4.610614 -5.216961 -0.610245
-4.615317 -5.202691 -0.610292
-4.620125 -5.188431 -0.610339
-4.620388 -5.173266 -0.609545
-4.636345 -5.161136 -0.611562
-4.748627 -5.166868 -0.630887
-4.831530 -5.166209 -0.644853
-4.770806 -5.045066 -0.626916
-4.793093 -5.032650 -0.629796
-4.799012 -5.017770 -0.629749
-4.797654 -5.001880 -0.628398
-4.797055 -4.986125 -0.627166
-4.794264 -4.970122 -0.625532
-4.792258 -4.954262 -0.624023
-4.794627 -4.938947 -0.623266
-4.800113 -4.923975 -0.623036
-4.804011 -4.908803 -0.622511
-4.802004 -4.893012 -0.620938
-4.794650 -4.876739 -0.618424
-4.788905 -4.860701 -0.616178
-4.790143 -4.845344 -0.615129
-4.791526 -4.830002 -0.614089
-4.791222 -4.814531 -0.612742
-4.784842 -4.798630 -0.610337
-4.784426 -4.783213 -0.608943
-4.784390 -4.767837 -0.607599
-4.789383 -4.752774 -0.607098
-4.793725 -4.737640 -0.606467
-4.795041 -4.722325 -0.605302
-4.786537 -4.706557 -0.602459
-4.773300 -4.690682 -0.598807
-4.777164 -4.675566 -0.598032
-4.782534 -4.660470 -0.597491
-4.769510 -4.644827 -0.593846
-4.766759 -4.629546 -0.591914
-4.753415 -4.614104 -0.588202
-4.748445 -4.598905 -0.585878
-4.753117 -4.583842 -0.585141
-4.766185 -4.568779 -0.585770
-4.771288 -4.553599 -0.585057
-4.772462 -4.538395 -0.583677
-4.775406 -4.523166 -0.582567
-4.775139 -4.507956 -0.580913
-4.761286 -4.493001 -0.577027
-4.753593 -4.478032 -0.574137
-4.751740 -4.462970 -0.572182
-4.758513 -4.447644 -0.571602
-4.750453 -4.432803 -0.568610
-4.749966 -4.417717 -0.566822
-4.751050 -4.402559 -0.565265
-4.753376 -4.387324 -0.563885
-4.745018 -4.372654 -0.560786
-4.746133 -4.357486 -0.559175
-4.749685 -4.342144 -0.557925
-4.741185 -4.327595 -0.554757
-4.740456 -4.312541 -0.552794
-4.736459 -4.297742 -0.550299
-4.732609 -4.282956 -0.547810
-4.728229 -4.268240 -0.545221
-4.737457 -4.252297 -0.544713
-4.737338 -4.237161 -0.542734
-4.724147 -4.223341 -0.538733
-4.694511 -4.211374 -0.532217
-4.711299 -4.194519 -0.532760
-4.707268 -4.179896 -0.530111
-4.696613 -4.166089 -0.526445
-4.704161 -4.150090 -0.525497
-4.711682 -4.134004 -0.524509
-4.708404 -4.119277 -0.521882
-4.704524 -4.104641 -0.519145
-4.700388 -4.090057 -0.516350
-4.695140 -4.075653 -0.513372
-4.693644 -4.060699 -0.510922
-4.686193 -4.046674 -0.507585
-4.683351 -4.031945 -0.504898
-4.678473 -4.017556 -0.501896
-4.682300 -4.001690 -0.500121
-4.669971 -3.988612 -0.496016
-4.672019 -3.973016 -0.493939
-4.674695 -3.957254 -0.491923
-4.669679 -3.942905 -0.488801
-4.688579 -3.923894 -0.488995
-4.626082 -3.920990 -0.477863
-4.648223 -3.901281 -0.478462
-4.635103 -3.888737 -0.474177
-4.593945 -3.882314 -0.466075
-4.419832 -3.833783 -0.428082
-4.402150 -3.823773 -0.423356
-4.384998 -3.813780 -0.418724
-4.378112 -3.801280 -0.415440
-4.366127 -3.790176 -0.411515
-4.360293 -3.777523 -0.408396
-4.352212 -3.765530 -0.405009
-4.350166 -3.751930 -0.402403
-4.354953 -3.736409 -0.400668
-4.365021 -3.719318 -0.399596
-4.364289 -3.705297 -0.397201
-4.363886 -3.691192 -0.394872
-4.359541 -3.678297 -0.392096
-4.356010 -3.665211 -0.389459
-4.338474 -3.656560 -0.385185
-4.323836 -3.647188 -0.381328
-4.318595 -3.634962 -0.378654
-4.327531 -3.618187 -0.377713
-4.350474 -3.596717 -0.378459
-4.353723 -3.581712 -0.376940
-4.351490 -3.568607 -0.374849
-4.346594 -3.556509 -0.372524
-4.340503 -3.544949 -0.370144
-4.328092 -3.535770 -0.367127
-4.337279 -3.518999 -0.366661
-4.318464 -3.512461 -0.363102
-3.607430 -5.891959 -0.474804
-3.609905 -5.883116 -0.473698
-3.638819 -5.890402 -0.477975
-3.649990 -5.886459 -0.478708
-3.668316 -5.886621 -0.480920
-3.668741 -5.875739 -0.479599
-3.670374 -5.865460 -0.478583
-3.687134 -5.863979 -0.480628
-3.711421 -5.866621 -0.484209
-3.724805 -5.862584 -0.485680
-3.742107 -5.860555 -0.487976
-3.753358 -5.854800 -0.489134
-3.768552 -5.851054 -0.491121
-3.795152 -5.853419 -0.495391
-3.807267 -5.847405 -0.496880
-3.818915 -5.840924 -0.498334
-3.827836 -5.832763 -0.499313
-3.835193 -5.823597 -0.500045
-3.840027 -5.812950 -0.500342
-3.833008 -5.795972 -0.498399
-4.562968 -5.916170 -0.634420
-4.587449 -5.891938 -0.638859
-4.542591 -5.821348 -0.629895
-4.507952 -5.790263 -0.623133
-4.528812 -5.781875 -0.627002
-4.548371 -5.772803 -0.630612
-4.570089 -5.764424 -0.634624
-4.583663 -5.752739 -0.637064
-4.610327 -5.745936 -0.641995
-4.638438 -5.739451 -0.647186
-4.655446 -5.728640 -0.650235
-4.654854 -5.711325 -0.649899
-4.648793 -5.692128 -0.648502
-4.644504 -5.673687 -0.647426
-4.647158 -5.657766 -0.647657
-4.653682 -5.643206 -0.648608
-4.639372 -5.621631 -0.645563
-4.641274 -5.605641 -0.645593
-4.641043 -5.588999 -0.645195
-4.643213 -5.573192 -0.645234
-4.637618 -5.554971 -0.643773
-4.629643 -5.536130 -0.641841
-4.621394 -5.517345 -0.639837
-4.630976 -5.504056 -0.641201
-4.641763 -5.491081 -0.642771
-4.641628 -5.474883 -0.642244
-4.625785 -5.454265 -0.638722
-4.621722 -5.437156 -0.637413
-4.620018 -5.420788 -0.636532
-4.626636 -5.406733 -0.637202
-4.621212 -5.389471 -0.635578
-4.598701 -5.367871 -0.630714
-4.605382 -5.338401 -0.630681
-4.611698 -5.308886 -0.630495
-4.598773 -5.290363 -0.627357
-4.604865 -5.276385 -0.627767
-4.613884 -5.263046 -0.628703
-4.622818 -5.249638 -0.629599
-4.625808 -5.234900 -0.629366
-4.606992 -5.215574 -0.625052
-4.604333 -5.199792 -0.623735
-4.605582 -5.184855 -0.623128
-4.616554 -5.171846 -0.624305
-4.638113 -5.160789 -0.627420
-4.768802 -5.169905 -0.650678
-4.778689 -5.045376 -0.644387
-4.796168 -5.032209 -0.646482
-4.792723 -5.015996 -0.644746
-4.791183 -5.000095 -0.643343
-4.788427 -4.984074 -0.641706
-4.791039 -4.968769 -0.641025
-4.795808 -4.953720 -0.640717
-4.796901 -4.938223 -0.639728
-4.795303 -4.922437 -0.638239
-4.791574 -4.906460 -0.636355
-4.792058 -4.890962 -0.635213
-4.793056 -4.875527 -0.634146
-4.790915 -4.859811 -0.632506
-4.786471 -4.843931 -0.630442
-4.788831 -4.828669 -0.629574
-4.788904 -4.813222 -0.628285
-4.783903 -4.797417 -0.626085
-4.784966 -4.782087 -0.624943
-4.782819 -4.766556 -0.623220
-4.786572 -4.751407 -0.622519
-4.790490 -4.736244 -0.621829
-4.790459 -4.720858 -0.620432
-4.787052 -4.705328 -0.618431
-4.781959 -4.689771 -0.616125
-4.783505 -4.674511 -0.614959
-4.777913 -4.659019 -0.612542
-4.773546 -4.643619 -0.610326
-4.763687 -4.628144 -0.607154
-4.760983 -4.612893 -0.605201
-4.749701 -4.597560 -0.601768
-4.745005 -4.582393 -0.599453
-4.751380 -4.567317 -0.599009
-4.757385 -4.552186 -0.598479
-4.763618 -4.537003 -0.597966
-4.768291 -4.521778 -0.597167
-4.775899 -4.506471 -0.596839
-4.767302 -4.491403 -0.593769
-4.760287 -4.476376 -0.590954
-4.761927 -4.461170 -0.589571
-4.753616 -4.446273 -0.586514
-4.745031 -4.431462 -0.583401
-4.743493 -4.416430 -0.581443
-4.751925 -4.400943 -0.581108
-4.751834 -4.385811 -0.579346
-4.743837 -4.371117 -0.576271
-4.740811 -4.356190 -0.573995
-4.748440 -4.340590 -0.573433
-4.753253 -4.325107 -0.572386
-4.746013 -4.310469 -0.569368
-4.735615 -4.296136 -0.565828
-4.720455 -4.282288 -0.561516
-4.714044 -4.267796 -0.558596
-4.724459 -4.251790 -0.558336
-4.727182 -4.236423 -0.556823
-4.718016 -4.222231 -0.553407
-4.709575 -4.208033 -0.550092
-4.714151 -4.192446 -0.548803
-4.712130 -4.177566 -0.546455
-4.708136 -4.162925 -0.543778
-4.712482 -4.147255 -0.542373
-4.714884 -4.131780 -0.540637
-4.714964 -4.116573 -0.538517
-4.702304 -4.103121 -0.534425
-4.696690 -4.088749 -0.531396
-4.688777 -4.074749 -0.528001
-4.689898 -4.059411 -0.525953
-4.682252 -4.045425 -0.522562
-4.677084 -4.031082 -0.519525
-4.679039 -4.015566 -0.517529
-4.674468 -4.001129 -0.514539
-4.663154 -3.987902 -0.510538
-4.667112 -3.971974 -0.508764
-4.675962 -3.955066 -0.507672
-4.673304 -3.940247 -0.504874
-4.640287 -3.931383 -0.497680
-4.677035 -3.908774 -0.500515
-4.656626 -3.897549 -0.495120
-4.685111 -3.813885 -0.486413
-4.392794 -3.838372 -0.438747
-4.384998 -3.826011 -0.435288
-4.384191 -3.811925 -0.432776
-4.382957 -3.797936 -0.430203
-4.371688 -3.786593 -0.426298
-4.364457 -3.774258 -0.422946
-4.346436 -3.764938 -0.418193
-4.341292 -3.752191 -0.415158
-4.352728 -3.734779 -0.414290
-4.361635 -3.717980 -0.413093
-4.371347 -3.700857 -0.412003
-4.367694 -3.687636 -0.409222
-4.369841 -3.672698 -0.407206
-4.366201 -3.659539 -0.404492
-4.358270 -3.647780 -0.401284
-4.340318 -3.639315 -0.396886
-4.327781 -3.629305 -0.393228
-4.338266 -3.611896 -0.392461
-4.353871 -3.592721 -0.392358
-4.354736 -3.578424 -0.390507
-4.346366 -3.567339 -0.387604
-4.335847 -3.557143 -0.384524
-4.329570 -3.545619 -0.382035
-4.324466 -3.533810 -0.379770
-4.317417 -3.522832 -0.377360
-4.332991 -3.503711 -0.377704
-3.578274 -5.886653 -0.480722
-3.586534 -5.881618 -0.480831
-3.602250 -5.881022 -0.482529
-3.620260 -5.881567 -0.484736
-3.644149 -5.885413 -0.488187
-3.640429 -5.872159 -0.486007
-3.642774 -5.862478 -0.485135
-3.655437 -5.858811 -0.486427
-3.674505 -5.858691 -0.489071
-3.697364 -5.860485 -0.492527
-3.716995 -5.860059 -0.495373
-3.736463 -5.859230 -0.498233
-3.751595 -5.855625 -0.500270
-3.765003 -5.850789 -0.502012
-3.778583 -5.845816 -0.503844
-3.801403 -5.845724 -0.507580
-3.811700 -5.838442 -0.508861
-3.824913 -5.832556 -0.510779
-3.831555 -5.822931 -0.511439
-3.842883 -5.815661 -0.513086
-3.845928 -5.803861 -0.513137
-4.532262 -5.800134 -0.643749
-4.525299 -5.780425 -0.642234
-4.539037 -5.769043 -0.644784
-4.567082 -5.763156 -0.650135
-4.593801 -5.756519 -0.655211
-4.612103 -5.746467 -0.658615
-4.629579 -5.735975 -0.661840
-4.648191 -5.725782 -0.665270
-4.658246 -5.712351 -0.666999
-4.654551 -5.693964 -0.666010
-4.645486 -5.673793 -0.663950
-4.648922 -5.658122 -0.664324
-4.649245 -5.641418 -0.664068
-4.642276 -5.622323 -0.662363
-4.636466 -5.603749 -0.660866
-4.641890 -5.588960 -0.661548
-4.643674 -5.573011 -0.661496
-4.635858 -5.554075 -0.659547
-4.628120 -5.535305 -0.657595
-4.618357 -5.516054 -0.655228
-4.628652 -5.502980 -0.656755
-4.636577 -5.489159 -0.657796
-4.634806 -5.472501 -0.656926
-4.620624 -5.452379 -0.653623
-4.619826 -5.436198 -0.652904
-4.620481 -5.420475 -0.652447
-4.626982 -5.406374 -0.653104
-4.632916 -5.392104 -0.653628
-4.600564 -5.367881 -0.646721
-4.593228 -5.350399 -0.644644
-4.616849 -5.340764 -0.648528
-4.612355 -5.324058 -0.646960
-4.589139 -5.302948 -0.641769
-4.610872 -5.292666 -0.645218
-4.609509 -5.276900 -0.644201
-4.616800 -5.263134 -0.644827
-4.621840 -5.248838 -0.645000
-4.620232 -5.233100 -0.643880
-4.621438 -5.218005 -0.643282
-4.601122 -5.198509 -0.638558
-4.595843 -5.182262 -0.636694
-4.614989 -5.170885 -0.639465
-4.638644 -5.160215 -0.643066
-4.820799 -5.130613 -0.673698
-4.819949 -5.098450 -0.671447
-4.712752 -5.034760 -0.648118
-4.792877 -5.030862 -0.662014
-4.791656 -5.014956 -0.660664
-4.791646 -4.999248 -0.659524
-4.794832 -4.983974 -0.658964
-4.791503 -4.967882 -0.657178
-4.796455 -4.952833 -0.656913
-4.794622 -4.936978 -0.655376
-4.788993 -4.920740 -0.653125
-4.784317 -4.904675 -0.651039
-4.787215 -4.889437 -0.650334
-4.790370 -4.874214 -0.649660
-4.794533 -4.859070 -0.649153
-4.787881 -4.842964 -0.646654
-4.783432 -4.827116 -0.644547
-4.790676 -4.812232 -0.644555
-4.793334 -4.796960 -0.643712
-4.787231 -4.781079 -0.641265
-4.783041 -4.765389 -0.639156
-4.784768 -4.750100 -0.638101
-4.786650 -4.734814 -0.637058
-4.787596 -4.719476 -0.635831
-4.785042 -4.703981 -0.633962
-4.784863 -4.688616 -0.632505
-4.782691 -4.673190 -0.630678
-4.777284 -4.657691 -0.628263
-4.769276 -4.642181 -0.625378
-4.771986 -4.626989 -0.624378
-4.767138 -4.611646 -0.622028
-4.760062 -4.596325 -0.619276
-4.753719 -4.581080 -0.616642
-4.752445 -4.565917 -0.614885
-4.749239 -4.550771 -0.612777
-4.756406 -4.535600 -0.612459
-4.764505 -4.520355 -0.612280
-4.768147 -4.505103 -0.611305
-4.767228 -4.489908 -0.609522
-4.770061 -4.474631 -0.608368
-4.768551 -4.459452 -0.606450
-4.762836 -4.444426 -0.603796
-4.749225 -4.429750 -0.599783
-4.740179 -4.415003 -0.596542
-4.743545 -4.399751 -0.595394
-4.748775 -4.384366 -0.594539
-4.739185 -4.369764 -0.591164
-4.736171 -4.354844 -0.588883
-4.740283 -4.339477 -0.587776
-4.746649 -4.323905 -0.587021
-4.742668 -4.309042 -0.584519
-4.735024 -4.294497 -0.581393
-4.729242 -4.279855 -0.578562
-4.723818 -4.265224 -0.575775
-4.725457 -4.249972 -0.574130
-4.725320 -4.234866 -0.572169
-4.716896 -4.220598 -0.568839
-4.715349 -4.205655 -0.566610
-4.712306 -4.190878 -0.564118
-4.709478 -4.176089 -0.561640
-4.712364 -4.160614 -0.560057
-4.715573 -4.145053 -0.558497
-4.714888 -4.129951 -0.556290
-4.708578 -4.115596 -0.553168
-4.695825 -4.102181 -0.549015
-4.691414 -4.087655 -0.546162
-4.689139 -4.072829 -0.543623
-4.689012 -4.057668 -0.541395
-4.682925 -4.043430 -0.538219
-4.681474 -4.028465 -0.535740
-4.679574 -4.013562 -0.533168
-4.677782 -3.998630 -0.530590
-4.658175 -3.986855 -0.525280
-4.672982 -3.968954 -0.525179
-4.683572 -3.951671 -0.524395
-4.678814 -3.937206 -0.521272
-4.671166 -3.923323 -0.517701
-4.663146 -3.909557 -0.514062
-4.665811 -3.893630 -0.511987
-4.657630 -3.879937 -0.508294
-4.666837 -3.862531 -0.507129
-4.652097 -3.850297 -0.502453
-4.654914 -3.834208 -0.500315
-4.641576 -3.806324 -0.493262
-4.460081 -3.834479 -0.464929
-4.389514 -3.837159 -0.452523
-4.376748 -3.826037 -0.448328
-4.388824 -3.808676 -0.447607
-4.385000 -3.795310 -0.444657
-4.381193 -3.781955 -0.441711
-4.370135 -3.770577 -0.437779
-4.353829 -3.760734 -0.433152
-4.343518 -3.749362 -0.429369
-4.355187 -3.731821 -0.428565
-4.358037 -3.716714 -0.426576
-4.362123 -3.701211 -0.424763
-4.365997 -3.685732 -0.422934
-4.358886 -3.673566 -0.419683
-4.356339 -3.660069 -0.417067
-4.356799 -3.645667 -0.414878
-4.344442 -3.635375 -0.411075
-4.338985 -3.622993 -0.408216
-4.344171 -3.607195 -0.406768
-4.357656 -3.588611 -0.406415
-4.347164 -3.578068 -0.403080
-4.335960 -3.567924 -0.399733
-4.332077 -3.555394 -0.397378
-4.332172 -3.541558 -0.395591
-4.330011 -3.528601 -0.393600
-4.316676 -3.519798 -0.390317
-4.325441 -3.503077 -0.389833
-3.561130 -5.888670 -0.488962
-3.566626 -5.882052 -0.488518
-3.573726 -5.876271 -0.488461
-3.594620 -5.878891 -0.491376
-3.621326 -5.884777 -0.495547
-3.636950 -5.883488 -0.497409
-3.631302 -5.868999 -0.494846
-3.631100 -5.857736 -0.493493
-3.649466 -5.857451 -0.496081
-3.677138 -5.862375 -0.500651
-3.702542 -5.865568 -0.504785
-3.721693 -5.864752 -0.507665
-3.736006 -5.860843 -0.509591
-3.748586 -5.855694 -0.511214
-3.761987 -5.850780 -0.513061
-3.773627 -5.844647 -0.514599
-3.789105 -5.840431 -0.516980
-3.815425 -5.841912 -0.521635
-3.824478 -5.833657 -0.522800
-3.831928 -5.824378 -0.523691
-3.851693 -5.821505 -0.527148
-3.880210 -5.822960 -0.532434
-3.737629 -5.657023 -0.501001
-4.535157 -5.801308 -0.660319
-4.526799 -5.780996 -0.658468
-4.532298 -5.766322 -0.659406
-4.570664 -5.764472 -0.666968
-4.592155 -5.755780 -0.671106
-4.613366 -5.746818 -0.675170
-4.626526 -5.734685 -0.677592
-4.638984 -5.722222 -0.679854
-4.648528 -5.708636 -0.681508
-4.648538 -5.691609 -0.681223
-4.645738 -5.673660 -0.680352
-4.645282 -5.656622 -0.679935
-4.643767 -5.639294 -0.679285
-4.634161 -5.619326 -0.676988
-4.636371 -5.603436 -0.677048
-4.639577 -5.587913 -0.677286
-4.641325 -5.571950 -0.677210
-4.636184 -5.553857 -0.675731
-4.628988 -5.535240 -0.673822
-4.626929 -5.518324 -0.672922
-4.625092 -5.501553 -0.672047
-4.631347 -5.487244 -0.672768
-4.628456 -5.470275 -0.671641
-4.624526 -5.453094 -0.670287
-4.623314 -5.436765 -0.669456
-4.627848 -5.422077 -0.669750
-4.634280 -5.407906 -0.670399
-4.647274 -5.395453 -0.672330
-4.629557 -5.374949 -0.668140
-4.602495 -5.352288 -0.662084
-4.586816 -5.332783 -0.658277
-4.560809 -5.310950 -0.652415
-4.605708 -5.306410 -0.660557
-4.601965 -5.290050 -0.659061
-4.605544 -5.275449 -0.658991
-4.606431 -5.260247 -0.658372
-4.604921 -5.244546 -0.657264
-4.607549 -5.229787 -0.656952
-4.610373 -5.215079 -0.656660
-4.611290 -5.199987 -0.655976
-4.589727 -5.180412 -0.650881
-4.600167 -5.167341 -0.652029
-4.640023 -5.159815 -0.658889
-4.746035 -5.038849 -0.670277
-4.792041 -5.029874 -0.677993
-4.795427 -5.014592 -0.677504
-4.797186 -4.999084 -0.676687
-4.799864 -4.983699 -0.676030
-4.799405 -4.967922 -0.674759
-4.794633 -4.951655 -0.672655
-4.794422 -4.935976 -0.671404
-4.791177 -4.919985 -0.669566
-4.790076 -4.904269 -0.668121
-4.789954 -4.888680 -0.666847
-4.794413 -4.873550 -0.666421
-4.792174 -4.857782 -0.664721
-4.788013 -4.841886 -0.662648
-4.781183 -4.825825 -0.660065
-4.784760 -4.810647 -0.659416
-4.793853 -4.795851 -0.659777
-4.790747 -4.780154 -0.657850
-4.780632 -4.764054 -0.654613
-4.779777 -4.748606 -0.653083
-4.780605 -4.733266 -0.651849
-4.780222 -4.717871 -0.650379
-4.782160 -4.702594 -0.649321
-4.779595 -4.687128 -0.647421
-4.778031 -4.671730 -0.645693
-4.769273 -4.656133 -0.642639
-4.769721 -4.640866 -0.641253
-4.769773 -4.625595 -0.639780
-4.768228 -4.610301 -0.638004
-4.763886 -4.594994 -0.635708
-4.766150 -4.579783 -0.634591
-4.761762 -4.564536 -0.632261
-4.755013 -4.549335 -0.629497
-4.754622 -4.534163 -0.627859
-4.760083 -4.518932 -0.627249
-4.765098 -4.503661 -0.626537
-4.764256 -4.488461 -0.624766
-4.771590 -4.473069 -0.624424
-4.773194 -4.457776 -0.623048
-4.769474 -4.442647 -0.620717
-4.752025 -4.428077 -0.615966
-4.747519 -4.413110 -0.613476
-4.744687 -4.398101 -0.611264
-4.747520 -4.382818 -0.610020
-4.739442 -4.368124 -0.606866
-4.726010 -4.353829 -0.602777
-4.730837 -4.338443 -0.601823
-4.735839 -4.322994 -0.600875
-4.736712 -4.307801 -0.599195
-4.742138 -4.292226 -0.598269
-4.734611 -4.277688 -0.595117
-4.727822 -4.263142 -0.592076
-4.730110 -4.247795 -0.590553
-4.732139 -4.232439 -0.588960
-4.733484 -4.217122 -0.587229
-4.722264 -4.203132 -0.583377
-4.711411 -4.189189 -0.579576
-4.705513 -4.174751 -0.576586
-4.712179 -4.158819 -0.575651
-4.713954 -4.143425 -0.573881
-4.709680 -4.128788 -0.571093
-4.698919 -4.115053 -0.567229
-4.686858 -4.101580 -0.563143
-4.693395 -4.085495 -0.562055
-4.693851 -4.070237 -0.559953
-4.689011 -4.055770 -0.556976
-4.695120 -4.039577 -0.555727
-4.694682 -4.024376 -0.553404
-4.676621 -4.012127 -0.548266
-4.664671 -3.998961 -0.544091
-4.660324 -3.984524 -0.541099
-4.670558 -3.967426 -0.540363
-4.692894 -3.947926 -0.541466
-4.682897 -3.934413 -0.537513
-4.673181 -3.920909 -0.533591
-4.663347 -3.907489 -0.529642
-4.656540 -3.893504 -0.526145
-4.677122 -3.858219 -0.524266
-4.646203 -3.803080 -0.509421
-4.448877 -3.835131 -0.477876
-4.399424 -3.832695 -0.468215
-4.385547 -3.821787 -0.463784
-4.380343 -3.808769 -0.460617
-4.381757 -3.794052 -0.458400
-4.380895 -3.779902 -0.455850
-4.363128 -3.770317 -0.450902
-4.368546 -3.754498 -0.449251
-4.363356 -3.741586 -0.446107
-4.372264 -3.724686 -0.444941
-4.366020 -3.712091 -0.441672
-4.361897 -3.698925 -0.438718
-4.360938 -3.684848 -0.436221
-4.351243 -3.673450 -0.432559
-4.348446 -3.660016 -0.429871
-4.343809 -3.647202 -0.426969
-4.336450 -3.635323 -0.423746
-4.336481 -3.621137 -0.421555
-4.351367 -3.602075 -0.421370
-4.350927 -3.588037 -0.419199
-4.333241 -3.579909 -0.414829
-4.334679 -3.565407 -0.413027
-4.333756 -3.551771 -0.410982
-4.343663 -3.534366 -0.410398
-4.340991 -3.521453 -0.408263
-4.343527 -3.506745 -0.406872
-3.552300 -5.885832 -0.497280
-3.561822 -5.881731 -0.497779
-3.578493 -5.881912 -0.499876
-3.587401 -5.876967 -0.500322
-3.612549 -5.881864 -0.504327
-3.628156 -5.880531 -0.506302
-3.638287 -5.875590 -0.507143
-3.643237 -5.867301 -0.506924
-3.664604 -5.868669 -0.510273
-3.687905 -5.870847 -0.514077
-3.715034 -5.874919 -0.518737
-3.728598 -5.870698 -0.520556
-3.729871 -5.859141 -0.519824
-3.746444 -5.856215 -0.522393
-3.764259 -5.853719 -0.525274
-3.776097 -5.847592 -0.526946
-3.794099 -5.844673 -0.529970
-3.818512 -5.844999 -0.534389
-3.830047 -5.837986 -0.536151
-3.839823 -5.829836 -0.537596
-3.864563 -5.829483 -0.542221
-3.892647 -5.830562 -0.547587
-4.523038 -5.796390 -0.673833
-4.534152 -5.783926 -0.675955
-4.548719 -5.772772 -0.678780
-4.567082 -5.763007 -0.682377
-4.589754 -5.754767 -0.686848
-4.622260 -5.750077 -0.693337
-4.635132 -5.737769 -0.695743
-4.640634 -5.722679 -0.696605
-4.642890 -5.706422 -0.696777
-4.645721 -5.690415 -0.697049
-4.641269 -5.671884 -0.695797
-4.639697 -5.654467 -0.695121
-4.636128 -5.636453 -0.694013
-4.630440 -5.617829 -0.692449
-4.629863 -5.601022 -0.691919
-4.635370 -5.586267 -0.692621
-4.639889 -5.571201 -0.693099
-4.640698 -5.554979 -0.692790
-4.638624 -5.537915 -0.691869
-4.628996 -5.518629 -0.689377
-4.630898 -5.502956 -0.689233
-4.632895 -5.487348 -0.689087
-4.630242 -5.470428 -0.687967
-4.630635 -5.454455 -0.687452
-4.630052 -5.438258 -0.686717
-4.627902 -5.421688 -0.685642
-4.634020 -5.407417 -0.686235
-4.643408 -5.393998 -0.687472
-4.637146 -5.376473 -0.685501
-4.595948 -5.350168 -0.676412
-4.599241 -5.335416 -0.676356
-4.606097 -5.321546 -0.677004
-4.574989 -5.298557 -0.669940
-4.606803 -5.290675 -0.675604
-4.597009 -5.272965 -0.672827
-4.594438 -5.257012 -0.671496
-4.597943 -5.242459 -0.671373
-4.593920 -5.226289 -0.669717
-4.593367 -5.210923 -0.668743
-4.602203 -5.197523 -0.669639
-4.582916 -5.178437 -0.664877
-4.598108 -5.166310 -0.667010
-4.638087 -5.158793 -0.674073
-4.774620 -5.168865 -0.700363
-4.909519 -5.160808 -0.725161
-4.800117 -5.045998 -0.696867
-4.796634 -5.029669 -0.695042
-4.798169 -5.014091 -0.694190
-4.798443 -4.998352 -0.693075
-4.800192 -4.982823 -0.692235
-4.800346 -4.967101 -0.691067
-4.795247 -4.950773 -0.688863
-4.795182 -4.935089 -0.687627
-4.795674 -4.919486 -0.686486
-4.793388 -4.903606 -0.684793
-4.786552 -4.887309 -0.682208
-4.784446 -4.871545 -0.680528
-4.780671 -4.855666 -0.678514
-4.778611 -4.839987 -0.676820
-4.775377 -4.824246 -0.674888
-4.776275 -4.808868 -0.673737
-4.783446 -4.793950 -0.673770
-4.786195 -4.778679 -0.672940
-4.782770 -4.763006 -0.670921
-4.778442 -4.747325 -0.668720
-4.775486 -4.731771 -0.666768
-4.775730 -4.716411 -0.665410
-4.777771 -4.701138 -0.664377
-4.779641 -4.685851 -0.663296
-4.778162 -4.670436 -0.661571
-4.782434 -4.655221 -0.660910
-4.773643 -4.639636 -0.657791
-4.772581 -4.624303 -0.656106
-4.767553 -4.608921 -0.653670
-4.764790 -4.593618 -0.651644
-4.768786 -4.578397 -0.650855
-4.773199 -4.563144 -0.650125
-4.764887 -4.547878 -0.647034
-4.759264 -4.532676 -0.644429
-4.761774 -4.517437 -0.643302
-4.765937 -4.502151 -0.642458
-4.761275 -4.487008 -0.639988
-4.764149 -4.471720 -0.638874
-4.764456 -4.456481 -0.637275
-4.760482 -4.441385 -0.634886
-4.749632 -4.426592 -0.631247
-4.742924 -4.411717 -0.628344
-4.746505 -4.396405 -0.627272
-4.744503 -4.381351 -0.625181
-4.725037 -4.367311 -0.619968
-4.713382 -4.352963 -0.616142
-4.721688 -4.337387 -0.615838
-4.729345 -4.321772 -0.615392
-4.739090 -4.305919 -0.615285
-4.745705 -4.290219 -0.614597
-4.738142 -4.275656 -0.611407
-4.728076 -4.261376 -0.607768
-4.726574 -4.246370 -0.605605
-4.730636 -4.230814 -0.604384
-4.725463 -4.216164 -0.601545
-4.717803 -4.201817 -0.598262
-4.704719 -4.188139 -0.594039
-4.706609 -4.172805 -0.592360
-4.712041 -4.157001 -0.591257
-4.706787 -4.142486 -0.588315
-4.693928 -4.129003 -0.584075
-4.692181 -4.114104 -0.581692
-4.694768 -4.098587 -0.580011
-4.695970 -4.083226 -0.578070
-4.698127 -4.067687 -0.576261
-4.702808 -4.051710 -0.574841
-4.703567 -4.036291 -0.572743
-4.705206 -4.020693 -0.570762
-4.690927 -4.007751 -0.566157
-4.665363 -3.996883 -0.559713
-4.655905 -3.983345 -0.555883
-4.694288 -3.961075 -0.559741
-4.687887 -3.946852 -0.556341
-4.676312 -3.933659 -0.552100
-4.672208 -3.919065 -0.549037
-4.667829 -3.904534 -0.545911
-4.673339 -3.887955 -0.544321
-4.597839 -3.842931 -0.522613
-4.630252 -3.820146 -0.525067
-4.447136 -3.833497 -0.492168
-4.387902 -3.833494 -0.480792
-4.377939 -3.821643 -0.476889
-4.374527 -3.808181 -0.473967
-4.375019 -3.793705 -0.471620
-4.375770 -3.779130 -0.469303
-4.379665 -3.763671 -0.467440
-4.369216 -3.752118 -0.463477
-4.369646 -3.737589 -0.461109
-4.371513 -3.722629 -0.458951
-4.372562 -3.707876 -0.456680
-4.369038 -3.694460 -0.453765
-4.359137 -3.682995 -0.449968
-4.363620 -3.667222 -0.448231
-4.355681 -3.655276 -0.444770
-4.345703 -3.644063 -0.441065
-4.334852 -3.633243 -0.437286
-4.332314 -3.619840 -0.434704
-4.341205 -3.602704 -0.433732
-4.354519 -3.584025 -0.433393
-4.347254 -3.572271 -0.430300
-4.337380 -3.561536 -0.426922
-4.344588 -3.544957 -0.425906
-4.347418 -3.529924 -0.424362
-4.357951 -3.512152 -0.423905
-4.316262 -3.513428 -0.416614
-4.330983 -3.480646 -0.415256
-4.287267 -3.483674 -0.408032
-3.541926 -5.892004 -0.506844
-3.545405 -5.884180 -0.506027
-3.563567 -5.885526 -0.508539
-3.582031 -5.886762 -0.511147
-3.588365 -5.880109 -0.511096
-3.597707 -5.875137 -0.511761
-3.615619 -5.875221 -0.514366
-3.631587 -5.873816 -0.516582
-3.651243 -5.874359 -0.519653
-3.667294 -5.872421 -0.521976
-3.689606 -5.873920 -0.525715
-3.711946 -5.875088 -0.529502
-3.720166 -5.867678 -0.530264
-3.723016 -5.856977 -0.529919
-3.734398 -5.851031 -0.531483
-3.760979 -5.853479 -0.536389
-3.778942 -5.850715 -0.539477
-3.794452 -5.846310 -0.542086
-3.811097 -5.842283 -0.544988
-3.826177 -5.837152 -0.547603
-3.839752 -5.830983 -0.549941
-3.866440 -5.831591 -0.555138
-3.888737 -5.829536 -0.559433
-4.440178 -5.779280 -0.672397
-4.498548 -5.786454 -0.684616
-4.522903 -5.779410 -0.689591
-4.547816 -5.772386 -0.694668
-4.563440 -5.761536 -0.697756
-4.590914 -5.755140 -0.703342
-4.626701 -5.751666 -0.710671
-4.638593 -5.738948 -0.712910
-4.642706 -5.723309 -0.713480
-4.652149 -5.709630 -0.715160
-4.646489 -5.690523 -0.713620
-4.643869 -5.672617 -0.712706
-4.640766 -5.654641 -0.711671
-4.637990 -5.636877 -0.710685
-4.632000 -5.618127 -0.709001
-4.631762 -5.601410 -0.708512
-4.633959 -5.585554 -0.708517
-4.640339 -5.571077 -0.709382
-4.641349 -5.554903 -0.709093
-4.637641 -5.537316 -0.707791
-4.631313 -5.519028 -0.705917
-4.628226 -5.501834 -0.704707
-4.633677 -5.487244 -0.705270
-4.632797 -5.470820 -0.704484
-4.635116 -5.455369 -0.704347
-4.630829 -5.438102 -0.702808
-4.624465 -5.420359 -0.700815
-4.625922 -5.404836 -0.700441
-4.627216 -5.389303 -0.700013
-4.612569 -5.369672 -0.696241
-4.622371 -5.356450 -0.697550
-4.626575 -5.341779 -0.697672
-4.634423 -5.328000 -0.698530
-4.630217 -5.311299 -0.696865
-4.613314 -5.291706 -0.692553
-4.592620 -5.271449 -0.687447
-4.592985 -5.256163 -0.686690
-4.611502 -5.244898 -0.689664
-4.606269 -5.228388 -0.687714
-4.588869 -5.209410 -0.683245
-4.581367 -5.192666 -0.680806
-4.604248 -5.182108 -0.684595
-4.594166 -5.164922 -0.681595
-4.638838 -5.158295 -0.689798
-4.759220 -5.165320 -0.713438
-4.849030 -5.165686 -0.730747
-4.790596 -5.043757 -0.711156
-4.798935 -5.029141 -0.711684
-4.798545 -5.013268 -0.710437
-4.795216 -4.997028 -0.708586
-4.796472 -4.981431 -0.707643
-4.795890 -4.965617 -0.706317
-4.788288 -4.948994 -0.703577
-4.790985 -4.933639 -0.702882
-4.794207 -4.918335 -0.702276
-4.791760 -4.902425 -0.700528
-4.786202 -4.886246 -0.698153
-4.784813 -4.870534 -0.696594
-4.778858 -4.854436 -0.694122
-4.778735 -4.838913 -0.692790
-4.779587 -4.823485 -0.691637
-4.780025 -4.808033 -0.690389
-4.774544 -4.792164 -0.687969
-4.782924 -4.777292 -0.688248
-4.783451 -4.761864 -0.686977
-4.779762 -4.746199 -0.684872
-4.772657 -4.730398 -0.682094
-4.774801 -4.715123 -0.681100
-4.779607 -4.699957 -0.680605
-4.779755 -4.684572 -0.679195
-4.786541 -4.669425 -0.679048
-4.783437 -4.653927 -0.676983
-4.783203 -4.638539 -0.675457
-4.772460 -4.622942 -0.671908
-4.766787 -4.607533 -0.669322
-4.762173 -4.592195 -0.666929
-4.767028 -4.576970 -0.666321
-4.770912 -4.561704 -0.665511
-4.767539 -4.546422 -0.663312
-4.761564 -4.531193 -0.660612
-4.759695 -4.515975 -0.658672
-4.765562 -4.500651 -0.658169
-4.761158 -4.485488 -0.655725
-4.761599 -4.470243 -0.654172
-4.758636 -4.455097 -0.651970
-4.754886 -4.440004 -0.649608
-4.740604 -4.425359 -0.645287
-4.720876 -4.411084 -0.639960
-4.739912 -4.395104 -0.641760
-4.732440 -4.380355 -0.638664
-4.726493 -4.365583 -0.635837
-4.721695 -4.350788 -0.633208
-4.722752 -4.335639 -0.631628
-4.739951 -4.319314 -0.632950
-4.746164 -4.303661 -0.632251
-4.746495 -4.288419 -0.630467
-4.737552 -4.273958 -0.626998
-4.733293 -4.259147 -0.624356
-4.727908 -4.244471 -0.621498
-4.719479 -4.230135 -0.618084
-4.706194 -4.216372 -0.613798
-4.701795 -4.201749 -0.611074
-4.701972 -4.186632 -0.609138
-4.708006 -4.170804 -0.608204
-4.712656 -4.155072 -0.606998
-4.705615 -4.140771 -0.603729
-4.694579 -4.127046 -0.599753
-4.689377 -4.112604 -0.596774
-4.706048 -4.095089 -0.597540
-4.701530 -4.080498 -0.594628
-4.694228 -4.066347 -0.591222
-4.703194 -4.049705 -0.590566
-4.709648 -4.033355 -0.589446
-4.703279 -4.019038 -0.586130
-4.693591 -4.005318 -0.582238
-4.684724 -3.991519 -0.578471
-4.683392 -3.976421 -0.575945
-4.697786 -3.958405 -0.576002
-4.679218 -3.946457 -0.570572
-4.672040 -3.932446 -0.567014
-4.669316 -3.917585 -0.564169
-4.669427 -3.902139 -0.561764
-4.686797 -3.883061 -0.562131
-4.701361 -3.864379 -0.561993
-4.699835 -3.849031 -0.559226
-4.629269 -3.833659 -0.542898
-4.393519 -3.844434 -0.498343
-4.377677 -3.833976 -0.493478
-4.372166 -3.821035 -0.490224
-4.370710 -3.807075 -0.487591
-4.369658 -3.792996 -0.485010
-4.379884 -3.775887 -0.484140
-4.378196 -3.761894 -0.481441
-4.371429 -3.749303 -0.477975
-4.365171 -3.736615 -0.474594
-4.367653 -3.721462 -0.472527
-4.368757 -3.706672 -0.470257
-4.362514 -3.694043 -0.466910
-4.359738 -3.680421 -0.464094
-4.363805 -3.664722 -0.462294
-4.367576 -3.649075 -0.460464
-4.358904 -3.637342 -0.456859
-4.344869 -3.627435 -0.452530
-4.337745 -3.615424 -0.449240
-4.346421 -3.598260 -0.448237
-4.350786 -3.582491 -0.446656
-4.350880 -3.568175 -0.444517
-4.347007 -3.555276 -0.441878
-4.346029 -3.541445 -0.439704
-4.348684 -3.526384 -0.438095
-4.344418 -3.513862 -0.435598
-4.362752 -3.493168 -0.436269
-4.311930 -3.498052 -0.427580
-4.367236 -3.395463 -0.426272
-3.541089 -5.894268 -0.516946
-3.543479 -5.885669 -0.515928
-3.554048 -5.882129 -0.516827
-3.574217 -5.884421 -0.519953
-3.583168 -5.879363 -0.520564
-3.597425 -5.877388 -0.522423
-3.605910 -5.871591 -0.523023
-3.624925 -5.872018 -0.526045
-3.645375 -5.872999 -0.529430
-3.669221 -5.875686 -0.533617
-3.684006 -5.872618 -0.535819
-3.697822 -5.868711 -0.537856
-3.710340 -5.863793 -0.539656
-3.718246 -5.855971 -0.540484
-3.733332 -5.852081 -0.542962
-3.758058 -5.853404 -0.547625
-3.777885 -5.851616 -0.551249
-3.788531 -5.844427 -0.552893
-3.801161 -5.838140 -0.555026
-3.819706 -5.834868 -0.558510
-3.840827 -5.832716 -0.562605
-3.866929 -5.832931 -0.567836
-3.879976 -5.825924 -0.570236
-3.873367 -5.808489 -0.568364
-3.814388 -5.695852 -0.553681
-4.131169 -5.727160 -0.621505
-4.409029 -5.766503 -0.681211
-4.471316 -5.775419 -0.694571
-4.521873 -5.779007 -0.705356
-4.541966 -5.770060 -0.709492
-4.567743 -5.763179 -0.714847
-4.590967 -5.755105 -0.719627
-4.615637 -5.747397 -0.724700
-4.631462 -5.736190 -0.727830
-4.641244 -5.722658 -0.729626
-4.645685 -5.707155 -0.730242
-4.649790 -5.691557 -0.730766
-4.649048 -5.674279 -0.730217
-4.643930 -5.655561 -0.728701
-4.641648 -5.637934 -0.727780
-4.638555 -5.620125 -0.726663
-4.636303 -5.602694 -0.725709
-4.636181 -5.586044 -0.725196
-4.636652 -5.569648 -0.724790
-4.637942 -5.553568 -0.724540
-4.636266 -5.536615 -0.723630
-4.633016 -5.519260 -0.722361
-4.632253 -5.502741 -0.721608
-4.636029 -5.487622 -0.721812
-4.638731 -5.472210 -0.721763
-4.641080 -5.456724 -0.721618
-4.623551 -5.435715 -0.717190
-4.620360 -5.418865 -0.715822
-4.616972 -5.402045 -0.714394
-4.607018 -5.383573 -0.711546
-4.608803 -5.368288 -0.711190
-4.613530 -5.353779 -0.711443
-4.629657 -5.342108 -0.714105
-4.627411 -5.325833 -0.712830
-4.632157 -5.311295 -0.713026
-4.617908 -5.292300 -0.709171
-4.589469 -5.270233 -0.702297
-4.603123 -5.257929 -0.704335
-4.621891 -5.246651 -0.707430
-4.621430 -5.231099 -0.706439
-4.589169 -5.208918 -0.698726
-4.601587 -5.196237 -0.700425
-4.602559 -5.181180 -0.699694
-4.583617 -5.162259 -0.694767
-4.629515 -5.155890 -0.703431
-4.782492 -5.168962 -0.734471
-4.831272 -5.129385 -0.741440
-4.863178 -5.102264 -0.745831
-4.736751 -5.050604 -0.717339
-4.773824 -5.040463 -0.723868
-4.798953 -5.028295 -0.727892
-4.804384 -5.013201 -0.727827
-4.803192 -4.997199 -0.726383
-4.794086 -4.980218 -0.723302
-4.792408 -4.964260 -0.721737
-4.782931 -4.947413 -0.718564
-4.788178 -4.932353 -0.718392
-4.794604 -4.917391 -0.718444
-4.796640 -4.901928 -0.717585
-4.790261 -4.885625 -0.715003
-4.789679 -4.869951 -0.713589
-4.781583 -4.853620 -0.710642
-4.782393 -4.838143 -0.709487
-4.796223 -4.823728 -0.710942
-4.788571 -4.807560 -0.708054
-4.785563 -4.791810 -0.706092
-4.788047 -4.776469 -0.705219
-4.791681 -4.761189 -0.704561
-4.784450 -4.745263 -0.701721
-4.778276 -4.729471 -0.699085
-4.781217 -4.714189 -0.698251
-4.783028 -4.698840 -0.697177
-4.789971 -4.683683 -0.697104
-4.784409 -4.668043 -0.694545
-4.785089 -4.652648 -0.693206
-4.783963 -4.637210 -0.691498
-4.777523 -4.621681 -0.688737
-4.770453 -4.606210 -0.685846
-4.765406 -4.590832 -0.683341
-4.765090 -4.575537 -0.681747
-4.768253 -4.560257 -0.680814
-4.764680 -4.544971 -0.678560
-4.757294 -4.529749 -0.675559
-4.758472 -4.514496 -0.674199
-4.761344 -4.499206 -0.673149
-4.761087 -4.483957 -0.671480
-4.760794 -4.468713 -0.669790
-4.755722 -4.453618 -0.667173
-4.748641 -4.438640 -0.664163
-4.740330 -4.423775 -0.660911
-4.747467 -4.408298 -0.660571
-4.726958 -4.394110 -0.654994
-4.735878 -4.378527 -0.654955
-4.736071 -4.363365 -0.653253
-4.731534 -4.348495 -0.650647
-4.733128 -4.333247 -0.649172
-4.743021 -4.317376 -0.649218
-4.750504 -4.301591 -0.648787
-4.745106 -4.286780 -0.645949
-4.733152 -4.272574 -0.641890
-4.730904 -4.257586 -0.639606
-4.724543 -4.243002 -0.636551
-4.715304 -4.228753 -0.632958
-4.712246 -4.213928 -0.630478
-4.707458 -4.199307 -0.627667
-4.700549 -4.184958 -0.624456
-4.701471 -4.169726 -0.622640
-4.710033 -4.153524 -0.622172
-4.715339 -4.137642 -0.621087
-4.698252 -4.124667 -0.615983
-4.685796 -4.111196 -0.611699
-4.670559 -4.098216 -0.606914
-4.682932 -4.081297 -0.606990
-4.698287 -4.063785 -0.607549
-4.707527 -4.047060 -0.606992
-4.702406 -4.032539 -0.603895
-4.693193 -4.018718 -0.600070
-4.696612 -4.002801 -0.598414
-4.692586 -3.988129 -0.595446
-4.691658 -3.972907 -0.592988
-4.678856 -3.959861 -0.588480
-4.674767 -3.945252 -0.585443
-4.670283 -3.930727 -0.582320
-4.664719 -3.916428 -0.578995
-4.662237 -3.901519 -0.576170
-4.688473 -3.880594 -0.578116
-4.697351 -3.863094 -0.577113
-4.668574 -3.822526 -0.564795
-4.378884 -3.845949 -0.510302
-4.370951 -3.833589 -0.506644
-4.371881 -3.819032 -0.504400
-4.371346 -3.804814 -0.501906
-4.372341 -3.790168 -0.499643
-4.382491 -3.773031 -0.498806
-4.380864 -3.758981 -0.496101
-4.368740 -3.747839 -0.491760
-4.363902 -3.734735 -0.488563
-4.364456 -3.720106 -0.486202
-4.361570 -3.706461 -0.483317
-4.356347 -3.693528 -0.480085
-4.353592 -3.679890 -0.477246
-4.359081 -3.663734 -0.475664
-4.363618 -3.647819 -0.473947
-4.360188 -3.634394 -0.471059
-4.351979 -3.622555 -0.467493
-4.349875 -3.608809 -0.464870
-4.353601 -3.593163 -0.463139
-4.349235 -3.580239 -0.460263
-4.341832 -3.568432 -0.456998
-4.340602 -3.554590 -0.454684
-4.351674 -3.536464 -0.454191
-4.344527 -3.524801 -0.451141
-4.343456 -3.511064 -0.449028
-4.338557 -3.498810 -0.446444
-3.526852 -5.897849 -0.525556
-3.518030 -5.882113 -0.521905
-3.525032 -5.876510 -0.522023
-3.543097 -5.877766 -0.524768
-3.558882 -5.877275 -0.527013
-3.580658 -5.880261 -0.530685
-3.595708 -5.878715 -0.532833
-3.606738 -5.874410 -0.534095
-3.621462 -5.872130 -0.536257
-3.646782 -5.876005 -0.540898
-3.661211 -5.872947 -0.543081
-3.675534 -5.869559 -0.545289
-3.691756 -5.867030 -0.547982
-3.703737 -5.861740 -0.549757
-3.718173 -5.857643 -0.552144
-3.738651 -5.856758 -0.555954
-3.759079 -5.855528 -0.559798
-3.774171 -5.850989 -0.562481
-3.787156 -5.845034 -0.564737
-3.799670 -5.838605 -0.566935
-3.821625 -5.837119 -0.571309
-3.842501 -5.834747 -0.575481
-3.860928 -5.830786 -0.579141
-3.874054 -5.823778 -0.581647
-3.867326 -5.806234 -0.579729
-3.841202 -5.723248 -0.572364
-3.774115 -5.676751 -0.557116
-3.778942 -5.665629 -0.558000
-4.052451 -5.707479 -0.618164
-4.086333 -5.707618 -0.625570
-4.109953 -5.702964 -0.630679
-4.114559 -5.689940 -0.631535
-4.069240 -5.655787 -0.621240
-4.370233 -5.750587 -0.688016
-4.472751 -5.776051 -0.710656
-4.514878 -5.776229 -0.719804
-4.547641 -5.772308 -0.726845
-4.570024 -5.764052 -0.731553
-4.588185 -5.753999 -0.735301
-4.604026 -5.742941 -0.738512
-4.622929 -5.732928 -0.742383
-4.631630 -5.719027 -0.743963
-4.639253 -5.704714 -0.745283
-4.643806 -5.689294 -0.745899
-4.647624 -5.673636 -0.746332
-4.644158 -5.655484 -0.745127
-4.641187 -5.637606 -0.744014
-4.640958 -5.620749 -0.743488
-4.642480 -5.604538 -0.743329
-4.636302 -5.585871 -0.741447
-4.640886 -5.570778 -0.741925
-4.636167 -5.552769 -0.740326
-4.635577 -5.536148 -0.739620
-4.634542 -5.519458 -0.738796
-4.633572 -5.502855 -0.737967
-4.633055 -5.486452 -0.737218
-4.633552 -5.470403 -0.736672
-4.636118 -5.454990 -0.736562
-4.641972 -5.440521 -0.737153
-4.623853 -5.419474 -0.732467
-4.612413 -5.400455 -0.729233
-4.610889 -5.384218 -0.728155
-4.617242 -5.370083 -0.728782
-4.615633 -5.353908 -0.727650
-4.597330 -5.333635 -0.722861
-4.611558 -5.321526 -0.725149
-4.610326 -5.305622 -0.724050
-4.613486 -5.290798 -0.723889
-4.608366 -5.274084 -0.721913
-4.597235 -5.256112 -0.718622
-4.614124 -5.244431 -0.721385
-4.592429 -5.224348 -0.715783
-4.597015 -5.210019 -0.715852
-4.607397 -5.196864 -0.717152
-4.616724 -5.183431 -0.718203
-4.618656 -5.168497 -0.717645
-4.640408 -5.157342 -0.721325
-4.771162 -5.166197 -0.748332
-4.822618 -5.127174 -0.756068
-4.798264 -5.075068 -0.747481
-4.794044 -5.042614 -0.744258
-4.807126 -5.028612 -0.745837
-4.811402 -5.013299 -0.745538
-4.809907 -4.997204 -0.744007
-4.800177 -4.980093 -0.740735
-4.784782 -4.962399 -0.736269
-4.781970 -4.946360 -0.734436
-4.792797 -4.931915 -0.735443
-4.796680 -4.916633 -0.734982
-4.799687 -4.901240 -0.734323
-4.798230 -4.885394 -0.732721
-4.796677 -4.869569 -0.731088
-4.790829 -4.853388 -0.728555
-4.789519 -4.837667 -0.726952
-4.791259 -4.822218 -0.725967
-4.805780 -4.807739 -0.727600
-4.798239 -4.791565 -0.724676
-4.802916 -4.776289 -0.724251
-4.803269 -4.760715 -0.722926
-4.791246 -4.744442 -0.719061
-4.776120 -4.728130 -0.714561
-4.780536 -4.712906 -0.714035
-4.790518 -4.697892 -0.714623
-4.785116 -4.682201 -0.712074
-4.778844 -4.666541 -0.709342
-4.774658 -4.651009 -0.707023
-4.776362 -4.635669 -0.705880
-4.769600 -4.620152 -0.703023
-4.767719 -4.604779 -0.701137
-4.766248 -4.589434 -0.699320
-4.762598 -4.574096 -0.697057
-4.764275 -4.558804 -0.695843
-4.758513 -4.543525 -0.693138
-4.754314 -4.528290 -0.690734
-4.749571 -4.513105 -0.688212
-4.760063 -4.497705 -0.688679
-4.763190 -4.482369 -0.687675
-4.759865 -4.467176 -0.685388
-4.750628 -4.452199 -0.681935
-4.746354 -4.437129 -0.679441
-4.747370 -4.421884 -0.677965
-4.750046 -4.406553 -0.676794
-4.758218 -4.390923 -0.676665
-4.744303 -4.376410 -0.672252
-4.735341 -4.361732 -0.668788
-4.734212 -4.346633 -0.666819
-4.734362 -4.331453 -0.665078
-4.734429 -4.316270 -0.663302
-4.742250 -4.300478 -0.662982
-4.744182 -4.285089 -0.661517
-4.735503 -4.270593 -0.658026
-4.730260 -4.255854 -0.655171
-4.725566 -4.241099 -0.652406
-4.729426 -4.225514 -0.651228
-4.727335 -4.210508 -0.648913
-4.720704 -4.196007 -0.645734
-4.708872 -4.182149 -0.641577
-4.705518 -4.167374 -0.638979
-4.711285 -4.151480 -0.638043
-4.710506 -4.136358 -0.635875
-4.697004 -4.122923 -0.631356
-4.680377 -4.110027 -0.626262
-4.679682 -4.094989 -0.624059
-4.689054 -4.078448 -0.623656
-4.705184 -4.060765 -0.624435
-4.705805 -4.045342 -0.622380
-4.699389 -4.031027 -0.619039
-4.694148 -4.016551 -0.615890
-4.692483 -4.001484 -0.613358
-4.694936 -3.985679 -0.611531
-4.684442 -3.972162 -0.607393
-4.672337 -3.959016 -0.602960
-4.665233 -3.945001 -0.599393
-4.675819 -3.927566 -0.598889
-4.665421 -3.914196 -0.594706
-4.657191 -3.900448 -0.590886
-4.679948 -3.880244 -0.592377
-4.639566 -3.811457 -0.573039
-4.367095 -3.846773 -0.522607
-4.370242 -3.831698 -0.520759
-4.370106 -3.817393 -0.518347
-4.370097 -3.803025 -0.515940
-4.378310 -3.786457 -0.514860
-4.382082 -3.770970 -0.513033
-4.377921 -3.757589 -0.509909
-4.365655 -3.746480 -0.505484
-4.358069 -3.734143 -0.501821
-4.353373 -3.721024 -0.498626
-4.351282 -3.707168 -0.495851
-4.347858 -3.693714 -0.492872
-4.347120 -3.679466 -0.490326
-4.349453 -3.664268 -0.488268
-4.355127 -3.647993 -0.486737
-4.350968 -3.634795 -0.483703
-4.351562 -3.620105 -0.481426
-4.351827 -3.605527 -0.479124
-4.348328 -3.592219 -0.476284
-4.344658 -3.579026 -0.473460
-4.331286 -3.569236 -0.469231
-4.338634 -3.552384 -0.468155
-4.342212 -3.536835 -0.466561
-4.350165 -3.519729 -0.465664
-4.342867 -3.508151 -0.462578
-4.322510 -3.501522 -0.457659
-4.295505 -3.497648 -0.451871
-3.505902 -5.886969 -0.530870
-3.503381 -5.875329 -0.528729
-3.507618 -5.867941 -0.528261
-3.538476 -5.877392 -0.534188
-3.569162 -5.886297 -0.540088
-3.579457 -5.881946 -0.541172
-3.596737 -5.881717 -0.543955
-3.606292 -5.876411 -0.544955
-3.621686 -5.874462 -0.547381
-3.641277 -5.874782 -0.550838
-3.654790 -5.871116 -0.552914
-3.668298 -5.867190 -0.555039
-3.685215 -5.865025 -0.558011
-3.701882 -5.862424 -0.560972
-3.714416 -5.857146 -0.563021
-3.738780 -5.858429 -0.567869
-3.760006 -5.857570 -0.572032
-3.778010 -5.854577 -0.575494
-3.794110 -5.850248 -0.578562
-3.811845 -5.846573 -0.582053
-3.834769 -5.845467 -0.586784
-3.847190 -5.838381 -0.589133
-3.857170 -5.829808 -0.590960
-3.860869 -5.817772 -0.591382
-3.853481 -5.799881 -0.589292
-3.849398 -5.783769 -0.588000
-3.774436 -5.677389 -0.569472
-3.783411 -5.668213 -0.571330
-3.805727 -5.665300 -0.576257
-4.049537 -5.721265 -0.631383
-4.061565 -5.711782 -0.633958
-4.081092 -5.705516 -0.638246
-4.106171 -5.701498 -0.643798
-4.092864 -5.680784 -0.640567
-4.467575 -5.774014 -0.725271
-4.513845 -5.775859 -0.735562
-4.548535 -5.772685 -0.743189
-4.568237 -5.763358 -0.747377
-4.585939 -5.753119 -0.751088
-4.603127 -5.742565 -0.754662
-4.619887 -5.731738 -0.758116
-4.632887 -5.719419 -0.760692
-4.636407 -5.703595 -0.761089
-4.635867 -5.686353 -0.760544
-4.634073 -5.668748 -0.759694
-4.633365 -5.651609 -0.759071
-4.632781 -5.634588 -0.758457
-4.635712 -5.618822 -0.758619
-4.641217 -5.603943 -0.759343
-4.643201 -5.587924 -0.759248
-4.635505 -5.568849 -0.756943
-4.635846 -5.552447 -0.756437
-4.634699 -5.535643 -0.755575
-4.630553 -5.517995 -0.754017
-4.633634 -5.502612 -0.754070
-4.633371 -5.486270 -0.753349
-4.631122 -5.469410 -0.752162
-4.632304 -5.453603 -0.751728
-4.626592 -5.435911 -0.749727
-4.611215 -5.415679 -0.745543
-4.624023 -5.403233 -0.747662
-4.627614 -5.388272 -0.747695
-4.626348 -5.372065 -0.746622
-4.621574 -5.355025 -0.744749
-4.612803 -5.337082 -0.741970
-4.596101 -5.317336 -0.737412
-4.607042 -5.304401 -0.738997
-4.608894 -5.289271 -0.738540
-4.617026 -5.275600 -0.739460
-4.622330 -5.261253 -0.739732
-4.597589 -5.240306 -0.733336
-4.600746 -5.225615 -0.733106
-4.606960 -5.211568 -0.733534
-4.609618 -5.196767 -0.733160
-4.605608 -5.180641 -0.731301
-4.615997 -5.167391 -0.732597
-4.626125 -5.154021 -0.733814
-4.774941 -5.166243 -0.765411
-4.846040 -5.163050 -0.779887
-4.842773 -5.048940 -0.771032
-4.812307 -5.028507 -0.763233
-4.806085 -5.011710 -0.760673
-4.802504 -4.995344 -0.758674
-4.795879 -4.978646 -0.756011
-4.788098 -4.961890 -0.753092
-4.790619 -4.946444 -0.752374
-4.796863 -4.931416 -0.752438
-4.797806 -4.915772 -0.751354
-4.797893 -4.900049 -0.750075
-4.801573 -4.884699 -0.749548
-4.803740 -4.869189 -0.748686
-4.797128 -4.852888 -0.745949
-4.787302 -4.836392 -0.742527
-4.784569 -4.820573 -0.740598
-4.794333 -4.805739 -0.741292
-4.802639 -4.790724 -0.741660
-4.802548 -4.775089 -0.740247
-4.798750 -4.759240 -0.738046
-4.793410 -4.743350 -0.735514
-4.780900 -4.727149 -0.731479
-4.779196 -4.711589 -0.729693
-4.784151 -4.696341 -0.729279
-4.781929 -4.680782 -0.727360
-4.772996 -4.665029 -0.724044
-4.779944 -4.649827 -0.724000
-4.775383 -4.634289 -0.721568
-4.757875 -4.618548 -0.716468
-4.757832 -4.603238 -0.714951
-4.761062 -4.587967 -0.714090
-4.760047 -4.572649 -0.712347
-4.762330 -4.557348 -0.711263
-4.760609 -4.542046 -0.709350
-4.747591 -4.526857 -0.705136
-4.747926 -4.511620 -0.703620
-4.760702 -4.496162 -0.704598
-4.764988 -4.480776 -0.703842
-4.755871 -4.465714 -0.700377
-4.748411 -4.450684 -0.697237
-4.744776 -4.435584 -0.694853
-4.749207 -4.420187 -0.694064
-4.751505 -4.404845 -0.692831
-4.759911 -4.389173 -0.692789
-4.746001 -4.374642 -0.688313
-4.728784 -4.360433 -0.683182
-4.731227 -4.345119 -0.681916
-4.729731 -4.330047 -0.679858
-4.724040 -4.315290 -0.676964
-4.725112 -4.300052 -0.675377
-4.734179 -4.284135 -0.675323
-4.735799 -4.268774 -0.673797
-4.737127 -4.253415 -0.672193
-4.733557 -4.238505 -0.669624
-4.733867 -4.223225 -0.667785
-4.728827 -4.208495 -0.664899
-4.722969 -4.193889 -0.661843
-4.713594 -4.179729 -0.658103
-4.712838 -4.164606 -0.655987
-4.714468 -4.149176 -0.654301
-4.706203 -4.134993 -0.650725
-4.688069 -4.122192 -0.645284
-4.689358 -4.106845 -0.643477
-4.692121 -4.091254 -0.641921
-4.696532 -4.075370 -0.640643
-4.702581 -4.059170 -0.639638
-4.703178 -4.043749 -0.637594
-4.698906 -4.029088 -0.634628
-4.692154 -4.014855 -0.631189
-4.686454 -4.000479 -0.627925
-4.685215 -3.985338 -0.625454
-4.681807 -3.970575 -0.622566
-4.674345 -3.956568 -0.618926
-4.671865 -3.941649 -0.616165
-4.674183 -3.925781 -0.614239
-4.675333 -3.910092 -0.612076
-4.669924 -3.895706 -0.608720
-4.659243 -3.882447 -0.604415
-4.694626 -3.827900 -0.603202
-4.622907 -3.828617 -0.588213
-4.621665 -3.813447 -0.585492
-4.376511 -3.842408 -0.538444
-4.372250 -3.829114 -0.535346
-4.371660 -3.814894 -0.532860
-4.370404 -3.800819 -0.530244
-4.372671 -3.785792 -0.528208
-4.378615 -3.769720 -0.526767
-4.374953 -3.756195 -0.523709
-4.366563 -3.743999 -0.519864
-4.359343 -3.731528 -0.516219
-4.347535 -3.720433 -0.511830
-4.347746 -3.705895 -0.509416
-4.345169 -3.692171 -0.506551
-4.343024 -3.678325 -0.503764
-4.345486 -3.663063 -0.501726
-4.347102 -3.648034 -0.499561
-4.347557 -3.633357 -0.497225
-4.347687 -3.618782 -0.494856
-4.342566 -3.605944 -0.491687
-4.333298 -3.594559 -0.487907
-4.326201 -3.582549 -0.484513
-4.346758 -3.561096 -0.485443
-4.343537 -3.547789 -0.482727
-4.347036 -3.532168 -0.481093
-4.340984 -3.519996 -0.478053
-4.348564 -3.502964 -0.477146
-4.348922 -3.488587 -0.475203
-4.317926 -3.486025 -0.468618
-4.275574 -3.488153 -0.460446
-4.299789 -3.437900 -0.459067
