ply
format ascii 1.0
comment ---
element vertex 1649
property float x
property float y
property float z
element face 0
property list uchar uint vertex_indices
end_header
-1.142891 2.797745 -0.808197
-1.125294 2.821065 -0.812437
-1.112623 2.810592 -0.808192
-1.098197 2.811733 -0.806831
-1.085849 2.799876 -0.802217
-1.071570 2.800090 -0.800588
-1.057215 2.800583 -0.799006
-1.042561 2.802582 -0.797772
-1.031769 2.783104 -0.791226
-1.016344 2.789267 -0.790978
-1.003275 2.782681 -0.787576
-0.989463 2.780038 -0.785122
-0.975283 2.779186 -0.783085
-0.959974 2.783684 -0.782327
-0.946880 2.710584 -0.760866
-0.936179 2.695012 -0.755232
-0.912457 2.737518 -0.763567
-0.890139 2.771961 -0.769888
-0.875051 2.774185 -0.768433
-0.935331 2.463722 -0.692376
-0.936602 2.405384 -0.676687
-0.924499 2.402465 -0.674200
-0.911014 2.404923 -0.672971
-0.897505 2.407247 -0.671690
-0.886172 2.401191 -0.668420
-0.874705 2.395733 -0.665284
-0.862667 2.392423 -0.662645
-0.847223 2.401217 -0.662814
-0.834418 2.400392 -0.660728
-0.822040 2.398034 -0.658280
-0.811149 2.390666 -0.654674
-0.798601 2.388957 -0.652374
-0.786414 2.386057 -0.649801
-0.774906 2.381026 -0.646747
-0.762821 2.377927 -0.644142
-0.748946 2.380438 -0.642821
-0.734762 2.383792 -0.641695
-0.721981 2.382828 -0.639606
-0.708863 2.382899 -0.637766
-0.695680 2.383185 -0.635995
-0.683038 2.381951 -0.633910
-0.672908 2.373718 -0.630298
-0.658756 2.376999 -0.629284
-0.647654 2.371911 -0.626454
-0.634577 2.372427 -0.624907
-0.621754 2.372382 -0.623283
-0.611382 2.366031 -0.620328
-0.598965 2.365337 -0.618673
-0.584790 2.369361 -0.618106
-0.572866 2.367778 -0.616378
-0.558077 2.373630 -0.616332
-0.549686 2.363753 -0.612948
-0.539867 2.357849 -0.610504
-0.528019 2.357247 -0.609284
-0.518302 2.351847 -0.607112
-0.508485 2.347085 -0.605160
-0.496162 2.348574 -0.604635
-0.478717 2.362163 -0.606781
-0.472094 2.351037 -0.603720
-0.465504 2.340377 -0.600849
-0.455571 2.337736 -0.599778
-0.436168 2.356465 -0.603347
-0.412517 2.384486 -0.608973
-3.187846 2.323356 -0.794067
-3.133122 2.282844 -0.780429
-3.105800 2.284916 -0.779550
-3.087528 2.278904 -0.777155
-3.077733 2.310488 -0.785260
-3.161740 2.672653 -0.888075
-3.150782 2.684321 -0.891341
-3.137281 2.691650 -0.893379
-3.121661 2.695248 -0.894363
-3.108297 2.703055 -0.896592
-3.090501 2.702704 -0.896474
-3.071155 2.699341 -0.895499
-3.056217 2.704245 -0.896935
-3.041361 2.709328 -0.898432
-3.021910 2.705421 -0.897328
-2.999619 2.695664 -0.894531
-2.982790 2.696504 -0.894809
-2.959464 2.684024 -0.891220
-2.936953 2.672767 -0.887981
-2.919277 2.671141 -0.887532
-2.907137 2.680984 -0.890403
-2.892618 2.685836 -0.891816
-2.868377 2.669618 -0.887105
-2.856458 2.679797 -0.890041
-2.841306 2.682891 -0.890908
-2.823788 2.680565 -0.890189
-2.803483 2.671651 -0.887542
-2.780521 2.656185 -0.882980
-2.761653 2.649693 -0.881005
-2.746122 2.650749 -0.881203
-2.733517 2.658681 -0.883378
-2.721203 2.667352 -0.885749
-2.704161 2.664405 -0.884733
-2.688062 2.663551 -0.884306
-2.666955 2.649772 -0.880116
-2.652065 2.651425 -0.880380
-2.639221 2.658295 -0.882136
-2.623277 2.656963 -0.881498
-2.604939 2.648971 -0.878915
-2.588395 2.645462 -0.877612
-2.570854 2.638905 -0.875411
-2.550130 2.623019 -0.870497
-2.534581 2.621256 -0.869650
-2.518507 2.617744 -0.868281
-2.505440 2.622815 -0.869374
-2.489159 2.618259 -0.867671
-2.472748 2.612994 -0.865749
-2.454731 2.602428 -0.862284
-2.440407 2.602960 -0.862003
-2.432574 2.624099 -0.867640
-2.414395 2.612167 -0.863738
-2.397572 2.604149 -0.860951
-2.380664 2.595414 -0.857945
-2.369097 2.604504 -0.860048
-2.354690 2.603872 -0.859343
-2.338953 2.598345 -0.857221
-2.325742 2.601602 -0.857604
-2.310203 2.596259 -0.855510
-2.296240 2.596483 -0.854998
-2.281977 2.595425 -0.854107
-2.267772 2.594410 -0.853215
-2.254256 2.595955 -0.853043
-2.239814 2.593663 -0.851764
-2.225002 2.589604 -0.849970
-2.211107 2.589117 -0.849185
-2.197158 2.588245 -0.848278
-2.181683 2.580444 -0.845391
-2.166721 2.574474 -0.843017
-2.153072 2.574182 -0.842248
-2.140169 2.577281 -0.842430
-2.125968 2.574099 -0.840821
-2.111813 2.570852 -0.839185
-2.098386 2.571030 -0.838510
-2.082822 2.559901 -0.834631
-2.068372 2.554040 -0.832235
-2.057149 2.565539 -0.834730
-2.044139 2.567421 -0.834500
-2.028777 2.555555 -0.830391
-2.014760 2.550938 -0.828318
-2.001246 2.549031 -0.827000
-1.988378 2.551000 -0.826764
-1.974458 2.546037 -0.824574
-1.961736 2.548763 -0.824533
-1.949167 2.552628 -0.824801
-1.936051 2.552653 -0.823986
-1.921582 2.542324 -0.820273
-1.908564 2.542462 -0.819478
-1.895694 2.543675 -0.818973
-1.882969 2.546087 -0.818794
-1.869274 2.539988 -0.816243
-1.856012 2.537209 -0.814608
-1.843699 2.543204 -0.815400
-1.853736 2.776258 -0.879042
-1.842870 2.810253 -0.887479
-1.831443 2.841440 -0.895110
-1.822181 2.901730 -0.910741
-1.795485 2.935483 -0.917963
-1.781122 2.941009 -0.918425
-1.763566 2.898096 -0.905578
-1.733026 2.871816 -0.896253
-1.719287 2.884797 -0.898734
-1.705078 2.890046 -0.899086
-1.690647 2.890863 -0.898217
-1.676439 2.897729 -0.898985
-1.661275 2.876254 -0.892031
-1.646391 2.857250 -0.885756
-1.631980 2.851097 -0.882971
-1.617814 2.855149 -0.882945
-1.603669 2.863338 -0.884026
-1.589509 2.878631 -0.887011
-1.575135 2.870829 -0.883744
-1.560816 2.879642 -0.884948
-1.546586 2.861526 -0.878893
-1.532415 2.854032 -0.875694
-1.518198 2.854177 -0.874539
-1.503975 2.854712 -0.873478
-1.489647 2.859338 -0.873498
-1.475327 2.862247 -0.873046
-1.460859 2.868672 -0.873516
-1.447234 2.852160 -0.867865
-1.433537 2.840811 -0.863588
-1.419479 2.839040 -0.861849
-1.405385 2.838217 -0.860349
-1.391043 2.841735 -0.859985
-1.376901 2.841504 -0.858615
-1.363821 2.825568 -0.853093
-1.349942 2.822671 -0.851001
-1.334252 2.843507 -0.855131
-1.321063 2.831337 -0.850574
-1.306690 2.834076 -0.849914
-1.292541 2.833987 -0.848499
-1.278876 2.828787 -0.845734
-1.264930 2.826751 -0.843782
-1.249504 2.838800 -0.845475
-1.236964 2.823578 -0.840067
-1.223784 2.815064 -0.836393
-1.209969 2.812389 -0.834219
-1.195457 2.815392 -0.833493
-1.180657 2.820270 -0.833228
-1.166523 2.819717 -0.831544
-1.152872 2.815604 -0.828930
-1.138390 2.817402 -0.827812
-1.124554 2.814605 -0.825499
-1.111386 2.807496 -0.822071
-1.097871 2.802864 -0.819259
-1.083267 2.805032 -0.818156
-1.069803 2.800152 -0.815246
-1.056575 2.794029 -0.812005
-1.043678 2.786220 -0.808326
-1.025615 2.806961 -0.811806
-1.015219 2.785584 -0.804682
-1.002190 2.778814 -0.801214
-0.988840 2.773851 -0.798181
-0.974547 2.773632 -0.796312
-0.964089 2.754743 -0.789787
-0.960674 2.703365 -0.775221
-0.932299 2.704062 -0.771691
-0.879532 2.746919 -0.776433
-0.938007 2.445275 -0.700994
-0.932603 2.414435 -0.691710
-0.922587 2.402994 -0.687148
-0.909369 2.404320 -0.685665
-0.897293 2.401110 -0.683071
-0.885836 2.395575 -0.679907
-0.872054 2.398659 -0.678798
-0.859093 2.398551 -0.676908
-0.845960 2.398946 -0.675125
-0.832706 2.399635 -0.673399
-0.820859 2.395392 -0.670497
-0.808951 2.391409 -0.667653
-0.795982 2.390979 -0.665644
-0.784098 2.386965 -0.662793
-0.772693 2.381495 -0.659607
-0.760199 2.379566 -0.657254
-0.743933 2.389309 -0.657613
-0.731220 2.387918 -0.655393
-0.720105 2.381775 -0.652092
-0.707617 2.379866 -0.649787
-0.694216 2.380686 -0.648127
-0.681336 2.380023 -0.646150
-0.667582 2.381895 -0.644776
-0.660669 2.364781 -0.639128
-0.649688 2.359381 -0.636185
-0.641063 2.347871 -0.631913
-0.626195 2.353431 -0.631535
-0.611751 2.357867 -0.630946
-0.598448 2.359390 -0.629753
-0.582599 2.367570 -0.630100
-0.568379 2.371622 -0.629580
-0.556067 2.371024 -0.628090
-0.542194 2.374522 -0.627576
-0.535039 2.361819 -0.623554
-0.526337 2.353395 -0.620561
-0.514335 2.353291 -0.619482
-0.501990 2.354275 -0.618722
-0.496553 2.339454 -0.614579
-0.482282 2.345592 -0.615114
-0.472365 2.341985 -0.613599
-0.464283 2.334628 -0.611351
-0.452778 2.335375 -0.610958
-0.434357 2.351710 -0.614044
-0.412597 2.375360 -0.618800
-3.257010 2.318425 -0.811823
-3.182586 2.289378 -0.798519
-3.149683 2.282095 -0.794489
-3.069826 2.293936 -0.794057
-3.107215 2.379713 -0.819049
-3.115564 2.419257 -0.830365
-3.078405 2.437193 -0.834752
-3.154723 2.657069 -0.899252
-3.152032 2.683448 -0.906931
-3.136697 2.687589 -0.908062
-3.124367 2.697274 -0.910857
-3.108981 2.701490 -0.912057
-3.091964 2.702694 -0.912385
-3.072843 2.699873 -0.911537
-3.058405 2.705844 -0.913299
-3.040723 2.705576 -0.913225
-3.019956 2.699147 -0.911334
-3.000092 2.694224 -0.909890
-2.983974 2.696557 -0.910591
-2.964233 2.691447 -0.909089
-2.938933 2.674634 -0.904121
-2.923261 2.677276 -0.904900
-2.908059 2.680810 -0.905933
-2.887692 2.673244 -0.903675
-2.872758 2.677054 -0.904768
-2.857377 2.679803 -0.905536
-2.839579 2.677087 -0.904674
-2.821881 2.674342 -0.903789
-2.802908 2.668438 -0.901955
-2.782134 2.658040 -0.898777
-2.762727 2.650368 -0.896390
-2.747689 2.652651 -0.896927
-2.735865 2.662528 -0.899690
-2.722111 2.667795 -0.901073
-2.706358 2.668087 -0.900969
-2.685443 2.655280 -0.896979
-2.668763 2.652675 -0.895985
-2.651091 2.647259 -0.894143
-2.636299 2.649024 -0.894403
-2.621648 2.651033 -0.894716
-2.607079 2.653142 -0.895040
-2.585593 2.636261 -0.889752
-2.569524 2.633699 -0.888667
-2.554373 2.633465 -0.888250
-2.533799 2.617565 -0.883207
-2.520619 2.622444 -0.884262
-2.506644 2.624967 -0.884607
-2.491262 2.623189 -0.883671
-2.474362 2.616577 -0.881299
-2.460956 2.620382 -0.881972
-2.448806 2.628101 -0.883775
-2.425461 2.600151 -0.875104
-2.414218 2.610414 -0.877624
-2.398154 2.604944 -0.875518
-2.386552 2.614134 -0.877690
-2.367920 2.599433 -0.872858
-2.353074 2.597246 -0.871675
-2.341161 2.605240 -0.873452
-2.326004 2.601659 -0.871835
-2.309615 2.593260 -0.868801
-2.295307 2.592206 -0.867899
-2.280740 2.589976 -0.866642
-2.266958 2.590583 -0.866200
-2.253335 2.591707 -0.865895
-2.238939 2.589599 -0.864640
-2.224288 2.586206 -0.863002
-2.210594 2.586591 -0.862449
-2.196201 2.583827 -0.860973
-2.179775 2.571811 -0.856810
-2.164729 2.565361 -0.854252
-2.151230 2.565649 -0.853635
-2.138551 2.569710 -0.854097
-2.125970 2.574309 -0.854702
-2.113324 2.578691 -0.855233
-2.099022 2.574707 -0.853343
-2.083554 2.564291 -0.849597
-2.069206 2.559212 -0.847381
-2.056028 2.560185 -0.846897
-2.042723 2.560362 -0.846175
-2.028419 2.554596 -0.843742
-2.014267 2.549274 -0.841432
-2.001302 2.550845 -0.841087
-1.988161 2.551270 -0.840406
-1.974200 2.546188 -0.838146
-1.960536 2.542661 -0.836324
-1.948756 2.552035 -0.838170
-1.933601 2.537334 -0.833156
-1.921305 2.543028 -0.833938
-1.907981 2.540960 -0.832506
-1.895183 2.542894 -0.832203
-1.882480 2.545654 -0.832125
-1.869024 2.541842 -0.830179
-1.856220 2.543590 -0.829800
-1.843380 2.545004 -0.829318
-1.844880 2.838176 -0.910061
-1.831301 2.847002 -0.911542
-1.807031 2.903805 -0.925444
-1.775242 2.867457 -0.913174
-1.731158 2.852815 -0.905920
-1.717792 2.871956 -0.910180
-1.703787 2.880885 -0.911580
-1.689305 2.880003 -0.910240
-1.674078 2.858016 -0.903040
-1.659596 2.852824 -0.900498
-1.645568 2.862460 -0.902053
-1.631515 2.874768 -0.904330
-1.617483 2.894683 -0.908686
-1.603105 2.901369 -0.909375
-1.588435 2.877366 -0.901608
-1.574087 2.883602 -0.902156
-1.559716 2.873293 -0.898151
-1.545502 2.854684 -0.891871
-1.531284 2.852416 -0.890065
-1.516960 2.858278 -0.890471
-1.502676 2.859676 -0.889644
-1.488364 2.861793 -0.889001
-1.473943 2.866878 -0.889152
-1.460119 2.853579 -0.884297
-1.446262 2.844313 -0.880535
-1.432020 2.845652 -0.879639
-1.417890 2.844457 -0.878045
-1.403260 2.852680 -0.878980
-1.388770 2.857160 -0.878887
-1.374497 2.857515 -0.877669
-1.361278 2.842304 -0.872257
-1.346857 2.845486 -0.871775
-1.333560 2.833750 -0.867285
-1.320100 2.825253 -0.863656
-1.305898 2.826113 -0.862515
-1.290919 2.835251 -0.863563
-1.276443 2.838193 -0.862939
-1.261996 2.840474 -0.862122
-1.248312 2.835270 -0.859305
-1.235162 2.825603 -0.855297
-1.221965 2.817021 -0.851567
-1.208275 2.813097 -0.849055
-1.193540 2.817688 -0.848767
-1.179332 2.817770 -0.847274
-1.165736 2.813191 -0.844542
-1.152066 2.809323 -0.841982
-1.138412 2.805477 -0.839412
-1.123451 2.810486 -0.839130
-1.110461 2.802269 -0.835390
-1.096358 2.801402 -0.833542
-1.080931 2.808527 -0.833740
-1.067716 2.801986 -0.830384
-1.054831 2.793752 -0.826579
-1.039322 2.800534 -0.826617
-1.027922 2.784376 -0.820748
-1.016624 2.768358 -0.814911
-1.001917 2.770657 -0.813742
-0.988226 2.767547 -0.811172
-0.976246 2.755994 -0.806439
-0.963093 2.750474 -0.803226
-0.956025 2.716444 -0.792797
-0.934841 2.684106 -0.780975
-0.906758 2.745605 -0.794523
-0.888930 2.760215 -0.796249
-0.886173 2.710618 -0.781930
-0.939836 2.430345 -0.710322
-0.928015 2.425739 -0.707404
-0.915251 2.424904 -0.705406
-0.906912 2.406797 -0.699134
-0.895199 2.402091 -0.696162
-0.882388 2.401531 -0.694196
-0.869957 2.399471 -0.691848
-0.856955 2.399420 -0.689977
-0.844945 2.395746 -0.687212
-0.831712 2.396332 -0.685471
-0.818818 2.395638 -0.683410
-0.805846 2.395131 -0.681385
-0.792176 2.396845 -0.679886
-0.780476 2.392049 -0.676823
-0.770067 2.383231 -0.672806
-0.756608 2.384191 -0.671125
-0.740718 2.392562 -0.671200
-0.728294 2.390125 -0.668716
-0.716970 2.384458 -0.665486
-0.705113 2.380527 -0.662683
-0.690933 2.383449 -0.661506
-0.677525 2.384105 -0.659816
-0.668101 2.373593 -0.655553
-0.660259 2.359061 -0.650403
-0.651792 2.346725 -0.645813
-0.640065 2.343610 -0.643401
-0.624216 2.351642 -0.643594
-0.612325 2.349224 -0.641430
-0.590807 2.371912 -0.645053
-0.577924 2.372147 -0.643588
-0.566444 2.369031 -0.641421
-0.553052 2.370961 -0.640464
-0.542017 2.367273 -0.638302
-0.531982 2.361487 -0.635741
-0.521440 2.357310 -0.633620
-0.509702 2.356334 -0.632299
-0.497897 2.355816 -0.631160
-0.482767 2.363312 -0.631896
-0.478980 2.344918 -0.626919
-0.469089 2.341077 -0.625287
-0.456855 2.342894 -0.625002
-0.443247 2.348048 -0.625544
-0.427742 2.357596 -0.627145
-0.415877 2.359344 -0.627092
-3.208609 2.282125 -0.811907
-3.187592 2.271330 -0.807536
-3.155651 2.265178 -0.803728
-3.111985 2.286541 -0.807150
-3.095215 2.283293 -0.805559
-3.084692 2.290162 -0.807092
-3.148145 2.642294 -0.910559
-3.155602 2.686708 -0.923817
-3.145622 2.700669 -0.927921
-3.128412 2.701724 -0.928160
-3.111326 2.702976 -0.928478
-3.090938 2.698025 -0.926943
-3.074677 2.700660 -0.927706
-3.058186 2.702816 -0.928334
-3.041514 2.704564 -0.928846
-3.018351 2.693537 -0.925512
-3.002235 2.696058 -0.926261
-2.989078 2.704426 -0.928770
-2.967691 2.696159 -0.926263
-2.949054 2.693176 -0.925343
-2.929212 2.687447 -0.923587
-2.910629 2.684058 -0.922528
-2.892138 2.680606 -0.921439
-2.874213 2.678110 -0.920626
-2.855399 2.673424 -0.919141
-2.839924 2.675832 -0.919778
-2.823109 2.675111 -0.919458
-2.801216 2.662636 -0.915585
-2.784893 2.662475 -0.915403
-2.765395 2.654710 -0.912916
-2.749077 2.654073 -0.912558
-2.733270 2.654458 -0.912489
-2.719325 2.659193 -0.913712
-2.705002 2.662942 -0.914620
-2.690227 2.665479 -0.915145
-2.670392 2.655068 -0.911762
-2.651070 2.645491 -0.908612
-2.633376 2.639705 -0.906586
-2.619376 2.643352 -0.907375
-2.603578 2.642094 -0.906673
-2.583084 2.627814 -0.902049
-2.571674 2.638073 -0.904768
-2.560561 2.649310 -0.907761
-2.539587 2.632575 -0.902355
-2.522888 2.627537 -0.900439
-2.509476 2.631850 -0.901307
-2.492413 2.625213 -0.898882
-2.476827 2.622685 -0.897672
-2.463313 2.626314 -0.898287
-2.448857 2.626944 -0.897989
-2.429608 2.612131 -0.893068
-2.411112 2.599097 -0.888669
-2.402300 2.617458 -0.893617
-2.384666 2.606650 -0.889856
-2.365972 2.591676 -0.884846
-2.352737 2.595031 -0.885280
-2.341379 2.605021 -0.887671
-2.326402 2.602160 -0.886228
-2.310238 2.594673 -0.883401
-2.295693 2.592832 -0.882240
-2.281923 2.593744 -0.881883
-2.267356 2.591440 -0.880562
-2.253796 2.592917 -0.880349
-2.238956 2.589114 -0.878563
-2.223837 2.583857 -0.876339
-2.209927 2.583364 -0.875512
-2.196054 2.582873 -0.874676
-2.179863 2.571972 -0.870763
-2.165291 2.567769 -0.868817
-2.151245 2.565680 -0.867485
-2.138510 2.569573 -0.867903
-2.125727 2.573300 -0.868260
-2.113248 2.578591 -0.869065
-2.099350 2.576784 -0.867778
-2.084409 2.569293 -0.864820
-2.069267 2.560193 -0.861386
-2.055434 2.557699 -0.859880
-2.042402 2.559483 -0.859615
-2.028658 2.557087 -0.858123
-2.015018 2.555051 -0.856729
-2.001517 2.553623 -0.855505
-1.988216 2.553254 -0.854582
-1.973957 2.546415 -0.851773
-1.962320 2.556858 -0.853974
-1.949230 2.557656 -0.853367
-1.935544 2.554026 -0.851470
-1.921005 2.543540 -0.847586
-1.908215 2.545865 -0.847402
-1.895234 2.546683 -0.846774
-1.881924 2.544640 -0.845315
-1.868667 2.542747 -0.843894
-1.855786 2.544032 -0.843380
-1.842772 2.544005 -0.842482
-1.856780 2.818923 -0.920437
-1.849071 2.889590 -0.939686
-1.836373 2.911459 -0.944917
-1.815710 2.840604 -0.923624
-1.730027 2.847108 -0.919205
-1.716576 2.864616 -0.923093
-1.702737 2.877033 -0.925520
-1.688453 2.881167 -0.925589
-1.673167 2.858222 -0.918003
-1.658251 2.839821 -0.911707
-1.645435 2.894175 -0.925898
-1.630372 2.868023 -0.917406
-1.616051 2.870652 -0.917006
-1.601842 2.884185 -0.919652
-1.587408 2.883553 -0.918313
-1.572971 2.876552 -0.915185
-1.558599 2.872487 -0.912872
-1.544374 2.853690 -0.906445
-1.530100 2.854562 -0.905500
-1.515722 2.861567 -0.906249
-1.501426 2.861671 -0.905067
-1.487126 2.862028 -0.903944
-1.473011 2.856313 -0.901130
-1.459083 2.846891 -0.897285
-1.444895 2.846169 -0.895837
-1.430757 2.844491 -0.894115
-1.416345 2.848631 -0.893984
-1.402045 2.849980 -0.893070
-1.387845 2.849375 -0.891607
-1.373737 2.847387 -0.889753
-1.359926 2.841285 -0.886763
-1.346340 2.832860 -0.883131
-1.332720 2.825824 -0.879871
-1.318808 2.823032 -0.877759
-1.304509 2.824884 -0.876896
-1.288629 2.843553 -0.880576
-1.274605 2.841213 -0.878538
-1.260396 2.840822 -0.877012
-1.246639 2.836132 -0.874312
-1.233324 2.827766 -0.870611
-1.219957 2.820436 -0.867179
-1.205753 2.820480 -0.865716
-1.193447 2.805337 -0.860170
-1.179552 2.803336 -0.858133
-1.164716 2.808296 -0.857936
-1.151209 2.803327 -0.855073
-1.137388 2.800712 -0.852822
-1.123618 2.797800 -0.850475
-1.108332 2.804728 -0.850716
-1.094166 2.804079 -0.848928
-1.080295 2.801531 -0.846620
-1.066077 2.801028 -0.844832
-1.051447 2.802781 -0.843615
-1.037436 2.800822 -0.841403
-1.026807 2.780432 -0.834357
-1.014588 2.769355 -0.829741
-1.000529 2.768187 -0.827691
-0.986153 2.768518 -0.826010
-0.973738 2.759033 -0.821764
-0.958485 2.763452 -0.821098
-0.920283 2.740746 -0.809710
-0.887157 2.759253 -0.810629
-0.879896 2.728645 -0.800900
-0.938557 2.428187 -0.722759
-0.925509 2.428504 -0.721075
-0.913973 2.422704 -0.717827
-0.904443 2.409226 -0.712638
-0.892439 2.405519 -0.709899
-0.878140 2.410358 -0.709286
-0.866943 2.403558 -0.705747
-0.856859 2.392886 -0.701238
-0.842734 2.396709 -0.700324
-0.830368 2.394193 -0.697824
-0.817865 2.392123 -0.695426
-0.803923 2.394825 -0.694193
-0.790263 2.396417 -0.692675
-0.779233 2.389380 -0.689042
-0.768702 2.380913 -0.685066
-0.754198 2.385063 -0.684164
-0.739620 2.389255 -0.683267
-0.726060 2.390191 -0.681582
-0.714903 2.383920 -0.678170
-0.703110 2.379686 -0.675266
-0.689115 2.381945 -0.673934
-0.676661 2.379768 -0.671561
-0.666295 2.371840 -0.667847
-0.658759 2.356373 -0.662385
-0.647398 2.351834 -0.659555
-0.628897 2.366682 -0.661329
-0.613161 2.373907 -0.661334
-0.603158 2.366085 -0.657851
-0.590116 2.366455 -0.656338
-0.576798 2.367681 -0.655077
-0.567612 2.358677 -0.651496
-0.557898 2.351411 -0.648389
-0.543627 2.355710 -0.648026
-0.527742 2.364047 -0.648659
-0.513361 2.368837 -0.648538
-0.504659 2.360354 -0.645441
-0.490933 2.364085 -0.645227
-0.471313 2.381650 -0.648254
-0.470161 2.356893 -0.641683
-0.463219 2.346073 -0.638390
-0.449130 2.351797 -0.638955
-0.432811 2.362664 -0.640772
-0.422259 2.360981 -0.639814
-0.423866 2.333230 -0.633020
-3.234159 2.314913 -0.835619
-3.138765 2.301327 -0.826049
-3.125602 2.303927 -0.826193
-3.114146 2.333595 -0.834202
-3.123499 2.373493 -0.846004
-3.069692 2.415855 -0.857316
-3.123972 2.596565 -0.912255
-3.148532 2.671008 -0.934977
-3.149248 2.704167 -0.945043
-3.130368 2.702347 -0.944392
-3.112686 2.702625 -0.944403
-3.096533 2.705680 -0.945281
-3.077702 2.703662 -0.944612
-3.059926 2.703504 -0.944523
-3.037453 2.694154 -0.941617
-3.022531 2.699203 -0.943132
-3.005908 2.700875 -0.943611
-2.983253 2.690363 -0.940348
-2.972666 2.703893 -0.944457
-2.950380 2.693596 -0.941249
-2.930986 2.688881 -0.939746
-2.912179 2.685108 -0.938522
-2.893302 2.680914 -0.937157
-2.871590 2.670315 -0.933816
-2.855296 2.671099 -0.933954
-2.839952 2.673822 -0.934671
-2.825984 2.679518 -0.936285
-2.809104 2.678557 -0.935843
-2.781572 2.652851 -0.927800
-2.768093 2.659060 -0.929523
-2.752707 2.660738 -0.929841
-2.733006 2.651926 -0.926929
-2.717025 2.651725 -0.926637
-2.704411 2.659631 -0.928809
-2.690610 2.664604 -0.930064
-2.671826 2.656901 -0.927424
-2.653732 2.650567 -0.925186
-2.635629 2.643841 -0.922812
-2.617204 2.635884 -0.920047
-2.598325 2.626293 -0.916767
-2.583077 2.626137 -0.916353
-2.573410 2.641242 -0.920579
-2.559168 2.643782 -0.920953
-2.534619 2.616827 -0.912317
-2.523522 2.627834 -0.915240
-2.510410 2.633088 -0.916391
-2.493567 2.627186 -0.914130
-2.477224 2.622452 -0.912211
-2.462802 2.623330 -0.911984
-2.448900 2.625710 -0.912199
-2.433472 2.623142 -0.910895
-2.416572 2.615546 -0.908053
-2.400516 2.610323 -0.905919
-2.384351 2.604398 -0.903561
-2.366496 2.592330 -0.899331
-2.352770 2.594054 -0.899268
-2.341938 2.605958 -0.902269
-2.327928 2.606682 -0.901874
-2.312174 2.600872 -0.899494
-2.298111 2.601035 -0.898906
-2.283986 2.600828 -0.898196
-2.268688 2.595897 -0.896050
-2.254259 2.594084 -0.894835
-2.240281 2.593895 -0.894098
-2.224579 2.586410 -0.891158
-2.209746 2.582150 -0.889179
-2.195537 2.580276 -0.887909
-2.180818 2.575927 -0.885888
-2.166340 2.572339 -0.884087
-2.152343 2.570682 -0.882856
-2.138214 2.568193 -0.881368
-2.125116 2.570460 -0.881294
-2.112134 2.573290 -0.881377
-2.099180 2.576277 -0.881496
-2.085054 2.573155 -0.879786
-2.070074 2.565152 -0.876618
-2.055820 2.560596 -0.874471
-2.042372 2.560225 -0.873561
-2.028690 2.558348 -0.872197
-2.014966 2.555973 -0.870678
-2.001862 2.557173 -0.870212
-1.988163 2.554520 -0.868599
-1.975054 2.555463 -0.868042
-1.962083 2.557273 -0.867734
-1.949041 2.558584 -0.867270
-1.934668 2.550142 -0.863926
-1.920208 2.540278 -0.860163
-1.907709 2.544948 -0.860670
-1.894936 2.547624 -0.860582
-1.881665 2.546134 -0.859264
-1.868494 2.545278 -0.858127
-1.855213 2.543184 -0.856621
-1.841984 2.541254 -0.855158
-1.853289 2.789256 -0.926626
-1.846769 2.871567 -0.949623
-1.831007 2.858130 -0.944681
-1.816905 2.862838 -0.945017
-1.758601 2.857180 -0.939170
-1.729475 2.851979 -0.935524
-1.716185 2.873794 -0.940732
-1.701995 2.880058 -0.941439
-1.686827 2.863307 -0.935514
-1.674124 2.911082 -0.948128
-1.659915 2.924511 -0.950846
-1.643524 2.858580 -0.930810
-1.629158 2.858009 -0.929516
-1.614930 2.865027 -0.930382
-1.600598 2.868186 -0.930134
-1.586199 2.865080 -0.928088
-1.571846 2.866463 -0.927314
-1.557475 2.871485 -0.927565
-1.543182 2.860232 -0.923183
-1.528956 2.852644 -0.919839
-1.514548 2.860345 -0.920818
-1.500210 2.861605 -0.919962
-1.486107 2.853607 -0.916481
-1.471863 2.852637 -0.914978
-1.457313 2.860493 -0.915948
-1.443236 2.854902 -0.913122
-1.429386 2.845475 -0.909214
-1.415189 2.844763 -0.907743
-1.400976 2.844436 -0.906370
-1.387130 2.837974 -0.903271
-1.372824 2.839568 -0.902412
-1.358723 2.837930 -0.900639
-1.345741 2.821311 -0.894691
-1.331606 2.821297 -0.893353
-1.317546 2.820297 -0.891727
-1.302859 2.826451 -0.892067
-1.288296 2.830550 -0.891820
-1.273752 2.833976 -0.891369
-1.259375 2.835358 -0.890337
-1.244557 2.840628 -0.890356
-1.232211 2.823300 -0.884158
-1.217862 2.824422 -0.883011
-1.204449 2.817649 -0.879689
-1.192242 2.801740 -0.873865
-1.178438 2.799045 -0.871637
-1.162870 2.809380 -0.872934
-1.147170 2.819824 -0.874232
-1.135148 2.804208 -0.868447
-1.120991 2.803643 -0.866725
-1.106657 2.804115 -0.865264
-1.093229 2.798768 -0.862218
-1.078833 2.799459 -0.860779
-1.064574 2.799160 -0.859052
-1.050332 2.798635 -0.857245
-1.034494 2.806874 -0.857755
-1.018212 2.816926 -0.858718
-1.008972 2.789131 -0.849593
-0.991723 2.803796 -0.851732
-0.981680 2.781412 -0.844034
-0.968501 2.775307 -0.840636
-0.958879 2.752315 -0.832778
-0.935279 2.728859 -0.822980
-0.918973 2.737787 -0.823466
-0.897677 2.767957 -0.829454
-0.889085 2.742377 -0.820886
-0.937070 2.426802 -0.735397
-0.925391 2.421583 -0.732297
-0.914632 2.412811 -0.728270
-0.903644 2.405120 -0.724512
-0.889899 2.408015 -0.723456
-0.876949 2.407714 -0.721563
-0.865630 2.401349 -0.718109
-0.853507 2.397963 -0.715404
-0.840859 2.396416 -0.713153
-0.827188 2.398334 -0.711765
-0.815522 2.393274 -0.708607
-0.803105 2.390784 -0.706089
-0.789839 2.391058 -0.704256
-0.778124 2.386239 -0.701145
-0.766246 2.382011 -0.698184
-0.754335 2.377953 -0.695267
-0.737823 2.388062 -0.695856
-0.725225 2.386000 -0.693435
-0.712350 2.384791 -0.691231
-0.700447 2.380751 -0.688346
-0.687691 2.379290 -0.686107
-0.676037 2.374751 -0.683138
-0.665069 2.368456 -0.679770
-0.656754 2.355077 -0.674722
-0.639859 2.365444 -0.675446
-0.610401 2.374138 -0.674067
-0.600301 2.366416 -0.670543
-0.564759 2.358469 -0.663934
-0.555181 2.350703 -0.660639
-0.539906 2.357257 -0.660794
-0.520951 2.372766 -0.663119
-0.507950 2.373951 -0.662131
-0.495978 2.372944 -0.660701
-0.486871 2.365561 -0.657856
-0.474257 2.366709 -0.657089
-0.461331 2.368839 -0.656630
-0.456804 2.352289 -0.651900
-0.442593 2.358011 -0.652445
-0.424891 2.371649 -0.654909
-0.418011 2.361667 -0.651968
-0.422591 2.327386 -0.643480
-3.183936 2.256403 -0.829854
-3.171273 2.258420 -0.829537
-3.164874 2.270162 -0.832353
-3.170542 2.323344 -0.847510
-3.128816 2.328798 -0.847272
-3.110054 2.453421 -0.883865
-3.108113 2.596014 -0.927476
-3.114445 2.638519 -0.940643
-3.125996 2.691434 -0.957079
-3.113302 2.700884 -0.959942
-3.098570 2.706670 -0.961672
-3.082652 2.710258 -0.962724
-3.063816 2.708255 -0.962035
-3.041707 2.699767 -0.959323
-3.019583 2.690910 -0.956498
-3.002628 2.691906 -0.956749
-2.988645 2.698719 -0.958814
-2.967435 2.690908 -0.956305
-2.949703 2.689865 -0.955903
-2.929472 2.683439 -0.953810
-2.911002 2.680374 -0.952757
-2.888235 2.667907 -0.948757
-2.873638 2.672550 -0.950088
-2.857315 2.673358 -0.950207
-2.838716 2.668967 -0.948689
-2.825502 2.676340 -0.950828
-2.811305 2.681484 -0.952254
-2.787246 2.663883 -0.946569
-2.769528 2.660403 -0.945274
-2.754805 2.663716 -0.946080
-2.740227 2.667278 -0.946947
-2.720164 2.657424 -0.943615
-2.703112 2.654523 -0.942434
-2.688530 2.657523 -0.943073
-2.672694 2.657241 -0.942673
-2.657483 2.658373 -0.942696
-2.641532 2.657427 -0.942055
-2.617247 2.634227 -0.934478
-2.597948 2.623543 -0.930780
-2.583155 2.624637 -0.930727
-2.570768 2.632241 -0.932678
-2.556145 2.633629 -0.932682
-2.538011 2.624876 -0.929524
-2.523208 2.625325 -0.929206
-2.510675 2.632298 -0.930893
-2.496078 2.633158 -0.930670
-2.478797 2.625735 -0.927868
-2.460034 2.613329 -0.923513
-2.447114 2.618685 -0.924638
-2.433475 2.621770 -0.925045
-2.416427 2.613741 -0.922007
-2.401056 2.610815 -0.920532
-2.384503 2.603667 -0.917744
-2.366632 2.591607 -0.913433
-2.352179 2.590858 -0.912596
-2.341261 2.602467 -0.915549
-2.329002 2.609521 -0.917084
-2.312911 2.602603 -0.914312
-2.298700 2.602325 -0.913570
-2.283371 2.597619 -0.911459
-2.267725 2.591352 -0.908860
-2.252913 2.588013 -0.907151
-2.239207 2.588888 -0.906722
-2.224711 2.586390 -0.905251
-2.209036 2.578660 -0.902173
-2.194119 2.573737 -0.899947
-2.180073 2.572315 -0.898780
-2.167655 2.578074 -0.899792
-2.153664 2.576680 -0.898616
-2.138481 2.569442 -0.895654
-2.123860 2.564451 -0.893371
-2.110793 2.566820 -0.893315
-2.098292 2.572072 -0.894123
-2.084960 2.573122 -0.893648
-2.070472 2.567884 -0.891261
-2.055891 2.561718 -0.888590
-2.041884 2.558338 -0.886755
-2.028180 2.556412 -0.885354
-2.014991 2.557337 -0.884806
-2.002212 2.560740 -0.884996
-1.988858 2.560551 -0.884097
-1.974619 2.554383 -0.881395
-1.961574 2.555817 -0.880971
-1.948617 2.557842 -0.880717
-1.932648 2.537861 -0.873864
-1.919826 2.540133 -0.873675
-1.907275 2.544582 -0.874129
-1.893979 2.543152 -0.872818
-1.880706 2.541664 -0.871485
-1.867102 2.536970 -0.869192
-1.854282 2.539003 -0.868897
-1.840987 2.536455 -0.867233
-1.855417 2.816896 -0.949566
-1.843151 2.839323 -0.955202
-1.831399 2.869872 -0.963220
-1.773226 2.870742 -0.959252
-1.744705 2.879623 -0.959708
-1.729015 2.858666 -0.952462
-1.715532 2.877867 -0.957003
-1.701086 2.879495 -0.956375
-1.685826 2.860903 -0.949822
-1.671469 2.862580 -0.949198
-1.657846 2.888593 -0.955668
-1.642683 2.864000 -0.947360
-1.628468 2.873060 -0.948860
-1.613934 2.867250 -0.946021
-1.599364 2.852735 -0.940652
-1.585009 2.848638 -0.938306
-1.570748 2.872204 -0.943964
-1.556368 2.862375 -0.939939
-1.541997 2.864165 -0.939268
-1.527708 2.858359 -0.936396
-1.513476 2.852751 -0.933577
-1.499269 2.848552 -0.931157
-1.484956 2.849972 -0.930345
-1.470584 2.852859 -0.929942
-1.456137 2.857107 -0.929917
-1.442131 2.849681 -0.926539
-1.428216 2.841816 -0.923032
-1.413996 2.841444 -0.921656
-1.399857 2.839653 -0.919866
-1.385558 2.840788 -0.918897
-1.371537 2.837433 -0.916640
-1.357449 2.835450 -0.914764
-1.343946 2.825800 -0.910708
-1.330143 2.821043 -0.908029
-1.315768 2.823572 -0.907396
-1.301618 2.823226 -0.905938
-1.287267 2.824975 -0.905055
-1.272913 2.826513 -0.904096
-1.258003 2.833204 -0.904565
-1.243066 2.839455 -0.904890
-1.231110 2.818619 -0.897632
-1.216749 2.819851 -0.896528
-1.201662 2.826827 -0.897004
-1.189252 2.812088 -0.891427
-1.175309 2.809933 -0.889335
-1.160214 2.816245 -0.889571
-1.145830 2.816979 -0.888242
-1.132230 2.812175 -0.885368
-1.121007 2.791819 -0.878202
-1.106054 2.796510 -0.877916
-1.090605 2.803866 -0.878335
-1.077244 2.798050 -0.875125
-1.063805 2.792875 -0.872076
-1.049129 2.794897 -0.870972
-1.034266 2.797703 -0.870058
-1.018029 2.807625 -0.871050
-1.002084 2.815346 -0.871413
-0.992536 2.789717 -0.862739
-0.978592 2.787180 -0.860295
-0.964592 2.784876 -0.857894
-0.955866 2.757380 -0.848718
-0.950732 2.714259 -0.835371
-0.940303 2.697025 -0.828966
-0.923282 2.709735 -0.830536
-0.890822 2.788955 -0.849736
-0.934702 2.428943 -0.748974
-0.923481 2.421793 -0.745347
-0.913807 2.408709 -0.740154
-0.902182 2.403503 -0.737021
-0.889272 2.403200 -0.735155
-0.876736 2.401386 -0.732877
-0.863599 2.401688 -0.731134
-0.851802 2.397064 -0.728099
-0.838461 2.397888 -0.726461
-0.826177 2.394923 -0.723832
-0.812834 2.395523 -0.722108
-0.800906 2.391289 -0.719134
-0.788362 2.389105 -0.716680
-0.775029 2.389433 -0.714858
-0.762109 2.388356 -0.712674
-0.748092 2.390647 -0.711338
-0.739714 2.375559 -0.705615
-0.724392 2.381784 -0.705273
-0.710801 2.382645 -0.703582
-0.698283 2.380322 -0.701100
-0.685860 2.377784 -0.698579
-0.675066 2.370717 -0.694951
-0.663297 2.366591 -0.692079
-0.652524 2.359886 -0.688598
-0.628531 2.389227 -0.694026
-0.566142 2.380109 -0.683280
-0.555246 2.374902 -0.680459
-0.545773 2.366508 -0.676932
-0.535111 2.361424 -0.674272
-0.520659 2.365810 -0.673961
-0.504284 2.374901 -0.674841
-0.499591 2.356586 -0.669222
-0.489716 2.351000 -0.666737
-0.476760 2.352897 -0.666118
-0.463792 2.355074 -0.665643
-0.452692 2.353308 -0.664309
-0.439518 2.356506 -0.664237
-0.424555 2.363897 -0.665241
-0.416583 2.356223 -0.662754
-0.415257 2.334685 -0.657073
-3.190747 2.304760 -0.857142
-3.115542 2.328245 -0.860651
-3.055895 2.306762 -0.852538
-3.116899 2.489697 -0.909970
-3.093299 2.477900 -0.905979
-3.098462 2.515823 -0.917856
-3.097294 2.604710 -0.945688
-3.109607 2.658683 -0.962746
-3.111912 2.695430 -0.974332
-3.099037 2.704708 -0.977185
-3.083147 2.708424 -0.978276
-3.064977 2.707766 -0.977981
-3.043795 2.701158 -0.975795
-3.017477 2.684231 -0.970327
-3.001325 2.686814 -0.971062
-2.986353 2.691658 -0.972512
-2.968896 2.691434 -0.972344
-2.949387 2.686831 -0.970775
-2.930887 2.684029 -0.969770
-2.906288 2.668171 -0.964604
-2.890958 2.671438 -0.965506
-2.879794 2.683578 -0.969214
-2.859609 2.676160 -0.966693
-2.839307 2.668101 -0.963956
-2.823593 2.669914 -0.964339
-2.810045 2.676498 -0.966221
-2.792062 2.672867 -0.964844
-2.769887 2.659178 -0.960259
-2.757308 2.667587 -0.962670
-2.740841 2.666729 -0.962123
-2.722728 2.661661 -0.960226
-2.705745 2.659040 -0.959087
-2.687910 2.654033 -0.957177
-2.674120 2.658935 -0.958388
-2.660567 2.664402 -0.959760
-2.643296 2.660156 -0.958041
-2.622858 2.647230 -0.953561
-2.604549 2.639456 -0.950696
-2.587406 2.634443 -0.948690
-2.568309 2.623702 -0.944860
-2.554109 2.626200 -0.945197
-2.538471 2.624507 -0.944195
-2.523002 2.623080 -0.943262
-2.510151 2.629135 -0.944673
-2.496233 2.632034 -0.945072
-2.478580 2.623527 -0.941865
-2.460004 2.611729 -0.937612
-2.444973 2.610500 -0.936673
-2.431293 2.613380 -0.937011
-2.416885 2.613839 -0.936574
-2.402279 2.613510 -0.935876
-2.387638 2.612900 -0.935078
-2.367599 2.593673 -0.928435
-2.352607 2.591157 -0.927019
-2.341556 2.602371 -0.929888
-2.328078 2.605098 -0.930087
-2.313008 2.601932 -0.928433
-2.296865 2.594476 -0.925429
-2.281659 2.590173 -0.923403
-2.266354 2.585172 -0.921149
-2.252157 2.584244 -0.920156
-2.238890 2.586912 -0.920272
-2.224992 2.586944 -0.919558
-2.208645 2.576475 -0.915572
-2.192899 2.568012 -0.912205
-2.179689 2.570267 -0.912156
-2.167320 2.576294 -0.913266
-2.155187 2.583572 -0.914750
-2.140140 2.577251 -0.912017
-2.123254 2.561561 -0.906386
-2.109852 2.562308 -0.905827
-2.097492 2.568284 -0.906872
-2.084599 2.571652 -0.907103
-2.070572 2.568977 -0.905465
-2.055990 2.562963 -0.902794
-2.041758 2.558476 -0.900589
-2.028312 2.558196 -0.899669
-2.015541 2.561835 -0.899944
-2.002290 2.562596 -0.899329
-1.988133 2.557477 -0.896908
-1.974225 2.553548 -0.894848
-1.961066 2.554339 -0.894223
-1.948587 2.559863 -0.895035
-1.934095 2.550917 -0.891430
-1.920301 2.546484 -0.889198
-1.906841 2.544204 -0.887617
-1.893312 2.541039 -0.885762
-1.879416 2.534344 -0.882833
-1.865836 2.529753 -0.880540
-1.852959 2.531150 -0.880055
-1.841424 2.545635 -0.883520
-1.857280 2.841937 -0.972040
-1.847287 2.890505 -0.985653
-1.834535 2.912882 -0.991336
-1.743759 2.877299 -0.974174
-1.728842 2.870780 -0.971128
-1.714398 2.872358 -0.970497
-1.700303 2.881838 -0.972211
-1.685490 2.875321 -0.969151
-1.671326 2.885268 -0.970983
-1.656409 2.873094 -0.966232
-1.642298 2.887746 -0.969437
-1.627669 2.883651 -0.967072
-1.612872 2.865826 -0.960643
-1.598356 2.857478 -0.957018
-1.584030 2.865590 -0.958246
-1.569633 2.874398 -0.959665
-1.555230 2.861728 -0.954750
-1.540854 2.861393 -0.953461
-1.526468 2.862429 -0.952565
-1.512329 2.849178 -0.947474
-1.498133 2.844276 -0.944827
-1.483713 2.849422 -0.945110
-1.469314 2.852472 -0.944768
-1.455037 2.851451 -0.943227
-1.440942 2.846330 -0.940485
-1.426965 2.839710 -0.937301
-1.412714 2.839702 -0.936029
-1.397691 2.853485 -0.938740
-1.385132 2.824438 -0.929043
-1.370140 2.836806 -0.931318
-1.356234 2.831960 -0.928607
-1.342486 2.825577 -0.925446
-1.328646 2.821051 -0.922812
-1.314578 2.819682 -0.921075
-1.300126 2.822677 -0.920576
-1.286134 2.820407 -0.918555
-1.271302 2.826772 -0.918988
-1.257213 2.825296 -0.917165
-1.242805 2.826797 -0.916176
-1.227974 2.831810 -0.916169
-1.213915 2.829776 -0.914142
-1.199006 2.834713 -0.914076
-1.186334 2.821640 -0.908897
-1.172104 2.821163 -0.907269
-1.158406 2.816731 -0.904510
-1.145388 2.807697 -0.900445
-1.132589 2.797634 -0.896082
-1.116874 2.807302 -0.897239
-1.102288 2.809036 -0.896148
-1.088791 2.803777 -0.893085
-1.075575 2.797003 -0.889587
-1.062033 2.792375 -0.886673
-1.048289 2.789007 -0.884093
-1.032788 2.795384 -0.884194
-1.017187 2.801816 -0.884282
-1.003620 2.797098 -0.881267
-0.991288 2.786151 -0.876523
-0.977772 2.781482 -0.873494
-0.960258 2.796340 -0.875795
-0.954398 2.754956 -0.862688
-0.949158 2.712440 -0.849301
-0.938591 2.695847 -0.842996
-0.917556 2.726279 -0.849450
-0.933783 2.479015 -0.777227
-0.930462 2.438606 -0.764618
-0.920730 2.425269 -0.759299
-0.910435 2.414514 -0.754670
-0.899596 2.406123 -0.750666
-0.887291 2.403426 -0.748169
-0.874090 2.403994 -0.746524
-0.861373 2.402650 -0.744354
-0.848163 2.402975 -0.742609
-0.837352 2.394777 -0.738604
-0.824459 2.393885 -0.736513
-0.811716 2.392395 -0.734252
-0.799393 2.389452 -0.731602
-0.785944 2.390168 -0.729897
-0.772124 2.391943 -0.728456
-0.757424 2.396341 -0.727683
-0.746677 2.388263 -0.723680
-0.734588 2.384465 -0.720786
-0.724901 2.373517 -0.716065
-0.710197 2.377679 -0.715225
-0.696614 2.378419 -0.713511
-0.684549 2.374767 -0.710690
-0.674545 2.365404 -0.706438
-0.663872 2.358185 -0.702757
-0.649385 2.361656 -0.701800
-0.632799 2.370739 -0.702272
-0.598783 2.426053 -0.714341
-0.601009 2.384739 -0.702225
-0.595494 2.364708 -0.695505
-0.567466 2.369490 -0.693388
-0.555040 2.368067 -0.691455
-0.543375 2.364989 -0.689170
-0.534062 2.356479 -0.685612
-0.525106 2.347536 -0.682019
-0.508868 2.356305 -0.682840
-0.497242 2.354313 -0.681091
-0.489534 2.343557 -0.677279
-0.475965 2.346745 -0.676947
-0.461588 2.351982 -0.677188
-0.450142 2.350842 -0.675956
-0.440963 2.345008 -0.673668
-0.426756 2.350647 -0.674242
-0.416588 2.347722 -0.672825
-0.425058 2.305087 -0.661903
-3.112000 2.478081 -0.921276
-3.080070 2.510158 -0.931035
-3.085205 2.549284 -0.943548
-3.110403 2.689741 -0.988634
-3.099207 2.702167 -0.992538
-3.080620 2.700877 -0.992006
-3.063570 2.702355 -0.992374
-3.042000 2.695030 -0.989893
-3.019909 2.686367 -0.986978
-3.000524 2.682675 -0.985670
-2.985751 2.687940 -0.987255
-2.969699 2.690583 -0.987984
-2.953155 2.692110 -0.988343
-2.933672 2.687407 -0.986678
-2.911383 2.676517 -0.983000
-2.895765 2.679336 -0.983744
-2.876345 2.673859 -0.981793
-2.858943 2.672449 -0.981143
-2.841892 2.671585 -0.980655
-2.824773 2.670354 -0.980034
-2.809121 2.672223 -0.980398
-2.790272 2.666602 -0.978328
-2.770747 2.659061 -0.975622
-2.753454 2.656391 -0.974474
-2.738096 2.658088 -0.974718
-2.721602 2.656881 -0.974009
-2.704019 2.652772 -0.972348
-2.690797 2.659239 -0.974079
-2.677349 2.665129 -0.975606
-2.657385 2.654282 -0.971726
-2.640666 2.651385 -0.970390
-2.624050 2.648488 -0.969040
-2.607131 2.644517 -0.967329
-2.591257 2.643090 -0.966420
-2.570984 2.629296 -0.961524
-2.552908 2.621065 -0.958403
-2.538641 2.623255 -0.958613
-2.524526 2.625782 -0.958916
-2.512157 2.633353 -0.960819
-2.497763 2.634956 -0.960793
-2.477619 2.619010 -0.955136
-2.460428 2.611479 -0.952162
-2.445901 2.611889 -0.951717
-2.432048 2.614307 -0.951899
-2.418293 2.616968 -0.952145
-2.402620 2.613243 -0.950340
-2.388916 2.615844 -0.950540
-2.374331 2.615376 -0.949749
-2.354535 2.596625 -0.943127
-2.341520 2.601053 -0.943875
-2.328151 2.604225 -0.944210
-2.312558 2.599203 -0.941930
-2.295778 2.589394 -0.938122
-2.280263 2.583895 -0.935676
-2.265352 2.580395 -0.933855
-2.252105 2.583232 -0.934032
-2.239415 2.588314 -0.934908
-2.224795 2.585474 -0.933268
-2.209082 2.577756 -0.930080
-2.193635 2.570715 -0.927100
-2.179687 2.569866 -0.926067
-2.168418 2.580970 -0.928790
-2.155717 2.585828 -0.929534
-2.141006 2.581264 -0.927304
-2.123992 2.565166 -0.921447
-2.109338 2.559886 -0.918986
-2.097012 2.566089 -0.920119
-2.083751 2.567600 -0.919772
-2.070093 2.566927 -0.918734
-2.055556 2.561239 -0.916121
-2.040782 2.553756 -0.912944
-2.027959 2.557119 -0.913148
-2.015201 2.560951 -0.913489
-2.001830 2.561084 -0.912670
-1.987510 2.555032 -0.909922
-1.974307 2.555840 -0.909301
-1.962170 2.563854 -0.910909
-1.946936 2.550403 -0.905853
-1.933758 2.550915 -0.905123
-1.920230 2.548678 -0.903537
-1.906689 2.546037 -0.901821
-1.892722 2.539545 -0.898913
-1.879161 2.535851 -0.896865
-1.865297 2.528996 -0.893842
-1.852783 2.533977 -0.894458
-1.841166 2.548056 -0.897860
-1.856355 2.838488 -0.986064
-1.848356 2.908803 -1.006579
-1.836523 2.943028 -1.015988
-1.818479 2.906143 -1.003616
-1.791849 2.946376 -1.013720
-1.772592 2.883548 -0.993459
-1.758242 2.888192 -0.993779
-1.743452 2.885903 -0.991980
-1.727451 2.860506 -0.983158
-1.713573 2.873147 -0.985887
-1.699636 2.886961 -0.988955
-1.684927 2.884313 -0.987024
-1.669816 2.869041 -0.981274
-1.655365 2.870611 -0.980612
-1.641296 2.887745 -0.984633
-1.626819 2.892350 -0.984861
-1.611923 2.872155 -0.977621
-1.597365 2.864789 -0.974243
-1.582969 2.872019 -0.975239
-1.568495 2.863703 -0.971566
-1.554085 2.861364 -0.969679
-1.539656 2.864401 -0.969392
-1.525079 2.876788 -0.971883
-1.510910 2.860314 -0.965757
-1.496705 2.852502 -0.962213
-1.482401 2.851074 -0.960563
-1.468096 2.850178 -0.959062
-1.453735 2.851072 -0.958083
-1.439826 2.841026 -0.953857
-1.425399 2.844138 -0.953516
-1.410954 2.847011 -0.953092
-1.396577 2.848188 -0.952155
-1.382529 2.843766 -0.949558
-1.369043 2.831430 -0.944631
-1.354589 2.834428 -0.944199
-1.340788 2.828328 -0.941089
-1.327043 2.822210 -0.937966
-1.313084 2.819231 -0.935754
-1.299242 2.815207 -0.933226
-1.283198 2.834788 -0.937558
-1.269139 2.832428 -0.935484
-1.255464 2.826517 -0.932368
-1.241384 2.824756 -0.930445
-1.226225 2.832530 -0.931266
-1.215808 2.799588 -0.920311
-1.200552 2.808326 -0.921383
-1.184196 2.824879 -0.924680
-1.170513 2.820031 -0.921798
-1.157481 2.810679 -0.917612
-1.144135 2.804048 -0.914198
-1.128780 2.811337 -0.914750
-1.114473 2.811166 -0.913149
-1.099741 2.813576 -0.912264
-1.086761 2.804902 -0.908210
-1.073320 2.799354 -0.905032
-1.059684 2.795115 -0.902211
-1.045937 2.791593 -0.899578
-1.030738 2.796113 -0.899194
-1.016750 2.793757 -0.896851
-1.003122 2.789482 -0.893952
-0.988945 2.788068 -0.891837
-0.973584 2.792448 -0.891321
-0.961307 2.781508 -0.886506
-0.945889 2.718368 -0.865392
-0.928781 2.731201 -0.867162
-0.913009 2.674905 -0.847982
-0.901871 2.662079 -0.842629
-0.934269 2.469083 -0.787816
-0.930188 2.432014 -0.775933
-0.919551 2.422381 -0.771573
-0.908009 2.416510 -0.768232
-0.895423 2.414717 -0.765987
-0.883355 2.410901 -0.763177
-0.872510 2.402585 -0.759136
-0.859487 2.402306 -0.757256
-0.847208 2.399256 -0.754614
-0.833958 2.399570 -0.752861
-0.821775 2.396085 -0.750076
-0.810563 2.389338 -0.746411
-0.797191 2.389836 -0.744670
-0.783480 2.391305 -0.743174
-0.769784 2.392573 -0.741612
-0.757645 2.388813 -0.738712
-0.744841 2.387139 -0.736361
-0.735140 2.376007 -0.731526
-0.722776 2.373126 -0.728865
-0.708554 2.375756 -0.727646
-0.694532 2.377681 -0.726243
-0.682845 2.372851 -0.723093
-0.672856 2.363372 -0.718758
-0.662355 2.355597 -0.714890
-0.645700 2.364880 -0.715437
-0.626054 2.381996 -0.718000
-0.612479 2.382562 -0.716333
-0.599052 2.382802 -0.714613
-0.590380 2.370848 -0.709827
-0.580009 2.363660 -0.706305
-0.569880 2.356185 -0.702764
-0.557451 2.354770 -0.700808
-0.545503 2.352386 -0.698663
-0.535483 2.345586 -0.695468
-0.521920 2.347638 -0.694559
-0.508126 2.350417 -0.693893
-0.494135 2.353833 -0.693450
-0.485530 2.344998 -0.690026
-0.473927 2.343482 -0.688502
-0.456061 2.356429 -0.690642
-0.445033 2.354121 -0.689073
-0.439062 2.340998 -0.684910
-0.427721 2.340208 -0.683884
-0.414592 2.343629 -0.683977
-0.404648 2.340482 -0.682533
-3.196949 2.305162 -0.885268
-3.141360 2.265908 -0.870713
-3.051645 2.318904 -0.884358
-3.086807 2.404359 -0.912280
-3.092186 2.558646 -0.962057
-3.073320 2.555757 -0.960936
-3.080673 2.600276 -0.975457
-3.111144 2.688158 -1.004276
-3.095361 2.692141 -1.005445
-3.080236 2.697332 -1.007017
-3.061705 2.696042 -1.006456
-3.045004 2.698102 -1.006998
-3.024376 2.692414 -1.004986
-3.003808 2.686548 -1.002912
-2.986312 2.686499 -1.002748
-2.970361 2.689398 -1.003546
-2.952977 2.689260 -1.003336
-2.933729 2.685080 -1.001785
-2.915764 2.683298 -1.001013
-2.895195 2.675752 -0.998332
-2.873378 2.665139 -0.994630
-2.855581 2.662813 -0.993641
-2.841734 2.668953 -0.995420
-2.827007 2.673093 -0.996526
-2.806792 2.664714 -0.993503
-2.788403 2.660108 -0.991705
-2.771438 2.658496 -0.990874
-2.753536 2.654436 -0.989225
-2.737030 2.653410 -0.988555
-2.713875 2.636050 -0.982512
-2.700222 2.641366 -0.983892
-2.689684 2.654409 -0.987786
-2.670457 2.645670 -0.984525
-2.654932 2.645989 -0.984215
-2.639647 2.646756 -0.984037
-2.621581 2.640022 -0.981388
-2.607154 2.642660 -0.981790
-2.592793 2.645376 -0.982201
-2.571983 2.630198 -0.976752
-2.553235 2.620162 -0.972972
-2.537752 2.618933 -0.972053
-2.526348 2.629288 -0.974897
-2.515535 2.641538 -0.978339
-2.499163 2.637434 -0.976438
-2.477602 2.617305 -0.969309
-2.461138 2.612056 -0.967015
-2.447795 2.616252 -0.967779
-2.434094 2.619290 -0.968152
-2.418770 2.617022 -0.966789
-2.403504 2.614712 -0.965401
-2.389226 2.615486 -0.965001
-2.372117 2.606471 -0.961419
-2.356554 2.602356 -0.959415
-2.341720 2.600526 -0.958141
-2.328246 2.603390 -0.958373
-2.313280 2.600738 -0.956812
-2.296712 2.591840 -0.953228
-2.280652 2.584394 -0.950106
-2.265387 2.579611 -0.947835
-2.252344 2.583333 -0.948294
-2.239475 2.587783 -0.948975
-2.226144 2.590372 -0.949046
-2.210662 2.583834 -0.946179
-2.195583 2.578623 -0.943731
-2.182206 2.580577 -0.943573
-2.168185 2.579580 -0.942461
-2.155007 2.582306 -0.942532
-2.139455 2.573784 -0.939000
-2.123745 2.563947 -0.935046
-2.109203 2.559310 -0.932748
-2.095810 2.560183 -0.932201
-2.083109 2.564591 -0.932771
-2.068999 2.561536 -0.930958
-2.054799 2.557694 -0.928891
-2.040546 2.553205 -0.926614
-2.027352 2.554528 -0.926175
-2.014543 2.558122 -0.926449
-2.001516 2.560461 -0.926316
-1.988211 2.561042 -0.925621
-1.975622 2.566268 -0.926386
-1.962380 2.567254 -0.925803
-1.945879 2.545116 -0.917929
-1.932971 2.547602 -0.917814
-1.919962 2.549369 -0.917465
-1.906312 2.546082 -0.915522
-1.892701 2.542713 -0.913550
-1.879706 2.544204 -0.913098
-1.865706 2.536706 -0.909825
-1.853038 2.540842 -0.910190
-1.840924 2.550646 -0.912317
-1.857983 2.861277 -1.008281
-1.845845 2.888435 -1.015686
-1.791255 2.948510 -1.029988
-1.756932 2.879987 -1.006535
-1.741944 2.874083 -1.003603
-1.727071 2.869044 -1.000935
-1.713389 2.887191 -1.005415
-1.698961 2.892075 -1.005790
-1.683970 2.883530 -1.002023
-1.668740 2.865300 -0.995281
-1.654388 2.870587 -0.995762
-1.640400 2.892248 -1.001251
-1.625924 2.899453 -1.002291
-1.610976 2.879399 -0.994986
-1.596360 2.872087 -0.991579
-1.581841 2.868378 -0.989268
-1.567364 2.863270 -0.986527
-1.552951 2.856091 -0.983153
-1.538486 2.863001 -0.984055
-1.524057 2.862857 -0.982805
-1.509526 2.868581 -0.983323
-1.495225 2.862231 -0.980176
-1.481038 2.854086 -0.976482
-1.466843 2.848689 -0.973616
-1.452576 2.846599 -0.971741
-1.438019 2.851868 -0.972072
-1.424024 2.844182 -0.968497
-1.409407 2.849882 -0.968934
-1.394972 2.851396 -0.968102
-1.381006 2.845054 -0.964908
-1.367231 2.836714 -0.961112
-1.353056 2.835091 -0.959315
-1.339081 2.830982 -0.956767
-1.325574 2.821513 -0.952618
-1.311911 2.814873 -0.949304
-1.297260 2.819812 -0.949418
-1.282835 2.821798 -0.948640
-1.267242 2.835211 -0.951224
-1.253528 2.829370 -0.948100
-1.239819 2.823908 -0.945080
-1.225187 2.826886 -0.944532
-1.212676 2.811721 -0.938639
-1.200311 2.796456 -0.932717
-1.185345 2.802432 -0.933011
-1.170428 2.807495 -0.933016
-1.157074 2.800800 -0.929571
-1.142263 2.804609 -0.929174
-1.127805 2.805670 -0.927958
-1.113208 2.807445 -0.926930
-1.099476 2.803500 -0.924225
-1.084049 2.810075 -0.924548
-1.071058 2.801603 -0.920503
-1.057178 2.798617 -0.918028
-1.042424 2.800589 -0.916962
-1.029681 2.791272 -0.912635
-1.016505 2.784605 -0.909058
-1.002183 2.784101 -0.907228
-0.987836 2.783597 -0.905378
-0.972867 2.786038 -0.904345
-0.960082 2.777649 -0.900213
-0.952412 2.745345 -0.889293
-0.906850 2.632408 -0.848575
-0.937785 2.446588 -0.794818
-0.930686 2.422239 -0.786320
-0.918989 2.416971 -0.783142
-0.905369 2.419238 -0.782042
-0.893804 2.413432 -0.778685
-0.882252 2.407652 -0.775324
-0.870554 2.402480 -0.772119
-0.857923 2.400719 -0.769840
-0.844664 2.401102 -0.768133
-0.831481 2.401070 -0.766295
-0.819722 2.396046 -0.763079
-0.807515 2.392573 -0.760278
-0.794774 2.390858 -0.757944
-0.779752 2.396469 -0.757581
-0.767634 2.392532 -0.754623
-0.755885 2.387469 -0.751359
-0.745350 2.378736 -0.747110
-0.732649 2.376766 -0.744677
-0.719262 2.376834 -0.742788
-0.705321 2.378464 -0.741314
-0.691657 2.379194 -0.739601
-0.679347 2.376011 -0.736857
-0.669936 2.364768 -0.732001
-0.656911 2.363845 -0.729887
-0.644267 2.361923 -0.727529
-0.629464 2.365883 -0.726731
-0.612615 2.375201 -0.727347
-0.582918 2.382988 -0.725817
-0.570128 2.381646 -0.723743
-0.564144 2.363393 -0.717349
-0.555138 2.353244 -0.713111
-0.543064 2.351021 -0.710970
-0.530067 2.351267 -0.709518
-0.519546 2.345806 -0.706666
-0.507049 2.345358 -0.705161
-0.492056 2.350972 -0.705264
-0.479318 2.351524 -0.704145
