ply
format ascii 1.0
comment ---
element vertex 1703
property float x
property float y
property float z
element face 0
property list uchar uint vertex_indices
end_header
-4.026179 -0.025609 0.325582
-4.023826 -0.015273 0.325760
-4.020682 -0.005235 0.325862
-4.016933 0.004568 0.325905
-4.015484 0.015443 0.326180
-4.014029 0.026361 0.326457
-4.013667 0.037831 0.326845
-4.015472 0.050378 0.327453
-4.019205 0.063919 0.328258
-4.019572 0.075924 0.328726
-4.014055 0.085093 0.328598
-4.010569 0.095250 0.328675
-4.010569 0.107160 0.329108
-4.011090 0.119378 0.329594
-4.006952 0.129245 0.329604
-4.010708 0.143214 0.330423
-4.005223 0.152399 0.330295
-4.000844 0.162147 0.330279
-3.998645 0.173058 0.330486
-3.999043 0.185398 0.330962
-4.002278 0.199350 0.331732
-4.003353 0.212180 0.332280
-3.999497 0.222285 0.332316
-3.996696 0.232986 0.332460
-3.994593 0.244101 0.332677
-3.994181 0.256222 0.333071
-3.985707 0.263634 0.332619
-3.987364 0.277023 0.333230
-3.988993 0.290466 0.333839
-3.989163 0.303095 0.334296
-3.987727 0.314793 0.334583
-3.980868 0.323158 0.334296
-3.977448 0.333651 0.334372
-3.977469 0.346342 0.334814
-3.978424 0.359691 0.335357
-3.970191 0.367167 0.334918
-3.974804 0.383002 0.335855
-3.977933 0.397985 0.336636
-3.970399 0.405960 0.336271
-3.967880 0.417286 0.336445
-3.970894 0.432419 0.337219
-3.968145 0.443703 0.337370
-3.969400 0.457808 0.337957
-3.966872 0.469354 0.338135
-3.965853 0.482016 0.338478
-3.967496 0.496651 0.339113
-3.968401 0.510861 0.339671
-3.966950 0.523453 0.339972
-3.960036 0.532088 0.339674
-3.957034 0.543626 0.339806
-3.956575 0.557125 0.340220
-3.958683 0.572660 0.340921
-3.942362 0.574213 0.339580
-3.953100 0.596543 0.341244
-3.951199 0.609270 0.341506
-3.950010 0.622635 0.341850
-3.946670 0.634378 0.341955
-3.941658 0.644836 0.341874
-3.939291 0.657474 0.342091
-3.938388 0.671386 0.342476
-3.935447 0.683717 0.342632
-3.932707 0.696287 0.342814
-3.927442 0.706808 0.342710
-3.940091 0.747851 0.345150
-3.933198 0.757270 0.344869
-3.930110 0.770034 0.345024
-3.925792 0.781793 0.345040
-3.925109 0.796853 0.345477
-3.921688 0.809577 0.345601
-3.926730 0.830062 0.346707
-3.923314 0.843028 0.346839
-3.917976 0.854304 0.346749
-3.909580 0.862782 0.346305
-3.905654 0.875472 0.346382
-3.906408 0.892694 0.347011
-3.909542 0.912367 0.347924
-3.906779 0.926541 0.348149
-3.896755 0.933727 0.347521
-3.895707 0.949750 0.347954
-3.898409 0.969652 0.348836
-3.894249 0.982874 0.348909
-3.888481 0.994556 0.348793
-3.892640 1.016469 0.349865
-3.884530 1.025953 0.349475
-3.877967 1.037073 0.349271
-3.872254 1.049142 0.349172
-3.875496 1.070803 0.350156
-3.881272 1.095438 0.351455
-3.886626 1.119921 0.352713
-3.879337 1.130881 0.352441
-3.872869 1.142794 0.352270
-3.872370 1.161426 0.352832
-3.872621 1.181095 0.353493
-3.871074 1.198935 0.353938
-3.869212 1.216591 0.354351
-3.859958 1.225865 0.353853
-3.852955 1.237783 0.353635
-3.852489 1.257477 0.354234
-3.858474 1.285069 0.355645
-3.860702 1.308508 0.356597
-3.858295 1.326606 0.356976
-3.860982 1.351127 0.358003
-3.855970 1.366429 0.358066
-3.855918 1.388054 0.358762
-3.855040 1.408885 0.359360
-3.851232 1.426220 0.359592
-3.852437 1.450167 0.360471
-3.848403 1.467607 0.360687
-3.840464 1.480095 0.360404
-3.836074 1.497354 0.360583
-3.820441 1.499750 0.359308
-3.804993 1.549467 0.359578
-3.761514 1.560863 0.356183
-3.771455 1.599452 0.358288
-3.771851 1.624835 0.359140
-3.763692 1.638059 0.358860
-3.747041 1.638846 0.357442
-3.735614 1.647260 0.356723
-3.725025 1.656932 0.356116
-3.716275 1.669423 0.355759
-3.714446 1.692626 0.356346
-3.683037 1.670234 0.352902
-3.612279 1.585529 0.344041
-3.601064 1.593206 0.343314
-3.597746 1.613515 0.343677
-3.592530 1.631013 0.343784
-3.590078 1.653229 0.344283
-3.586191 1.673378 0.344590
-3.587403 1.702292 0.345621
-3.582755 1.721777 0.345839
-3.594957 1.770214 0.348449
-3.596937 1.801923 0.349634
-3.583907 1.808026 0.348693
-3.579717 1.829646 0.349017
-3.585899 1.870008 0.350842
-3.578646 1.886939 0.350748
-3.569937 1.901432 0.350448
-3.573406 1.938448 0.351928
-3.569107 1.961695 0.352290
-3.563267 1.982403 0.352436
-3.559253 2.006879 0.352860
-3.557495 2.036081 0.353631
-3.557804 2.069797 0.354725
-3.551783 2.091691 0.354889
-3.541831 2.106120 0.354471
-3.546038 2.149180 0.356199
-3.539780 2.171812 0.356362
-3.534915 2.197687 0.356749
-3.525803 2.215180 0.356497
-3.525436 2.251359 0.357601
-3.521461 2.280566 0.358167
-3.536881 2.352168 0.361772
-3.531338 2.379600 0.362141
-3.527840 2.412086 0.362848
-3.526499 2.450060 0.363916
-3.518087 2.472823 0.363882
-3.516735 2.512220 0.364990
-3.513900 2.549042 0.365885
-3.507084 2.577310 0.366159
-3.504826 2.617049 0.367193
-3.497507 2.645479 0.367425
-3.487803 2.668698 0.367281
-3.482303 2.702851 0.367848
-3.474065 2.730926 0.367982
-3.457388 2.738142 0.366716
-3.441264 2.746873 0.365544
-3.423964 2.752659 0.364175
-3.406369 2.757717 0.362756
-3.386275 2.756078 0.360904
-3.369778 2.764130 0.359672
-3.350701 2.765163 0.357990
-3.331530 2.765865 0.356288
-3.306813 2.750629 0.353598
-3.286236 2.746860 0.351630
-3.273649 2.766459 0.351094
-3.254573 2.767140 0.349394
-3.232333 2.758117 0.347111
-3.213243 2.758458 0.345396
-3.193837 2.757721 0.343619
-3.174342 2.756575 0.341819
-3.153829 2.751975 0.339822
-3.134514 2.751069 0.338044
-3.115945 2.752518 0.336405
-3.098083 2.756313 0.334900
-3.079716 2.758331 0.333295
-3.057953 2.748181 0.331012
-3.042114 2.758918 0.329900
-3.017243 2.736512 0.326962
-2.999660 2.740419 0.325485
-2.982120 2.744368 0.324013
-2.959293 2.727474 0.321430
-2.943659 2.738252 0.320340
-2.927939 2.748720 0.319235
-2.909420 2.747522 0.317523
-2.888904 2.737271 0.315357
-2.871353 2.738863 0.313821
-2.849662 2.721515 0.311338
-2.835029 2.734647 0.310423
-2.818800 2.740163 0.309136
-2.802793 2.746079 0.307885
-2.785592 2.745497 0.306332
-2.771369 2.758561 0.305468
-2.749953 2.734576 0.302830
-2.728437 2.707668 0.300097
-2.706427 2.675494 0.297164
-3.841660 -0.238322 0.293994
-3.847479 -0.227627 0.294787
-3.845617 -0.219534 0.294883
-3.841830 -0.212016 0.294809
-3.845329 -0.201627 0.295418
-3.849193 -0.190912 0.296070
-3.846094 -0.182719 0.296084
-3.839514 -0.175793 0.295780
-3.840816 -0.165666 0.296217
-3.840146 -0.156202 0.296476
-3.840926 -0.146040 0.296876
-3.868636 -0.124584 0.299809
-4.019864 -0.050755 0.314367
-4.029034 -0.035700 0.315607
-4.026757 -0.025394 0.315775
-4.021700 -0.016244 0.315684
-4.016568 -0.007107 0.315587
-4.015035 0.003662 0.315833
-4.016500 0.015845 0.316366
-4.016499 0.027434 0.316762
-4.015562 0.038644 0.317072
-4.014104 0.049653 0.317332
-4.016605 0.062592 0.317974
-4.023391 0.077686 0.319030
-4.013232 0.084596 0.318457
-4.009822 0.094780 0.318532
-4.013766 0.108663 0.319318
-4.012937 0.120207 0.319644
-4.012811 0.132145 0.320038
-4.009066 0.142238 0.320080
-4.007751 0.153605 0.320358
-4.001256 0.162236 0.320129
-3.998116 0.172636 0.320226
-3.994806 0.182946 0.320305
-4.001162 0.198588 0.321335
-4.000393 0.210376 0.321665
-3.997519 0.221011 0.321786
-3.993301 0.230887 0.321773
-3.990242 0.241424 0.321874
-3.995624 0.256889 0.322813
-3.991505 0.266872 0.322808
-3.988658 0.277609 0.322928
-3.987311 0.289263 0.323197
-3.986621 0.301353 0.323533
-3.983512 0.312000 0.323625
-3.980305 0.322601 0.323706
-3.977798 0.333658 0.323858
-3.980472 0.348027 0.324532
-3.978477 0.359501 0.324736
-3.983247 0.375390 0.325626
-3.987392 0.390999 0.326455
-3.984211 0.401890 0.326540
-3.971628 0.406530 0.325664
-3.968872 0.417699 0.325790
-3.971522 0.432583 0.326470
-3.973859 0.447363 0.327121
-3.970983 0.458630 0.327236
-3.972114 0.472747 0.327766
-3.971501 0.485726 0.328116
-3.969289 0.497636 0.328303
-3.968785 0.510833 0.328667
-3.962784 0.520100 0.328460
-3.958137 0.530369 0.328394
-3.960081 0.545565 0.329016
-3.970314 0.567107 0.330510
-3.968847 0.580022 0.330782
-3.954741 0.583339 0.329725
-3.948304 0.592477 0.329473
-3.950658 0.608480 0.330149
-3.949368 0.621753 0.330442
-3.947633 0.634759 0.330690
-3.944109 0.646412 0.330750
-3.946163 0.662642 0.331404
-3.941329 0.673382 0.331327
-3.937694 0.685153 0.331379
-3.929925 0.693539 0.330988
-3.920307 0.700367 0.330398
-3.931436 0.739969 0.332491
-3.926289 0.750821 0.332387
-3.929274 0.768824 0.333165
-3.927342 0.782672 0.333414
-3.926806 0.797864 0.333818
-3.929534 0.816118 0.334581
-3.924101 0.827155 0.334456
-3.918346 0.837947 0.334296
-3.920620 0.856205 0.335020
-3.912978 0.865399 0.334657
-3.911286 0.880211 0.334950
-3.908221 0.893840 0.335095
-3.907937 0.910237 0.335550
-3.904335 0.923574 0.335641
-3.899319 0.935622 0.335577
-3.894695 0.948126 0.335557
-3.896226 0.966840 0.336230
-3.894067 0.982039 0.336493
-3.889342 0.994765 0.336471
-3.886399 1.009400 0.336652
-3.888964 1.029846 0.337459
-3.879837 1.038322 0.336947
-3.879445 1.055999 0.337427
-3.882697 1.077726 0.338327
-3.887320 1.101178 0.339392
-3.884356 1.116695 0.339595
-3.876450 1.126942 0.339234
-3.871446 1.140428 0.339208
-3.875396 1.163986 0.340218
-3.874494 1.182372 0.340675
-3.871592 1.198677 0.340905
-3.865216 1.211147 0.340734
-3.859783 1.224785 0.340676
-3.853658 1.237712 0.340539
-3.852087 1.256094 0.340939
-3.857694 1.283209 0.342188
-3.860954 1.307859 0.343170
-3.867820 1.337191 0.344588
-3.861378 1.350620 0.344438
-3.860968 1.371599 0.345008
-3.855740 1.386799 0.345010
-3.852626 1.404789 0.345268
-3.858381 1.434246 0.346595
-3.855872 1.453486 0.346939
-3.847193 1.464920 0.346543
-3.840903 1.479537 0.346438
-3.835515 1.495460 0.346446
-3.827228 1.507649 0.346104
-3.802044 1.497110 0.343699
-3.793902 1.630262 0.346831
-3.784348 1.641559 0.346354
-3.770749 1.647000 0.345372
-3.749140 1.640567 0.343379
-3.717266 1.618541 0.340082
-3.715590 1.641324 0.340591
-3.713576 1.663886 0.341064
-3.692555 1.657558 0.339122
-3.660297 1.633504 0.335733
-3.611255 1.582492 0.330169
-3.601958 1.593168 0.329691
-3.594666 1.607110 0.329474
-3.593081 1.630397 0.330001
-3.589724 1.651115 0.330305
-3.588320 1.675327 0.330872
-3.582671 1.692807 0.330890
-3.574625 1.706453 0.330597
-3.598807 1.775092 0.334570
-3.588871 1.786331 0.334049
-3.580296 1.800014 0.333710
-3.574879 1.819375 0.333797
-3.587640 1.871287 0.336331
-3.579488 1.886607 0.336072
-3.571804 1.902948 0.335879
-3.566437 1.923738 0.336006
-3.571580 1.964330 0.337575
-3.566674 1.986805 0.337785
-3.561327 2.008787 0.337944
-3.556985 2.033030 0.338249
-3.556821 2.065772 0.339144
-3.544159 2.074570 0.338310
-3.546659 2.113512 0.339601
-3.542235 2.139295 0.339937
-3.540157 2.170289 0.340615
-3.534280 2.194046 0.340768
-3.530609 2.222800 0.341245
-3.524415 2.246780 0.341374
-3.527478 2.290898 0.342846
-3.537893 2.351781 0.345407
-3.534474 2.383824 0.345989
-3.527944 2.409641 0.346132
-3.521037 2.435108 0.346231
-3.520390 2.475245 0.347267
-3.525354 2.529125 0.349159
-3.514653 2.547869 0.348742
-3.507464 2.575222 0.348860
-3.495176 2.591005 0.348222
-3.489512 2.623065 0.348595
-3.487968 2.665927 0.349615
-3.479238 2.692006 0.349556
-3.472524 2.723738 0.349823
-3.456698 2.733020 0.348691
-3.443011 2.747964 0.347896
-3.426732 2.756436 0.346698
-3.407872 2.758184 0.345094
-3.389526 2.761266 0.343567
-3.371128 2.764190 0.342029
-3.354400 2.771739 0.340759
-3.331839 2.762999 0.338542
-3.310376 2.757037 0.336492
-3.291498 2.758301 0.334860
-3.273634 2.762506 0.333392
-3.255201 2.765049 0.331829
-3.234828 2.761682 0.329936
-3.215591 2.761628 0.328229
-3.198533 2.768321 0.326890
-3.177789 2.763364 0.324918
-3.157562 2.759814 0.323026
-3.135099 2.748630 0.320735
-3.118233 2.755766 0.319419
-3.100114 2.758729 0.317882
-3.076465 2.742366 0.315346
-3.058360 2.744919 0.313798
-3.038308 2.740337 0.311890
-3.016819 2.730071 0.309705
-2.999381 2.734382 0.308262
-2.979423 2.728933 0.306340
-2.958303 2.718417 0.304184
-2.940553 2.720551 0.302659
-2.929257 2.748621 0.302388
-2.907113 2.732356 0.299995
-2.889876 2.735687 0.298553
-2.868547 2.720862 0.296275
-2.849671 2.715588 0.294469
-2.834553 2.726351 0.293420
-2.820077 2.739752 0.292502
-2.797431 2.714243 0.289844
-2.787786 2.749437 0.289936
-2.772048 2.755040 0.288717
-2.752568 2.740788 0.286652
-2.728069 2.698597 0.283413
-2.721221 2.746607 0.284117
-3.853552 -0.233997 0.286444
-3.850782 -0.226373 0.286433
-3.844451 -0.219918 0.286120
-3.840460 -0.212490 0.286019
-3.842460 -0.202683 0.286453
-3.845895 -0.192156 0.287022
-3.848516 -0.181767 0.287529
-3.838431 -0.176215 0.286924
-3.834310 -0.168265 0.286849
-3.839265 -0.156570 0.287584
-3.847644 -0.143307 0.288631
-3.869223 -0.124367 0.290859
-4.031921 -0.045719 0.305670
-4.028693 -0.035890 0.305735
-4.027360 -0.025185 0.305973
-4.021436 -0.016418 0.305803
-4.016104 -0.007378 0.305687
-4.014794 0.003482 0.305935
-4.019792 0.017265 0.306754
-4.019516 0.028740 0.307100
-4.017639 0.039524 0.307303
-4.014224 0.049614 0.307368
-4.009626 0.059150 0.307325
-4.013098 0.072591 0.308017
-4.011960 0.083859 0.308290
-4.008644 0.094077 0.308364
-4.009801 0.106547 0.308847
-4.012904 0.120062 0.309510
-4.011600 0.131388 0.309768
-4.008891 0.142008 0.309896
-4.006423 0.152762 0.310045
-4.004941 0.164052 0.310285
-4.001089 0.174086 0.310304
-4.001334 0.186348 0.310702
-3.998151 0.196764 0.310781
-3.998613 0.209215 0.311199
-3.997763 0.220975 0.311493
-3.994776 0.231550 0.311587
-3.990225 0.241231 0.311532
-3.987163 0.251770 0.311615
-3.987810 0.264501 0.312047
-3.984030 0.274654 0.312061
-3.981106 0.285325 0.312154
-3.980867 0.297643 0.312501
-3.981667 0.310651 0.312946
-3.981862 0.323348 0.313334
-3.983202 0.336824 0.313831
-3.982102 0.348830 0.314096
-3.981050 0.360912 0.314365
-3.977138 0.371192 0.314358
-3.985664 0.389619 0.315548
-3.979698 0.398652 0.315344
-3.971632 0.406273 0.314935
-3.975843 0.422131 0.315712
-3.978177 0.436841 0.316310
-3.970905 0.445051 0.315975
-3.972640 0.459494 0.316515
-3.975726 0.474987 0.317188
-3.976814 0.489189 0.317668
-3.969566 0.497526 0.317333
-3.963539 0.506730 0.317116
-3.960646 0.518221 0.317206
-3.959317 0.530911 0.317450
-3.959585 0.544861 0.317852
-3.956586 0.556456 0.317933
-3.957248 0.570877 0.318377
-3.956315 0.584186 0.318664
-3.950940 0.594149 0.318510
-3.947241 0.605442 0.318523
-3.948626 0.620787 0.319044
-3.946147 0.633188 0.319180
-3.943771 0.645741 0.319328
-3.935942 0.653953 0.318928
-3.939432 0.671414 0.319668
-3.934025 0.681699 0.319513
-3.932002 0.694838 0.319700
-3.921826 0.701205 0.319063
-3.895625 0.693923 0.316795
-3.909349 0.720572 0.318583
-3.908669 0.735102 0.318910
-3.929008 0.768109 0.321388
-3.927042 0.781915 0.321592
-3.929468 0.799731 0.322249
-3.929245 0.815344 0.322638
-3.922347 0.825040 0.322341
-3.925451 0.843916 0.323078
-3.918443 0.853648 0.322772
-3.913927 0.865728 0.322724
-3.911439 0.879788 0.322889
-3.909619 0.894590 0.323126
-3.904819 0.906656 0.323054
-3.900402 0.919164 0.323023
-3.897857 0.933579 0.323191
-3.894906 0.947709 0.323318
-3.893903 0.963887 0.323652
-3.897094 0.984428 0.324433
-3.891750 0.996542 0.324316
-3.889283 1.011673 0.324506
-3.890068 1.030293 0.325044
-3.891015 1.049274 0.325604
-3.882660 1.058664 0.325175
-3.883481 1.077823 0.325729
-3.884336 1.097224 0.326291
-3.883341 1.114827 0.326659
-3.883598 1.133974 0.327166
-3.879975 1.149042 0.327259
-3.873953 1.161565 0.327094
-3.871039 1.177658 0.327269
-3.867399 1.193072 0.327367
-3.865118 1.210175 0.327618
-3.860956 1.225266 0.327666
-3.865736 1.250923 0.328699
-3.862958 1.267998 0.328907
-3.858616 1.283375 0.328947
-3.864049 1.310625 0.330072
-3.865159 1.332989 0.330725
-3.868681 1.358570 0.331653
-3.863641 1.373891 0.331635
-3.859332 1.390252 0.331701
-3.854221 1.405749 0.331680
-3.856301 1.430526 0.332471
-3.853978 1.449957 0.332773
-3.848427 1.465408 0.332714
-3.843542 1.481861 0.332735
-3.837675 1.497164 0.332647
-3.830960 1.511463 0.332465
-3.808426 1.504539 0.330477
-3.794512 1.605045 0.331868
-3.801481 1.639778 0.333297
-3.796068 1.657145 0.333293
-3.773325 1.649399 0.331263
-3.760528 1.655978 0.330393
-3.734464 1.642766 0.327959
-3.713677 1.637048 0.326136
-3.711591 1.659444 0.326523
-3.687665 1.648618 0.324318
-3.655773 1.625053 0.321153
-3.607235 1.574773 0.315978
-3.593636 1.578559 0.314969
-3.597150 1.609610 0.316019
-3.593206 1.629101 0.316178
-3.593013 1.654955 0.316798
-3.591669 1.679291 0.317286
-3.584358 1.694034 0.317052
-3.580326 1.714443 0.317223
-3.569370 1.723345 0.316548
-3.584364 1.776891 0.319077
-3.577928 1.794180 0.318973
-3.574658 1.817237 0.319266
-3.574313 1.845825 0.319932
-3.576377 1.879194 0.320909
-3.572543 1.902429 0.321157
-3.564284 1.917897 0.320853
-3.552014 1.926103 0.320044
-3.568881 1.988968 0.322941
-3.561884 2.007830 0.322818
-3.560792 2.038280 0.323458
-3.554644 2.059454 0.323457
-3.550955 2.085773 0.323780
-3.544101 2.106262 0.323702
-3.542699 2.138008 0.324340
-3.540286 2.168286 0.324857
-3.534995 2.193206 0.325008
-3.531654 2.222618 0.325424
-3.536996 2.270835 0.327003
-3.534276 2.302904 0.327529
-3.538379 2.350295 0.328982
-3.531531 2.374822 0.328983
-3.528650 2.408561 0.329528
-3.514461 2.417728 0.328553
-3.529447 2.492982 0.331556
-3.517436 2.508158 0.330897
-3.523159 2.564723 0.332684
-3.505420 2.567484 0.331253
-3.495762 2.589415 0.330941
-3.486566 2.612911 0.330701
-3.490198 2.668254 0.332273
-3.482030 2.695735 0.332206
-3.468945 2.711500 0.331452
-3.455855 2.727569 0.330702
-3.441582 2.740920 0.329786
-3.426220 2.751685 0.328716
-3.410250 2.761035 0.327560
-3.390027 2.759104 0.325783
-3.375175 2.771683 0.324789
-3.355343 2.770739 0.323062
-3.334236 2.766081 0.321140
-3.312585 2.759638 0.319128
-3.294982 2.764642 0.317717
-3.278080 2.771774 0.316412
-3.257507 2.768064 0.314546
-3.237396 2.765549 0.312744
-3.219478 2.769628 0.311275
-3.201145 2.772446 0.309741
-3.163932 2.714995 0.305236
-3.150839 2.733783 0.304505
-3.134195 2.741379 0.303217
-3.116339 2.745052 0.301736
-3.099093 2.750803 0.300352
-3.078375 2.744521 0.298400
-3.057847 2.738515 0.296471
-3.036315 2.728466 0.294364
-3.019219 2.734151 0.292990
-3.001707 2.738247 0.291544
-2.978879 2.721893 0.289188
-2.958817 2.715368 0.287289
-2.940070 2.713453 0.285608
-2.921691 2.712549 0.283982
-2.906981 2.726365 0.283002
-2.892968 2.743200 0.282152
-2.865236 2.700841 0.278812
-2.849771 2.710187 0.277679
-2.838994 2.740386 0.277417
-2.818006 2.723993 0.275248
-2.801982 2.729393 0.273996
-2.784029 2.724733 0.272361
-2.772359 2.749807 0.271934
-2.753034 2.736204 0.269997
-2.736047 2.732772 0.268496
-2.726107 2.765083 0.268404
-3.854585 -0.233569 0.277892
-3.849989 -0.226614 0.277716
-3.847976 -0.218583 0.277763
-3.843150 -0.211459 0.277586
-3.844897 -0.201743 0.277963
-3.847597 -0.191494 0.278429
-3.843218 -0.183824 0.278315
-3.839224 -0.175912 0.278240
-3.834819 -0.168079 0.278138
-3.844342 -0.154544 0.279206
-3.851326 -0.141833 0.280071
-3.862205 -0.127323 0.281272
-4.030474 -0.046382 0.295725
-4.029770 -0.035492 0.295992
-4.026787 -0.025502 0.296072
-4.022200 -0.016161 0.296018
-4.019652 -0.005888 0.296140
-4.021519 0.006413 0.296639
-4.021316 0.017862 0.296965
-4.021896 0.029734 0.297360
-4.020562 0.040779 0.297593
-4.012394 0.048635 0.297242
-4.011488 0.059921 0.297513
-4.012055 0.071960 0.297911
-4.011438 0.083472 0.298208
-4.008877 0.094057 0.298337
-4.006113 0.104552 0.298447
-4.006352 0.116584 0.298817
-4.010824 0.130838 0.299555
-4.007504 0.141130 0.299616
-4.006884 0.152844 0.299910
-4.007994 0.165513 0.300356
-4.004745 0.175887 0.300419
-4.000701 0.185828 0.300410
-3.997479 0.196214 0.300472
-3.995820 0.207474 0.300669
-3.999341 0.221677 0.301323
-3.994635 0.231276 0.301250
-3.989898 0.240845 0.301171
-3.988937 0.252600 0.301425
-3.983650 0.261844 0.301293
-3.986493 0.275909 0.301884
-3.983795 0.286726 0.301980
-3.981325 0.297700 0.302095
-3.980671 0.309811 0.302372
-3.984218 0.324579 0.303025
-3.987162 0.339071 0.303625
-3.985775 0.350915 0.303834
-3.979196 0.359476 0.303574
-3.980195 0.372917 0.303997
-3.982427 0.387241 0.304532
-3.980363 0.398825 0.304678
-3.976461 0.409224 0.304655
-3.973319 0.420152 0.304700
-3.975650 0.434836 0.305244
-3.966042 0.441419 0.304696
-3.965802 0.454451 0.305005
-3.972441 0.472381 0.305946
-3.973675 0.486656 0.306391
-3.966866 0.495280 0.306096
-3.962595 0.505726 0.306033
-3.959669 0.517180 0.306094
-3.957200 0.529017 0.306196
-3.957439 0.542923 0.306551
-3.955037 0.554943 0.306660
-3.954276 0.568268 0.306923
-3.952901 0.581209 0.307128
-3.950538 0.593466 0.307242
-3.949810 0.607065 0.307509
-3.949204 0.620854 0.307789
-3.943347 0.630566 0.307575
-3.936526 0.639525 0.307270
-3.939608 0.656511 0.307899
-3.935928 0.668129 0.307891
-3.936789 0.683552 0.308314
-3.934398 0.696398 0.308430
-3.925470 0.703826 0.307923
-3.924785 0.718233 0.308202
-3.913970 0.739218 0.307860
-3.927764 0.766538 0.309532
-3.923716 0.778488 0.309495
-3.933952 0.803214 0.310836
-3.926028 0.811938 0.310429
-3.919499 0.821933 0.310156
-3.916210 0.834922 0.310197
-3.914280 0.849255 0.310372
-3.912241 0.863598 0.310537
-3.911175 0.878969 0.310800
-3.909297 0.893703 0.310985
-3.904186 0.905457 0.310855
-3.895772 0.914081 0.310403
-3.893871 0.929071 0.310590
-3.896742 0.948891 0.311250
-3.895654 0.964990 0.311523
-3.894908 0.981578 0.311832
-3.893955 0.998112 0.312124
-3.888540 1.010233 0.311976
-3.890191 1.029725 0.312532
-3.887925 1.045344 0.312701
-3.886442 1.061923 0.312951
-3.881327 1.074799 0.312840
-3.882250 1.094234 0.313337
-3.881592 1.112167 0.313679
-3.885787 1.135583 0.314514
-3.881887 1.150354 0.314537
-3.868458 1.154635 0.313596
-3.862539 1.167277 0.313415
-3.867533 1.192380 0.314347
-3.865179 1.209385 0.314536
-3.859968 1.223248 0.314436
-3.861197 1.244729 0.314997
-3.863060 1.267205 0.315629
-3.864220 1.289111 0.316194
-3.862533 1.307852 0.316470
-3.860131 1.325922 0.316675
-3.866481 1.354883 0.317793
-3.865503 1.375180 0.318156
-3.859231 1.389096 0.317971
-3.853852 1.404236 0.317882
-3.853098 1.425382 0.318280
-3.853776 1.448606 0.318832
-3.853196 1.470482 0.319258
-3.847317 1.485673 0.319130
-3.839352 1.498232 0.318783
-3.828932 1.507588 0.318176
-3.823050 1.523070 0.318052
-3.793722 1.627364 0.318001
-3.774713 1.624967 0.316472
-3.771281 1.645061 0.316632
-3.760067 1.653926 0.315947
-3.746081 1.658668 0.314958
-3.735251 1.668076 0.314312
-3.718784 1.668943 0.313046
-3.697825 1.662770 0.311281
-3.650181 1.614962 0.306554
-3.610898 1.579091 0.302731
-3.598995 1.585601 0.301936
-3.597887 1.609323 0.302346
-3.594351 1.629461 0.302490
-3.591679 1.651261 0.302735
-3.590599 1.675977 0.303164
-3.589354 1.700777 0.303581
-3.586725 1.723607 0.303847
-3.583130 1.745115 0.304009
-3.584642 1.775693 0.304759
-3.584554 1.803984 0.305334
-3.578596 1.822416 0.305242
-3.574308 1.844046 0.305346
-3.569875 1.865722 0.305438
-3.571352 1.898426 0.306222
-3.563270 1.914164 0.305901
-3.563034 1.944628 0.306499
-3.567178 1.983816 0.307621
-3.564012 2.009870 0.307894
-3.566108 2.046431 0.308796
-3.559897 2.067561 0.308723
-3.550052 2.081893 0.308222
-3.543753 2.103425 0.308147
-3.541914 2.134241 0.308611
-3.538499 2.162421 0.308894
-3.531971 2.184722 0.308809
-3.525436 2.207380 0.308728
-3.536824 2.268085 0.310837
-3.532084 2.295806 0.310995
-3.526170 2.321521 0.311016
-3.529455 2.367752 0.312180
-3.517716 2.381850 0.311498
-3.523652 2.435606 0.313016
-3.527508 2.485872 0.314296
-3.520237 2.511799 0.314197
-3.506024 2.522156 0.313230
-3.507763 2.570100 0.314283
-3.498146 2.592151 0.313909
-3.490944 2.620471 0.313849
-3.486173 2.655353 0.314110
-3.483202 2.695502 0.314615
-3.473742 2.720344 0.314293
-3.457667 2.728939 0.313117
-3.443698 2.743083 0.312215
-3.427607 2.751965 0.311036
-3.410504 2.758315 0.309723
-3.391736 2.760264 0.308186
-3.374210 2.765558 0.306811
-3.356255 2.769721 0.305375
-3.334412 2.762990 0.303412
-3.312074 2.754552 0.301373
-3.296177 2.764414 0.300204
-3.280454 2.775009 0.299061
-3.260471 2.773119 0.297329
-3.239151 2.767019 0.295406
-3.219324 2.765234 0.293684
-3.201183 2.768583 0.292194
-3.176947 2.752507 0.289837
-3.155666 2.745359 0.287888
-3.136458 2.744691 0.286229
-3.118855 2.749263 0.284798
-3.098217 2.743491 0.282923
-3.079507 2.744069 0.281324
-3.059148 2.738653 0.279477
-3.038782 2.732820 0.277622
-3.021427 2.737622 0.276212
-3.001163 2.731459 0.274360
-2.982852 2.732245 0.272798
-2.961802 2.722065 0.270810
-2.944973 2.727901 0.269468
-2.929066 2.737301 0.268269
-2.906426 2.718760 0.266005
-2.891982 2.733560 0.265034
-2.868571 2.709694 0.262617
-2.855090 2.727938 0.261799
-2.837463 2.727566 0.260302
-2.821335 2.733270 0.259048
-2.804069 2.732979 0.257597
-2.787378 2.734451 0.256235
-2.771950 2.741136 0.255081
-2.755562 2.742115 0.253753
-2.737946 2.735528 0.252195
-2.726943 2.762178 0.251802
-3.840004 -0.238743 0.268124
-3.839315 -0.230449 0.268244
-3.851193 -0.217368 0.269355
-3.854357 -0.207259 0.269798
-3.854492 -0.198107 0.270015
-3.844876 -0.192537 0.269479
-3.842230 -0.184218 0.269497
-3.841954 -0.174858 0.269708
-3.838104 -0.166798 0.269646
-3.842360 -0.155383 0.270229
-3.847627 -0.143395 0.270900
-3.861838 -0.127531 0.272285
-4.021663 -0.050158 0.285218
-4.025177 -0.037529 0.285796
-4.023862 -0.026851 0.285996
-4.022265 -0.016226 0.286177
-4.022139 -0.004886 0.286478
-4.020935 0.006043 0.286697
-4.023049 0.018536 0.287184
-4.023201 0.030214 0.287516
-4.021897 0.041275 0.287733
-4.016036 0.050223 0.287583
-4.011721 0.059894 0.287557
-4.013361 0.072449 0.288012
-4.012821 0.084001 0.288292
-4.010075 0.094497 0.288392
-4.006453 0.104564 0.288420
-4.003226 0.114830 0.288478
-4.010375 0.130438 0.289384
-4.009216 0.141848 0.289610
-4.005719 0.152053 0.289644
-4.004210 0.163315 0.289839
-4.001694 0.174056 0.289949
-3.999378 0.184916 0.290074
-3.997146 0.195835 0.290205
-3.994966 0.206798 0.290338
-3.992997 0.217895 0.290486
-3.992392 0.229790 0.290746
-3.990587 0.241029 0.290905
-3.989145 0.252505 0.291093
-3.995644 0.268686 0.291943
-3.993500 0.279854 0.292070
-3.991269 0.290992 0.292187
-3.984864 0.299617 0.291952
-3.984462 0.311901 0.292220
-3.980806 0.322215 0.292211
-3.987390 0.338964 0.293068
-3.981174 0.347742 0.292840
-3.983982 0.362281 0.293376
-3.986397 0.376664 0.293879
-3.983719 0.387815 0.293947
-3.979844 0.398205 0.293912
-3.977072 0.409349 0.293969
-3.971076 0.418354 0.293749
-3.965295 0.427496 0.293545
-3.965777 0.440938 0.293877
-3.968383 0.455937 0.294392
-3.967268 0.468442 0.294587
-3.963083 0.478839 0.294515
-3.963473 0.492531 0.294839
-3.966314 0.508081 0.295375
-3.961236 0.517987 0.295224
-3.956144 0.527898 0.295070
-3.955262 0.540956 0.295282
-3.957349 0.556322 0.295753
-3.953074 0.566994 0.295668
-3.951782 0.579982 0.295844
-3.949997 0.592670 0.295977
-3.955511 0.611124 0.296752
-3.949484 0.620680 0.296512
-3.943670 0.630422 0.296290
-3.938992 0.641095 0.296167
-3.937916 0.654725 0.296363
-3.939377 0.670523 0.296784
-3.939384 0.685260 0.297078
-3.933909 0.695547 0.296884
-3.921736 0.700237 0.296093
-3.906032 0.701857 0.294983
-3.900727 0.727290 0.295093
-3.928616 0.766793 0.297893
-3.923103 0.777450 0.297697
-3.924117 0.793954 0.298089
-3.923433 0.809088 0.298329
-3.917059 0.819192 0.298057
-3.915654 0.833874 0.298234
-3.917066 0.851277 0.298669
-3.913935 0.864616 0.298692
-3.915560 0.882522 0.299150
-3.915133 0.898660 0.299424
-3.907694 0.908225 0.299058
-3.896645 0.914322 0.298361
-3.890645 0.925306 0.298125
-3.897185 0.948699 0.299044
-3.894382 0.963082 0.299106
-3.885478 0.971455 0.298606
-3.891330 0.994783 0.299471
-3.889611 1.010649 0.299638
-3.886634 1.025358 0.299691
-3.883786 1.040322 0.299758
-3.882218 1.056757 0.299945
-3.884945 1.077904 0.300536
-3.881873 1.093079 0.300588
-3.881457 1.111255 0.300891
-3.881528 1.130146 0.301243
-3.878556 1.145883 0.301311
-3.871651 1.157379 0.301011
-3.860299 1.163937 0.300290
-3.850597 1.172333 0.299725
-3.863415 1.206506 0.301297
-3.859669 1.222028 0.301302
-3.858389 1.240561 0.301543
-3.860893 1.263741 0.302150
-3.863682 1.287539 0.302788
-3.861079 1.305158 0.302913
-3.862442 1.327754 0.303423
-3.869738 1.357876 0.304508
-3.868753 1.378184 0.304801
-3.862733 1.392435 0.304611
-3.859017 1.409693 0.304645
-3.856647 1.428826 0.304812
-3.853080 1.446625 0.304866
-3.855177 1.471937 0.305476
-3.849508 1.487410 0.305331
-3.837857 1.495109 0.304601
-3.827558 1.504591 0.304003
-3.826787 1.526921 0.304343
-3.806435 1.522880 0.302753
-3.767176 1.539769 0.300122
-3.766018 1.586467 0.300860
-3.757445 1.598723 0.300434
-3.746758 1.607972 0.299796
-3.744280 1.629317 0.299985
-3.748467 1.660832 0.300850
-3.740458 1.674492 0.300488
-3.721987 1.672386 0.299064
-3.697282 1.660508 0.297001
-3.664484 1.635690 0.294104
-3.620602 1.592858 0.290059
-3.603461 1.591229 0.288739
-3.597941 1.607956 0.288611
-3.593755 1.627018 0.288622
-3.588850 1.645141 0.288562
-3.590219 1.673814 0.289155
-3.589160 1.698885 0.289501
-3.584557 1.718362 0.289483
-3.580348 1.738759 0.289508
-3.587571 1.779060 0.290737
-3.585123 1.803275 0.290957
-3.585580 1.832942 0.291489
-3.574665 1.842923 0.290823
-3.566029 1.857041 0.290398
-3.567525 1.889664 0.291053
-3.569743 1.924165 0.291792
-3.568394 1.952661 0.292157
-3.565691 1.979092 0.292382
-3.562203 2.004468 0.292527
-3.548508 2.010710 0.291573
-3.553374 2.052873 0.292630
-3.547963 2.075715 0.292580
-3.545152 2.104073 0.292816
-3.537940 2.124111 0.292576
-3.533815 2.150718 0.292678
-3.526875 2.172023 0.292473
-3.521041 2.195972 0.292394
-3.538211 2.268642 0.294876
-3.531098 2.291308 0.294672
-3.522602 2.311399 0.294315
-3.521704 2.348374 0.294815
-3.521102 2.386764 0.295356
-3.524638 2.435193 0.296376
-3.524230 2.475786 0.296960
-3.519729 2.507903 0.297087
-3.508169 2.524354 0.296413
-3.495628 2.538790 0.295627
-3.504901 2.605312 0.297358
-3.494976 2.627229 0.296885
-3.487821 2.656362 0.296738
-3.482896 2.691665 0.296857
-3.472270 2.713520 0.296315
-3.461114 2.734510 0.295715
-3.446059 2.745928 0.294656
-3.431751 2.759506 0.293684
-3.414253 2.764914 0.292332
-3.393832 2.762523 0.290627
-3.375510 2.765678 0.289168
-3.355900 2.765271 0.287549
-3.335319 2.762028 0.285807
-3.313172 2.754133 0.283867
-3.293661 2.753529 0.282242
-3.279388 2.768211 0.281259
-3.259418 2.766258 0.279570
-3.237152 2.757188 0.277590
-3.215894 2.750842 0.275727
-3.199114 2.758212 0.274422
-3.180373 2.759484 0.272867
-3.161455 2.760122 0.271286
-3.142863 2.761738 0.269744
-3.123678 2.761301 0.268121
-3.101349 2.749978 0.266087
-3.080286 2.742495 0.264210
-3.060077 2.737584 0.262437
-3.039218 2.729955 0.260574
-3.020476 2.729593 0.258984
-3.001006 2.726247 0.257295
-2.985273 2.736754 0.256105
-2.968845 2.744652 0.254824
-2.946481 2.728937 0.252730
-2.923387 2.709220 0.250525
-2.912805 2.739951 0.250049
-2.892278 2.729475 0.248190
-2.875383 2.733615 0.246837
-2.856084 2.726693 0.245139
-2.841211 2.738654 0.244073
-2.823755 2.738445 0.242635
-2.806193 2.736827 0.241176
-2.791306 2.747009 0.240110
-2.774616 2.747713 0.238775
-2.754222 2.728626 0.236872
-2.734584 2.711270 0.235066
-2.739248 2.819774 0.237013
-3.839495 -0.238879 0.259529
-3.841151 -0.229746 0.259796
-3.857701 -0.214949 0.261164
-3.858787 -0.205595 0.261413
-3.852705 -0.198781 0.261147
-3.844664 -0.192629 0.260747
-3.845448 -0.182990 0.261003
-3.843432 -0.174308 0.261063
-3.839427 -0.166312 0.260983
-3.839101 -0.156752 0.261182
-3.848744 -0.142999 0.262126
-3.862279 -0.127418 0.263368
-4.018724 -0.051480 0.275240
-4.018038 -0.040667 0.275461
-4.021126 -0.028137 0.275969
-4.022932 -0.016046 0.276386
-4.022928 -0.004656 0.276671
-4.021175 0.006024 0.276829
-4.019587 0.016828 0.277001
-4.020832 0.028983 0.277388
-4.020253 0.040362 0.277640
-4.016828 0.050445 0.277677
-4.013858 0.060760 0.277748
-4.011552 0.071410 0.277870
-4.013922 0.084374 0.278347
-4.012623 0.095590 0.278544
-4.008370 0.105350 0.278516
-4.010549 0.118372 0.278977
-4.010829 0.130485 0.279293
-4.008844 0.141463 0.279434
-4.005818 0.151910 0.279493
-4.000805 0.161301 0.279397
-3.997660 0.171679 0.279442
-3.996983 0.183403 0.279676
-3.996214 0.195110 0.279902
-3.992670 0.205303 0.279909
-3.988473 0.215126 0.279864
-3.988426 0.227306 0.280139
-3.990710 0.240873 0.280595
-3.992847 0.254429 0.281038
-3.992627 0.266672 0.281296
-3.999479 0.283171 0.282107
-3.990501 0.290285 0.281674
-3.988435 0.301538 0.281781
-3.982994 0.310745 0.281619
-3.986315 0.325377 0.282148
-3.978976 0.333422 0.281832
-3.978250 0.345622 0.282037
-3.986418 0.363568 0.282947
-3.988002 0.377423 0.283334
-3.982929 0.387015 0.283190
-3.977261 0.396213 0.282995
-3.975564 0.408050 0.283115
-3.971776 0.418528 0.283067
-3.966969 0.428333 0.282934
-3.968574 0.442553 0.283316
-3.970940 0.457398 0.283758
-3.965455 0.466852 0.283566
-3.963959 0.479134 0.283695
-3.963912 0.492513 0.283940
-3.966171 0.507639 0.284371
-3.963200 0.519073 0.284377
-3.957375 0.528453 0.284151
-3.953983 0.539649 0.284120
-3.954359 0.553715 0.284396
-3.955362 0.568356 0.284723
-3.951790 0.579611 0.284676
-3.952072 0.593887 0.284944
-3.948953 0.605620 0.284932
-3.950496 0.621077 0.285303
-3.947649 0.633176 0.285313
-3.942061 0.643142 0.285096
-3.939317 0.655436 0.285113
-3.940337 0.670877 0.285442
-3.938204 0.683847 0.285509
-3.930128 0.691952 0.285083
-3.918784 0.697302 0.284384
-3.898528 0.695031 0.282941
-3.898371 0.709776 0.283169
-3.917550 0.741358 0.285013
-3.924197 0.762443 0.285814
-3.921262 0.775327 0.285815
-3.920499 0.790225 0.285998
-3.920656 0.806074 0.286259
-3.921445 0.822634 0.286575
-3.921412 0.838598 0.286823
-3.920127 0.853549 0.286966
-3.917171 0.867067 0.286969
-3.919304 0.885467 0.287404
-3.916660 0.899522 0.287435
-3.910053 0.909888 0.287130
-3.898832 0.915830 0.286432
-3.891576 0.925599 0.286071
-3.893865 0.944797 0.286524
-3.893565 0.961627 0.286759
-3.892337 0.977685 0.286915
-3.892303 0.995100 0.287175
-3.889337 1.009687 0.287186
-3.885924 1.023930 0.287158
-3.882020 1.037773 0.287090
-3.872946 1.046284 0.286575
-3.876982 1.068715 0.287195
-3.879553 1.089841 0.287691
-3.881452 1.110482 0.288131
-3.879471 1.127118 0.288237
-3.878437 1.144953 0.288428
-3.872460 1.157468 0.288188
-3.864416 1.167739 0.287769
-3.856271 1.177929 0.287341
-3.863600 1.205860 0.288270
-3.865099 1.227427 0.288692
-3.861304 1.243069 0.288651
-3.862625 1.264870 0.289063
-3.861116 1.283561 0.289227
-3.861567 1.304795 0.289568
-3.866997 1.332304 0.290353
-3.868653 1.355559 0.290808
-3.869317 1.377868 0.291177
-3.866151 1.395667 0.291208
-3.864347 1.415353 0.291363
-3.859306 1.431138 0.291230
-3.852669 1.445011 0.290955
-3.847865 1.461358 0.290846
-3.847462 1.483607 0.291135
-3.839109 1.495620 0.290709
-3.825746 1.501015 0.289830
-3.815560 1.510622 0.289238
-3.772745 1.594786 0.287352
-3.758483 1.598914 0.286384
-3.758425 1.623643 0.286724
-3.727382 1.603107 0.284204
-3.735574 1.640292 0.285308
-3.738915 1.670775 0.285970
-3.715962 1.661837 0.284190
-3.693277 1.652954 0.282429
-3.662517 1.631225 0.279907
-3.625477 1.599067 0.276787
-3.606050 1.593895 0.275309
-3.600770 1.611023 0.275157
-3.593478 1.625100 0.274816
-3.589741 1.645096 0.274812
-3.594544 1.679403 0.275620
-3.588282 1.695866 0.275382
-3.581954 1.712403 0.275138
-3.577974 1.733115 0.275119
-3.570972 1.748920 0.274814
-3.570717 1.776603 0.275156
-3.579669 1.820860 0.276387
-3.574100 1.840178 0.276227
-3.574780 1.870946 0.276671
-3.574301 1.900127 0.277009
-3.568069 1.919255 0.276790
-3.573849 1.960874 0.277744
-3.564908 1.975708 0.277266
-3.551742 1.982718 0.276374
-3.551971 2.015357 0.276796
-3.551005 2.046264 0.277104
-3.549366 2.076399 0.277350
-3.544767 2.101210 0.277306
-3.539207 2.124514 0.277170
-3.531322 2.143493 0.276803
-3.527315 2.170710 0.276824
-3.523447 2.198709 0.276862
-3.533011 2.255403 0.278252
-3.532107 2.291081 0.278599
-3.527118 2.318695 0.278537
-3.526662 2.356697 0.278938
-3.522635 2.387624 0.278981
-3.519419 2.420983 0.279110
-3.510518 2.442204 0.278661
-3.517928 2.501099 0.279887
-3.508909 2.523333 0.279433
-3.512906 2.576520 0.280323
-3.507200 2.607915 0.280218
-3.497766 2.631040 0.279729
-3.490689 2.660393 0.279487
-3.480387 2.682445 0.278910
-3.473409 2.713295 0.278682
-3.461218 2.731644 0.277909
-3.449612 2.751895 0.277197
-3.435110 2.765048 0.276178
-3.417544 2.770356 0.274832
-3.396468 2.766293 0.273107
-3.374911 2.760698 0.271324
-3.356933 2.764734 0.269918
-3.339035 2.769018 0.268517
-3.318954 2.767126 0.266875
-3.295842 2.756321 0.264899
-3.276250 2.755420 0.263298
-3.257343 2.756444 0.261767
-3.236576 2.751775 0.260027
-3.217279 2.751388 0.258444
-3.200768 2.759607 0.257165
-3.185236 2.771114 0.255993
-3.164303 2.765428 0.254217
-3.145716 2.767155 0.252699
-3.126896 2.768035 0.251151
-3.103780 2.754162 0.249113
-3.082590 2.746318 0.247287
-3.061991 2.740100 0.245523
-3.044937 2.746220 0.244164
-3.021618 2.729372 0.242078
-3.005656 2.739128 0.240842
-2.986992 2.738686 0.239291
-2.969842 2.743787 0.237917
-2.947498 2.728143 0.235929
-2.927827 2.722261 0.234253
-2.906178 2.707499 0.232337
-2.895830 2.739232 0.231781
-2.877822 2.738747 0.230305
-2.860534 2.740753 0.228919
-2.844360 2.747113 0.227672
-2.824844 2.737586 0.226012
-2.808179 2.740109 0.224707
-2.790835 2.738501 0.223318
-2.778059 2.758156 0.222512
-2.753246 2.717088 0.220167
-2.738448 2.724302 0.219104
-2.729031 2.758786 0.218750
-3.843409 -0.237433 0.251247
-3.843843 -0.228739 0.251395
-3.857512 -0.215001 0.252459
-3.856901 -0.206294 0.252560
-3.848113 -0.200525 0.252111
-3.844835 -0.192583 0.252049
-3.841163 -0.184684 0.251969
-3.843228 -0.174431 0.252293
-3.838562 -0.166711 0.252162
-3.835983 -0.158076 0.252183
-3.845539 -0.144385 0.253049
-3.857645 -0.129426 0.254101
-4.020539 -0.050819 0.265627
-4.020113 -0.039894 0.265843
-4.024978 -0.026594 0.266434
-4.025108 -0.015222 0.266699
-4.024046 -0.004296 0.266885
-4.021929 0.006218 0.267000
-4.020689 0.017178 0.267179
-4.018731 0.027857 0.267309
-4.020490 0.040308 0.267701
-4.015665 0.049726 0.267631
-4.012354 0.059865 0.267667
-4.011936 0.071416 0.267907
-4.011460 0.082981 0.268143
-4.013450 0.095809 0.268554
-4.014841 0.108405 0.268922
-4.011740 0.118778 0.268969
-4.006305 0.127954 0.268847
-4.007534 0.140573 0.269200
-4.005993 0.151789 0.269353
-4.001629 0.161524 0.269300
-3.997126 0.171172 0.269235
-3.997080 0.183232 0.269489
-3.995685 0.194591 0.269643
-3.992661 0.205066 0.269677
-3.988927 0.215147 0.269657
-3.989414 0.227630 0.269941
-3.992369 0.241586 0.270402
-3.993463 0.254541 0.270727
-3.994253 0.267379 0.271027
-3.990494 0.277568 0.270993
-3.989225 0.289258 0.271138
-3.986797 0.300280 0.271196
-3.989765 0.314638 0.271648
-3.982248 0.322582 0.271327
-3.977336 0.332119 0.271194
-3.977325 0.344756 0.271420
-3.981169 0.359922 0.271930
-3.984836 0.375086 0.272426
-3.978518 0.383839 0.272180
-3.973433 0.393387 0.272022
-3.974003 0.406707 0.272283
-3.971262 0.417874 0.272295
-3.970652 0.430526 0.272464
-3.973847 0.445857 0.272917
-3.965919 0.453591 0.272535
-3.967439 0.467913 0.272860
-3.966171 0.480364 0.272974
-3.969282 0.496010 0.273416
-3.967341 0.508137 0.273477
-3.964869 0.519936 0.273496
-3.957933 0.528506 0.273176
-3.954962 0.540012 0.273154
-3.954669 0.553576 0.273334
-3.953211 0.566349 0.273425
-3.954210 0.581077 0.273701
-3.951227 0.592844 0.273673
-3.942332 0.600062 0.273194
-3.948538 0.619130 0.273865
-3.948461 0.633407 0.274057
-3.941896 0.642590 0.273752
-3.938138 0.654055 0.273660
-3.936418 0.667239 0.273724
-3.937302 0.682659 0.273987
-3.930722 0.691995 0.273676
-3.916642 0.695044 0.272785
-3.907365 0.702066 0.272263
-3.927472 0.749451 0.274203
-3.921282 0.759405 0.273918
-3.923522 0.776813 0.274286
-3.922715 0.791681 0.274418
-3.922571 0.807267 0.274602
-3.920154 0.820930 0.274609
-3.920437 0.837160 0.274827
-3.916836 0.849955 0.274742
-3.914555 0.864064 0.274760
-3.914046 0.879945 0.274917
-3.915289 0.897631 0.275212
-3.910412 0.909631 0.275028
-3.900656 0.916985 0.274460
-3.892978 0.926348 0.274055
-3.899810 0.950020 0.274793
-3.898223 0.965612 0.274868
-3.889940 0.974624 0.274415
-3.894766 0.996924 0.274999
-3.890991 1.010695 0.274903
-3.887358 1.024714 0.274819
-3.882474 1.037539 0.274637
-3.879937 1.052915 0.274641
-3.876358 1.067317 0.274563
-3.878492 1.087954 0.274941
-3.879465 1.107566 0.275229
-3.879349 1.126203 0.275431
-3.879268 1.145071 0.275637
-3.874938 1.159412 0.275504
-3.870915 1.174210 0.275397
-3.869778 1.192397 0.275522
-3.869980 1.212300 0.275757
-3.865305 1.226789 0.275600
-3.863964 1.245278 0.275713
-3.859549 1.260340 0.275578
-3.857468 1.278300 0.275634
-3.859042 1.300821 0.275988
-3.866860 1.331169 0.276852
-3.867772 1.353493 0.277157
-3.864470 1.370879 0.277121
-3.864549 1.392644 0.277362
-3.863550 1.413303 0.277517
-3.860073 1.431047 0.277470
-3.852285 1.443436 0.277071
-3.848369 1.460908 0.276990
-3.849420 1.485042 0.277320
-3.843382 1.500119 0.277067
-3.831482 1.507504 0.276330
-3.824015 1.520829 0.275958
-3.784702 1.610565 0.274192
-3.778814 1.626919 0.273954
-3.757293 1.620665 0.272405
-3.721801 1.593569 0.269676
-3.732862 1.634902 0.270861
-3.731927 1.658899 0.271039
-3.727453 1.677849 0.270919
-3.701380 1.663947 0.268971
-3.671468 1.643655 0.266691
-3.611023 1.575081 0.261808
-3.607787 1.595219 0.261781
-3.603066 1.613242 0.261628
-3.595850 1.627457 0.261262
-3.591393 1.646296 0.261133
-3.591985 1.673670 0.261437
-3.588102 1.694021 0.261359
-3.583258 1.713021 0.261199
-3.578356 1.732165 0.261034
-3.572377 1.749706 0.260776
-3.572597 1.778205 0.261055
-3.583771 1.826346 0.262288
-3.574263 1.838739 0.261727
-3.578285 1.875458 0.262344
-3.576677 1.902628 0.262473
-3.575932 1.931812 0.262679
-3.570514 1.952833 0.262477
-3.559441 1.963584 0.261777
-3.559805 1.996042 0.262083
-3.555462 2.020071 0.261976
-3.554549 2.051116 0.262172
-3.548961 2.073566 0.261956
-3.543059 2.095753 0.261712
-3.538538 2.121060 0.261590
-3.538693 2.156265 0.261886
-3.533189 2.180552 0.261678
-3.530789 2.211694 0.261748
-3.529159 2.245036 0.261887
-3.526656 2.277179 0.261950
-3.532128 2.327071 0.262733
-3.529488 2.360406 0.262787
-3.526602 2.393870 0.262819
-3.519059 2.417651 0.262430
-3.519845 2.460664 0.262798
-3.511356 2.483449 0.262323
-3.523075 2.553406 0.263691
-3.507969 2.562201 0.262612
-3.508396 2.607943 0.262953
-3.500028 2.633617 0.262489
-3.490192 2.656270 0.261888
-3.483131 2.686254 0.261541
-3.472619 2.708298 0.260875
-3.461711 2.729827 0.260169
-3.449637 2.748841 0.259354
-3.436763 2.766190 0.258461
-3.417234 2.766330 0.256944
-3.394033 2.756523 0.255077
-3.375101 2.757943 0.253603
-3.358126 2.764713 0.252309
-3.341378 2.772222 0.251031
-3.321084 2.769782 0.249414
-3.298303 2.759988 0.247556
-3.276752 2.753409 0.245808
-3.257043 2.752020 0.244229
-3.240396 2.759759 0.242937
-3.222265 2.763093 0.241501
-3.205597 2.771012 0.240200
-3.182929 2.760019 0.238320
-3.163043 2.757541 0.236702
-3.143940 2.757435 0.235156
-3.125601 2.759753 0.233680
-3.102688 2.746440 0.231757
-3.084012 2.747175 0.230243
-3.067636 2.755882 0.228952
-3.047789 2.752238 0.227320
-3.030066 2.756014 0.225895
-3.012577 2.760562 0.224493
-2.993648 2.759511 0.222950
-2.969207 2.736706 0.220857
-2.953522 2.747280 0.219636
-2.930717 2.729107 0.217705
-2.913385 2.732281 0.216324
-2.894104 2.726852 0.214749
-2.878949 2.738334 0.213596
-2.866229 2.760341 0.212698
-2.846310 2.750267 0.211071
-2.830014 2.755535 0.209822
-2.808481 2.735581 0.208036
-2.789901 2.727889 0.206560
-2.774363 2.733669 0.205408
-2.762948 2.759205 0.204700
-2.742282 2.737208 0.203023
-2.724797 2.729497 0.201689
-3.855676 -0.232996 0.243466
-3.853389 -0.225246 0.243411
-3.850801 -0.217461 0.243348
-3.849860 -0.208923 0.243403
-3.845055 -0.201697 0.243222
-3.842349 -0.193565 0.243186
-3.843672 -0.183753 0.243417
-3.842532 -0.174759 0.243500
-3.837090 -0.167363 0.243317
-3.834801 -0.158630 0.243343
-3.839052 -0.147129 0.243797
-3.855917 -0.130242 0.245071
-4.023211 -0.049813 0.256057
-4.024544 -0.038133 0.256363
-4.027042 -0.025840 0.256751
-4.025132 -0.015358 0.256857
-4.023057 -0.004890 0.256957
-4.023447 0.006738 0.257219
-4.024930 0.018937 0.257556
-4.022819 0.029564 0.257660
-4.021024 0.040375 0.257786
-4.015259 0.049347 0.257652
-4.008387 0.057775 0.257444
-4.008494 0.069551 0.257694
-4.011055 0.082578 0.258106
-4.009258 0.093521 0.258229
-4.016799 0.109175 0.258970
-4.006317 0.115804 0.258516
-4.005120 0.127123 0.258675
-4.007186 0.140166 0.259049
-4.009145 0.153219 0.259415
-4.004574 0.162860 0.259343
-3.999281 0.172096 0.259220
-3.997631 0.183293 0.259337
-3.996664 0.194887 0.259498
-3.993402 0.205233 0.259502
-3.992133 0.216703 0.259637
-3.991336 0.228471 0.259801
-3.993724 0.242108 0.260178
-3.993842 0.254500 0.260399
-3.992800 0.266258 0.260539
-3.987434 0.275479 0.260383
-3.985152 0.286537 0.260433
-3.988268 0.300897 0.260847
-3.988040 0.313298 0.261032
-3.982039 0.322168 0.260820
-3.976038 0.331018 0.260604
-3.977283 0.344438 0.260882
-3.981315 0.359719 0.261348
-3.978693 0.370812 0.261356
-3.976799 0.382410 0.261411
-3.972078 0.392184 0.261269
-3.968452 0.402693 0.261200
-3.968542 0.415724 0.261384
-3.968335 0.428627 0.261546
-3.965069 0.439499 0.261494
-3.965946 0.453276 0.261727
-3.964988 0.465858 0.261831
-3.971256 0.483618 0.262436
-3.971991 0.497594 0.262654
-3.973434 0.512176 0.262921
-3.965149 0.519779 0.262507
-3.958014 0.528199 0.262171
-3.955374 0.539946 0.262147
-3.955946 0.554155 0.262345
-3.953295 0.566028 0.262317
-3.950367 0.577748 0.262267
-3.952869 0.593713 0.262598
-3.951243 0.606600 0.262637
-3.951895 0.621358 0.262835
-3.949117 0.633509 0.262791
-3.943237 0.643239 0.262526
-3.937834 0.653376 0.262293
-3.937110 0.667364 0.262389
-3.937370 0.682266 0.262555
-3.934813 0.694945 0.262520
-3.924768 0.701411 0.261952
-3.908329 0.702417 0.260928
-3.931530 0.737216 0.262721
-3.930016 0.751158 0.262756
-3.925085 0.762223 0.262548
-3.924952 0.777562 0.262681
-3.924653 0.792884 0.262802
-3.922621 0.806783 0.262798
-3.916747 0.817308 0.262519
-3.908267 0.825490 0.262053
-3.910809 0.843838 0.262375
-3.913399 0.862419 0.262702
-3.912192 0.877623 0.262756
-3.913030 0.894897 0.262957
-3.910525 0.909138 0.262917
-3.903499 0.919121 0.262551
-3.902596 0.935107 0.262627
-3.901933 0.951475 0.262720
-3.892303 0.959083 0.262165
-3.896489 0.980535 0.262609
-3.894525 0.996007 0.262608
-3.891635 1.010668 0.262540
-3.889922 1.026662 0.262558
-3.888763 1.043377 0.262616
-3.882925 1.055331 0.262334
-3.880345 1.070811 0.262290
-3.883644 1.092718 0.262674
-3.883036 1.110659 0.262774
-3.880219 1.126370 0.262714
-3.879018 1.143998 0.262772
-3.877124 1.161030 0.262780
-3.874738 1.177673 0.262752
-3.871938 1.194001 0.262695
-3.869313 1.210678 0.262650
-3.866825 1.227669 0.262617
-3.862013 1.242113 0.262412
-3.856202 1.255496 0.262134
-3.854472 1.273818 0.262158
-3.857469 1.297992 0.262531
-3.860996 1.323105 0.262946
-3.865544 1.349784 0.263437
-3.862746 1.367747 0.263385
-3.859745 1.385636 0.263319
-3.859889 1.407656 0.263488
-3.855140 1.423721 0.263293
-3.851015 1.440729 0.263145
-3.852246 1.464826 0.263397
-3.851183 1.486223 0.263478
-3.845169 1.501335 0.263191
-3.838916 1.516251 0.262885
-3.839909 1.541034 0.263123
-3.781036 1.604044 0.259677
-3.762951 1.602752 0.258474
-3.753501 1.613827 0.257922
-3.744835 1.626103 0.257429
-3.727525 1.625623 0.256279
-3.731969 1.657582 0.256780
-3.736909 1.690766 0.257320
-3.733183 1.711195 0.257201
-3.694129 1.677267 0.254387
-3.601003 1.558050 0.247436
-3.598533 1.579213 0.247401
-3.601112 1.608694 0.247753
-3.596370 1.626839 0.247544
-3.591249 1.644581 0.247306
-3.588652 1.666683 0.247261
-3.586335 1.689550 0.247238
-3.584501 1.713547 0.247251
-3.577523 1.729163 0.246868
-3.574704 1.752082 0.246804
-3.585723 1.799299 0.247811
-3.579532 1.817233 0.247487
-3.581902 1.850546 0.247826
-3.584723 1.885224 0.248200
-3.577745 1.902775 0.247813
-3.578426 1.934551 0.248020
-3.567809 1.945982 0.247347
-3.561079 1.964771 0.246974
-3.570458 2.014260 0.247859
-3.563447 2.033381 0.247462
-3.552890 2.045925 0.246786
-3.541330 2.056634 0.246028
-3.541298 2.090220 0.246172
-3.539532 2.120960 0.246180
-3.543455 2.163767 0.246634
-3.537201 2.186596 0.246286
-3.531531 2.211019 0.245981
-3.526069 2.236309 0.245691
-3.526653 2.274874 0.245876
-3.527333 2.314429 0.246068
-3.534566 2.369031 0.246779
-3.526561 2.391331 0.246279
-3.527109 2.433074 0.246455
-3.522719 2.464592 0.246237
-3.517379 2.494604 0.245941
-3.516579 2.535728 0.246003
-3.512860 2.570944 0.245830
-3.509094 2.606833 0.245650
-3.503633 2.639464 0.245332
-3.492760 2.659661 0.244576
-3.482037 2.680645 0.243828
-3.473816 2.708332 0.243277
-3.462571 2.728997 0.242478
-3.454851 2.759178 0.241958
-3.437228 2.764297 0.240638
-3.413853 2.754260 0.238848
-3.395399 2.757019 0.237449
-3.377754 2.761955 0.236109
-3.355907 2.755344 0.234425
