ply
format ascii 1.0
comment ---
element vertex 1594
property float x
property float y
property float z
element face 0
property list uchar uint vertex_indices
end_header
-4.271576 -3.465132 -0.279243
-4.272856 -3.452038 -0.276947
-4.272512 -3.438787 -0.274577
-4.273415 -3.425802 -0.272359
-4.268185 -3.412094 -0.269744
-4.267622 -3.399133 -0.267548
-4.266931 -3.386271 -0.265414
-4.263367 -3.373186 -0.263146
-4.253517 -3.359528 -0.260510
-4.252041 -3.347008 -0.258564
-4.253317 -3.334924 -0.256899
-4.255914 -3.323098 -0.255412
-4.263184 -3.311850 -0.254337
-4.277106 -3.301310 -0.253805
-4.273714 -3.289247 -0.252168
-4.261640 -3.276616 -0.250041
-4.254178 -3.264612 -0.248331
-4.249837 -3.253068 -0.246935
-4.253422 -3.242304 -0.246168
-4.263905 -3.232159 -0.245956
-4.268189 -3.221682 -0.245422
-4.253710 -3.210150 -0.243744
-4.243451 -3.199137 -0.242444
-4.223766 -3.187830 -0.240623
-4.250778 -3.179275 -0.241955
-4.260451 -3.169840 -0.242236
-4.242561 -3.159242 -0.240803
-3.094564 -5.966204 -0.492061
-3.099298 -5.951594 -0.489776
-3.108731 -5.944640 -0.488731
-3.124440 -5.947785 -0.489292
-3.147034 -5.961795 -0.491578
-3.164981 -5.967463 -0.492726
-3.175187 -5.959944 -0.492014
-3.183164 -5.948460 -0.490816
-3.201886 -5.953881 -0.492260
-3.216784 -5.952652 -0.492822
-3.230336 -5.948838 -0.493110
-3.236445 -5.932995 -0.491698
-3.250830 -5.929750 -0.492294
-3.271704 -5.936035 -0.494448
-3.303798 -5.958788 -0.499225
-3.322023 -5.959796 -0.500823
-3.334576 -5.951870 -0.501167
-3.346910 -5.943321 -0.501519
-3.350391 -5.921530 -0.499926
-3.357359 -5.904784 -0.499192
-3.364148 -5.887682 -0.498481
-3.397398 -5.908182 -0.503718
-3.437867 -5.938098 -0.510557
-3.449313 -5.926530 -0.510987
-3.460350 -5.914255 -0.511372
-3.476445 -5.908797 -0.512904
-3.517976 -5.937633 -0.519999
-3.527186 -5.922141 -0.520072
-3.543754 -5.916429 -0.521769
-3.554736 -5.903154 -0.522285
-3.594324 -5.927204 -0.528951
-3.609466 -5.918888 -0.530380
-3.622054 -5.907187 -0.531278
-3.634663 -5.895472 -0.532195
-3.669056 -5.911094 -0.537718
-3.692259 -5.912242 -0.540863
-3.707154 -5.902885 -0.542258
-3.734508 -5.908677 -0.546252
-3.754106 -5.904747 -0.548611
-3.760126 -5.884407 -0.548144
-3.785916 -5.887674 -0.551765
-3.810375 -5.889096 -0.555088
-3.829273 -5.883805 -0.557244
-3.821525 -5.847694 -0.553933
-3.892431 -5.874559 -0.564903
-4.233096 -5.807611 -0.601883
-4.270756 -5.818044 -0.607026
-4.289102 -5.809621 -0.608432
-4.309697 -5.803246 -0.610232
-4.328565 -5.795136 -0.611670
-4.370254 -5.808115 -0.617369
-4.393924 -5.804046 -0.619624
-4.416653 -5.798951 -0.621664
-4.442622 -5.796626 -0.624266
-4.474591 -5.799458 -0.627936
-4.498364 -5.794724 -0.630043
-4.522599 -5.790228 -0.632193
-4.562086 -5.798812 -0.637094
-4.578672 -5.787253 -0.637757
-4.598774 -5.778644 -0.639029
-4.616707 -5.768092 -0.639874
-4.628716 -5.752508 -0.639622
-4.619375 -5.719234 -0.635519
-4.636399 -5.707970 -0.636135
-4.635439 -5.682006 -0.633523
-4.625031 -5.648635 -0.629236
-4.615894 -5.616629 -0.625186
-4.617247 -5.593246 -0.622988
-4.585795 -5.544322 -0.615050
-4.583587 -5.518743 -0.612248
-4.600070 -5.507740 -0.612686
-4.618058 -5.497812 -0.613355
-4.610352 -5.468416 -0.609582
-4.586651 -5.427352 -0.603083
-4.579627 -5.399128 -0.599457
-4.571811 -5.370584 -0.595707
-4.567346 -5.344738 -0.592532
-4.569140 -5.323607 -0.590415
-4.567470 -5.300137 -0.587713
-4.572713 -5.281709 -0.586165
-4.567285 -5.255908 -0.582839
-4.565960 -5.233162 -0.580198
-4.586106 -5.225262 -0.581083
-4.618727 -5.225679 -0.583976
-4.672961 -5.196457 -0.585322
-4.742096 -5.197699 -0.591345
-4.770925 -5.043142 -0.575268
-4.777108 -5.025684 -0.573624
-4.776129 -5.004107 -0.570881
-4.785560 -4.988638 -0.569713
-4.794630 -4.972964 -0.568475
-4.786378 -4.947546 -0.564627
-4.780293 -4.923545 -0.561114
-4.782124 -4.904083 -0.558781
-4.779310 -4.882178 -0.555758
-4.776693 -4.860517 -0.552767
-4.780549 -4.842438 -0.550722
-4.788610 -4.826631 -0.549279
-4.795769 -4.810360 -0.547690
-4.793125 -4.789056 -0.544679
-4.753064 -4.748823 -0.536324
-4.752137 -4.728855 -0.533588
-4.761507 -4.714115 -0.532304
-4.762577 -4.695277 -0.529835
-4.761686 -4.675563 -0.527086
-4.762659 -4.656844 -0.524593
-4.753945 -4.633601 -0.520755
-4.751829 -4.613638 -0.517831
-4.762272 -4.599609 -0.516622
-4.770987 -4.584755 -0.515155
-4.741027 -4.552375 -0.508444
-4.714377 -4.521888 -0.502218
-4.741011 -4.515308 -0.503141
-4.780734 -4.514225 -0.505751
-4.738759 -4.477585 -0.497513
-4.721262 -4.451889 -0.492543
-4.725753 -4.435689 -0.490459
-4.724063 -4.416948 -0.487557
-4.705123 -4.391235 -0.482429
-4.703010 -4.372588 -0.479474
-4.718469 -4.361033 -0.478746
-4.710002 -4.339969 -0.474961
-4.707401 -4.321333 -0.471914
-4.700607 -4.301181 -0.468339
-4.682624 -4.276937 -0.463377
-4.676096 -4.257203 -0.459842
-4.671707 -4.238379 -0.456566
-4.646091 -4.211974 -0.450710
-4.657333 -4.199034 -0.449326
-4.661029 -4.183377 -0.447006
-4.667667 -4.168751 -0.445016
-4.668138 -4.152003 -0.442273
-4.665527 -4.134261 -0.439155
-4.660014 -4.115632 -0.435688
-4.658195 -4.098308 -0.432643
-4.650167 -4.079053 -0.428875
-4.649427 -4.062225 -0.425934
-4.646197 -4.044671 -0.422698
-4.649814 -4.029281 -0.420218
-4.651878 -4.013428 -0.417544
-4.643217 -3.994420 -0.413670
-4.586719 -3.961635 -0.404570
-4.526282 -3.928325 -0.395130
-4.354216 -3.864327 -0.373792
-4.347011 -3.847515 -0.370313
-4.342006 -3.831399 -0.367067
-4.346854 -3.817982 -0.364847
-4.360123 -3.806740 -0.363480
-4.357367 -3.791296 -0.360428
-4.349492 -3.774624 -0.356848
-4.344275 -3.758710 -0.353541
-4.340663 -3.743262 -0.350394
-4.335594 -3.727534 -0.347101
-4.323304 -3.710214 -0.343101
-4.308235 -3.692413 -0.338848
-4.309104 -3.678319 -0.336153
-4.310932 -3.664455 -0.333545
-4.315233 -3.651128 -0.331166
-4.321847 -3.638272 -0.328995
-4.314327 -3.622529 -0.325508
-4.293065 -3.604182 -0.320784
-4.284032 -3.588434 -0.317216
-4.301823 -3.577851 -0.316080
-4.300885 -3.563714 -0.313264
-4.286462 -3.547230 -0.309283
-4.284254 -3.533052 -0.306412
-4.283798 -3.519246 -0.303719
-4.281091 -3.505135 -0.300866
-4.276137 -3.490753 -0.297860
-4.275785 -3.477197 -0.295284
-4.274917 -3.463640 -0.292706
-4.280183 -3.451062 -0.290677
-4.280733 -3.437855 -0.288308
-4.274781 -3.423844 -0.285474
-4.267704 -3.409835 -0.282619
-4.269482 -3.397118 -0.280533
-4.266808 -3.383943 -0.278167
-4.265280 -3.371041 -0.275965
-4.259406 -3.357773 -0.273510
-4.263343 -3.345757 -0.271884
-4.262576 -3.333340 -0.269984
-4.265043 -3.321391 -0.268410
-4.264959 -3.309312 -0.266736
-4.269727 -3.297828 -0.265508
-4.262920 -3.285422 -0.263528
-4.265107 -3.273987 -0.262299
-4.257283 -3.261877 -0.260446
-4.246939 -3.249790 -0.258518
-4.246442 -3.238663 -0.257393
-4.260716 -3.228728 -0.257408
-4.266159 -3.218266 -0.256891
-4.262170 -3.207342 -0.255807
-4.231269 -3.195038 -0.252944
-4.238256 -3.185198 -0.252822
-4.258202 -3.176135 -0.253689
-4.259368 -3.166196 -0.253340
-3.099838 -5.980947 -0.507785
-3.101610 -5.961029 -0.504729
-3.106750 -5.946609 -0.502617
-3.120719 -5.946691 -0.502838
-3.143742 -5.961291 -0.505400
-3.162210 -5.967672 -0.506808
-3.173792 -5.962223 -0.506503
-3.184541 -5.955021 -0.506037
-3.197585 -5.951125 -0.506194
-3.214198 -5.952475 -0.507279
-3.226370 -5.946314 -0.507313
-3.236131 -5.936007 -0.506814
-3.251238 -5.933679 -0.507670
-3.270038 -5.936584 -0.509461
-3.292031 -5.943827 -0.512051
-3.309889 -5.944249 -0.513688
-3.323526 -5.937911 -0.514367
-3.335116 -5.928220 -0.514616
-3.354475 -5.929664 -0.516737
-3.364547 -5.917181 -0.516731
-3.379926 -5.912160 -0.518009
-3.413807 -5.933198 -0.523592
-3.429960 -5.928443 -0.525106
-3.448873 -5.927266 -0.527285
-3.463143 -5.919328 -0.528436
-3.483242 -5.919188 -0.530940
-3.496672 -5.909667 -0.531959
-3.528181 -5.924319 -0.537065
-3.539825 -5.911924 -0.537723
-3.580695 -5.938019 -0.544914
-3.571369 -5.897755 -0.540943
-3.606996 -5.916140 -0.546960
-3.619271 -5.903985 -0.547813
-3.641999 -5.905067 -0.550970
-3.673156 -5.916467 -0.555961
-3.698660 -5.920365 -0.559699
-3.710233 -5.906778 -0.560397
-3.717990 -5.888560 -0.560273
-3.745629 -5.894496 -0.564437
-3.762460 -5.887155 -0.566255
-3.787693 -5.889693 -0.569858
-3.814246 -5.893517 -0.573716
-3.823944 -5.877447 -0.573963
-3.833769 -5.861612 -0.574231
-4.204843 -5.805483 -0.617299
-4.259943 -5.833200 -0.626114
-4.283187 -5.829488 -0.628545
-4.304968 -5.824219 -0.630648
-4.320745 -5.813136 -0.631536
-4.341146 -5.806351 -0.633299
-4.361188 -5.799119 -0.634956
-4.390114 -5.799944 -0.638301
-4.404628 -5.787386 -0.638813
-4.438096 -5.791912 -0.642945
-4.471538 -5.796080 -0.647017
-4.492396 -5.788774 -0.648632
-4.514111 -5.782100 -0.650374
-4.533381 -5.773165 -0.651616
-4.591242 -5.797356 -0.660099
-4.610354 -5.787784 -0.661215
-4.627388 -5.776364 -0.661910
-4.632498 -5.754904 -0.660354
-4.621099 -5.719884 -0.655727
-4.622678 -5.695903 -0.653510
-4.628044 -5.675178 -0.651986
-4.625192 -5.647942 -0.648945
-4.629536 -5.626685 -0.647219
-4.622229 -5.596335 -0.643369
-4.612048 -5.564030 -0.639009
-4.584479 -5.518566 -0.631532
-4.601419 -5.507887 -0.632075
-4.613423 -5.493376 -0.631710
-4.609526 -5.466871 -0.628499
-4.599610 -5.436097 -0.624228
-4.592446 -5.407664 -0.620457
-4.558395 -5.359803 -0.611982
-4.552039 -5.332666 -0.608394
-4.563852 -5.318822 -0.607974
-4.574150 -5.303885 -0.607272
-4.572071 -5.280237 -0.604423
-4.569797 -5.256627 -0.601543
-4.567130 -5.232921 -0.598600
-4.581435 -5.220997 -0.598544
-4.618752 -5.224598 -0.602359
-4.773423 -5.043262 -0.594138
-4.794527 -5.034523 -0.594833
-4.784696 -5.007685 -0.590625
-4.783325 -4.985941 -0.587757
-4.776655 -4.961318 -0.584065
-4.780595 -4.942852 -0.582028
-4.776499 -4.919980 -0.578744
-4.775189 -4.898798 -0.575893
-4.773349 -4.877451 -0.572962
-4.780555 -4.861099 -0.571407
-4.786448 -4.844066 -0.569642
-4.788249 -4.824914 -0.567249
-4.794108 -4.807952 -0.565458
-4.777037 -4.779221 -0.560243
-4.759868 -4.750736 -0.555037
-4.760618 -4.731560 -0.552495
-4.762920 -4.713241 -0.550176
-4.763705 -4.694242 -0.547629
-4.768370 -4.677211 -0.545640
-4.753676 -4.650919 -0.540848
-4.759958 -4.634836 -0.539083
-4.745255 -4.608928 -0.534310
-4.755146 -4.594665 -0.533044
-4.752380 -4.574581 -0.529972
-4.760556 -4.559558 -0.528433
-4.756925 -4.539249 -0.525228
-4.745695 -4.515707 -0.520970
-4.757275 -4.502306 -0.519866
-4.757320 -4.483890 -0.517157
-4.751553 -4.463078 -0.513648
-4.747386 -4.443073 -0.510357
-4.725041 -4.415656 -0.504618
-4.709693 -4.391409 -0.499843
-4.710423 -4.373879 -0.497222
-4.708207 -4.355235 -0.494200
-4.762649 -4.358932 -0.498612
-4.713563 -4.322003 -0.489415
-4.703194 -4.300450 -0.485309
-4.686897 -4.276833 -0.480445
-4.673780 -4.254626 -0.476003
-4.674189 -4.237570 -0.473292
-4.693441 -4.227375 -0.472949
-4.656796 -4.197125 -0.465546
-4.658889 -4.180904 -0.463021
-4.663330 -4.165523 -0.460769
-4.661808 -4.148114 -0.457764
-4.664870 -4.132308 -0.455306
-4.656640 -4.112784 -0.451461
-4.654522 -4.095379 -0.448351
-4.649189 -4.077009 -0.444846
-4.645013 -4.059100 -0.441472
-4.647805 -4.043436 -0.438911
-4.653593 -4.028697 -0.436679
-4.658821 -4.013771 -0.434357
-4.401079 -3.890953 -0.396290
-4.352586 -3.862279 -0.388085
-4.346210 -3.845705 -0.384645
-4.344387 -3.830453 -0.381706
-4.355834 -3.818768 -0.380211
-4.360270 -3.805172 -0.377920
-4.359030 -3.790112 -0.374996
-4.348176 -3.772685 -0.371038
-4.340828 -3.756252 -0.367459
-4.345086 -3.742710 -0.365101
-4.341057 -3.727201 -0.361864
-4.325627 -3.709128 -0.357453
-4.303600 -3.689744 -0.352391
-4.306853 -3.676190 -0.349920
-4.320537 -3.664886 -0.348482
-4.317433 -3.649933 -0.345351
-4.311934 -3.634548 -0.341991
-4.295690 -3.617082 -0.337599
-4.281981 -3.600307 -0.333486
-4.274216 -3.584841 -0.329971
-4.265540 -3.569318 -0.326395
-4.276397 -3.557482 -0.324672
-4.260105 -3.540766 -0.320433
-4.262004 -3.527397 -0.317909
-4.272829 -3.515562 -0.316211
-4.266150 -3.500821 -0.312951
-4.270568 -3.487963 -0.310718
-4.272740 -3.474784 -0.308313
-4.275389 -3.461725 -0.305985
-4.277173 -3.448592 -0.303621
-4.280013 -3.435671 -0.301391
-4.280218 -3.422453 -0.298986
-4.275354 -3.408660 -0.296214
-4.272416 -3.395255 -0.293671
-4.266395 -3.381601 -0.290945
-4.269437 -3.369180 -0.289035
-4.267163 -3.356244 -0.286766
-4.271717 -3.344193 -0.285124
-4.271061 -3.331686 -0.283145
-4.267608 -3.319034 -0.281032
-4.269723 -3.307087 -0.279445
-4.264870 -3.294621 -0.277407
-4.256116 -3.281999 -0.275168
-4.256487 -3.270365 -0.273729
-4.260568 -3.259179 -0.272667
-4.243988 -3.246544 -0.270140
-4.246027 -3.235543 -0.269121
-4.256218 -3.225244 -0.268807
-4.270887 -3.215320 -0.268916
-4.255545 -3.203623 -0.266892
-4.255485 -3.193079 -0.266099
-4.246110 -3.182202 -0.264718
-4.250778 -3.172259 -0.264463
-4.240308 -3.161742 -0.263191
-4.142346 -3.147684 -0.255629
-3.106112 -5.997384 -0.523990
-3.105125 -5.972464 -0.520163
-3.111423 -5.959740 -0.518369
-3.138663 -5.957737 -0.518813
-3.151572 -5.954844 -0.518898
-3.166495 -5.954787 -0.519546
-3.180573 -5.952864 -0.520011
-3.193299 -5.948302 -0.520169
-3.202355 -5.937480 -0.519440
-3.218484 -5.937516 -0.520562
-3.236697 -5.940321 -0.522248
-3.251986 -5.938065 -0.523236
-3.270796 -5.940781 -0.525145
-3.284009 -5.934460 -0.525704
-3.298357 -5.929509 -0.526594
-3.310898 -5.921501 -0.527089
-3.335762 -5.931445 -0.530632
-3.353445 -5.930248 -0.532457
-3.370694 -5.928028 -0.534213
-3.389905 -5.928269 -0.536475
-3.408132 -5.926715 -0.538532
-3.428429 -5.927736 -0.541110
-3.442535 -5.919715 -0.542248
-3.464756 -5.922733 -0.545328
-3.481985 -5.918512 -0.547254
-3.500931 -5.916374 -0.549601
-3.517172 -5.910326 -0.551336
-3.541090 -5.914318 -0.554865
-3.556309 -5.906466 -0.556390
-3.574949 -5.902951 -0.558713
-3.578416 -5.879601 -0.557572
-3.623912 -5.910294 -0.566032
-3.646452 -5.911008 -0.569236
-3.670341 -5.913155 -0.572735
-3.698081 -5.919811 -0.577088
-3.709961 -5.906554 -0.577857
-3.713639 -5.883308 -0.576793
-3.731113 -5.876963 -0.578815
-3.763792 -5.888721 -0.584200
-3.793711 -5.896763 -0.588935
-3.813719 -5.892796 -0.591449
-3.822576 -5.875720 -0.591492
-3.835474 -5.863414 -0.592413
-3.846126 -5.848568 -0.592831
-4.078220 -5.730940 -0.614261
-4.244423 -5.843853 -0.644257
-4.258625 -5.831434 -0.644931
-4.286579 -5.832258 -0.648387
-4.309112 -5.827661 -0.650692
-4.333233 -5.824415 -0.653281
-4.344605 -5.809052 -0.653254
-4.360618 -5.798037 -0.654139
-4.374329 -5.784870 -0.654534
-4.426933 -5.807109 -0.662664
-4.434876 -5.788406 -0.661832
-4.469778 -5.793888 -0.666320
-4.497297 -5.792477 -0.669294
-4.509427 -5.777339 -0.669200
-4.540551 -5.778724 -0.672799
-4.576901 -5.784318 -0.677363
-4.621265 -5.796374 -0.683421
-4.639240 -5.785645 -0.684309
-4.617676 -5.741757 -0.677560
-4.616311 -5.715158 -0.674713
-4.620177 -5.693077 -0.672864
-4.619547 -5.667480 -0.670154
-4.622844 -5.645248 -0.668186
-4.628096 -5.624717 -0.666581
-4.631976 -5.603209 -0.664708
-4.614827 -5.565362 -0.658902
-4.604604 -5.533321 -0.654409
-4.602268 -5.507667 -0.651393
-4.605175 -5.486208 -0.649348
-4.606648 -5.463796 -0.647034
-4.605048 -5.439236 -0.644157
-4.599334 -5.411821 -0.640533
-4.562636 -5.339395 -0.628757
-4.571158 -5.323093 -0.627738
-4.576705 -5.304708 -0.626175
-4.577277 -5.282892 -0.623719
-4.572135 -5.257233 -0.620250
-4.570979 -5.234538 -0.617493
-4.577043 -5.216933 -0.616007
-4.594746 -5.207263 -0.616546
-4.665993 -5.233364 -0.626374
-4.716061 -5.244602 -0.632422
-4.737632 -5.236599 -0.633478
-4.762461 -5.056590 -0.613515
-4.791149 -5.052402 -0.615544
-4.799572 -5.036094 -0.614211
-4.783199 -5.005417 -0.608827
-4.779496 -4.982330 -0.605523
-4.783647 -4.963861 -0.603492
-4.783539 -4.943062 -0.600771
-4.779886 -4.920405 -0.597483
-4.762099 -4.890132 -0.591955
-4.765256 -4.871566 -0.589767
-4.768687 -4.853215 -0.587616
-4.768231 -4.832860 -0.584850
-4.787911 -4.823202 -0.585220
-4.788112 -4.803284 -0.582539
-4.778265 -4.778296 -0.578307
-4.772305 -4.755498 -0.574685
-4.747191 -4.723238 -0.568149
-4.751485 -4.705972 -0.566113
-4.776946 -4.699145 -0.567262
-4.777102 -4.679836 -0.564569
-4.771208 -4.657712 -0.560968
-4.725613 -4.616921 -0.551476
-4.733552 -4.601810 -0.549962
-4.734014 -4.583233 -0.547333
-4.752431 -4.572945 -0.547321
-4.754881 -4.555321 -0.544955
-4.757215 -4.537699 -0.542563
-4.746534 -4.514394 -0.538291
-4.723564 -4.485934 -0.532274
-4.727917 -4.469545 -0.530170
-4.743623 -4.458001 -0.529656
-4.743172 -4.439590 -0.526840
-4.711383 -4.408294 -0.519641
-4.708443 -4.389186 -0.516491
-4.710786 -4.372306 -0.514066
-4.704897 -4.352195 -0.510499
-4.710990 -4.336912 -0.508566
-4.716432 -4.321374 -0.506525
-4.704597 -4.299248 -0.502139
-4.689866 -4.276216 -0.497374
-4.678468 -4.254634 -0.493066
-4.677794 -4.237153 -0.490184
-4.685345 -4.222703 -0.488371
-4.681368 -4.204128 -0.485029
-4.663987 -4.180950 -0.479945
-4.663023 -4.163671 -0.476991
-4.668853 -4.148763 -0.474894
-4.658707 -4.128490 -0.470744
-4.655327 -4.110601 -0.467452
-4.650966 -4.092472 -0.464029
-4.641153 -4.072688 -0.459921
-4.636348 -4.054622 -0.456434
-4.638087 -4.038671 -0.453744
-4.645270 -4.024402 -0.451697
-4.655867 -4.011120 -0.450035
-4.433628 -3.898582 -0.414849
-4.368412 -3.865094 -0.404400
-4.355535 -3.846657 -0.400140
-4.353618 -3.831332 -0.397153
-4.352612 -3.816296 -0.394260
-4.356992 -3.802696 -0.391967
-4.354022 -3.787209 -0.388826
-4.349546 -3.771401 -0.385511
-4.337283 -3.753757 -0.381331
-4.341345 -3.740178 -0.378953
-4.332876 -3.723640 -0.375195
-4.329618 -3.708409 -0.372006
-4.327957 -3.693598 -0.368985
-4.341522 -3.682187 -0.367572
-4.324807 -3.664144 -0.362953
-4.321946 -3.649212 -0.359802
-4.329854 -3.622262 -0.354902
-4.238997 -3.576391 -0.340106
-4.232226 -3.547699 -0.333935
-4.245452 -3.536404 -0.332491
-4.239588 -3.521739 -0.329202
-4.243719 -3.508854 -0.326896
-4.234579 -3.493821 -0.323354
-4.236706 -3.480712 -0.320908
-4.262514 -3.471279 -0.320679
-4.259332 -3.457359 -0.317786
-4.256053 -3.443526 -0.314929
-4.264281 -3.431406 -0.313156
-4.275741 -3.419729 -0.311706
-4.273928 -3.406308 -0.309121
-4.271846 -3.392964 -0.306574
-4.264853 -3.379143 -0.303669
-4.267404 -3.366609 -0.301661
-4.269269 -3.354087 -0.299662
-4.273268 -3.341901 -0.297916
-4.268375 -3.328880 -0.295502
-4.270828 -3.316765 -0.293787
-4.266312 -3.304100 -0.291582
-4.266838 -3.292074 -0.289883
-4.250920 -3.278758 -0.286943
-4.245870 -3.266623 -0.284990
-4.246266 -3.255113 -0.283572
-4.251143 -3.244092 -0.282608
-4.251446 -3.232867 -0.281374
-4.257770 -3.222206 -0.280712
-4.262120 -3.211535 -0.279989
-4.259265 -3.200567 -0.278798
-4.251998 -3.189539 -0.277364
-4.245447 -3.178768 -0.276085
-4.239670 -3.168248 -0.274963
-4.221197 -3.157359 -0.272959
-4.193895 -3.146392 -0.270373
-3.102780 -5.973877 -0.534146
-3.115978 -5.972637 -0.534283
-3.132894 -5.977149 -0.535467
-3.140498 -5.965592 -0.534135
-3.147789 -5.953201 -0.532774
-3.159387 -5.947558 -0.532629
-3.179457 -5.955244 -0.534787
-3.189791 -5.946643 -0.534385
-3.200992 -5.939071 -0.534265
-3.216557 -5.938032 -0.535339
-3.238020 -5.945756 -0.537986
-3.253659 -5.943820 -0.539149
-3.269234 -5.941344 -0.540339
-3.285586 -5.939630 -0.541768
-3.295330 -5.927513 -0.541560
-3.312022 -5.925564 -0.543164
-3.335713 -5.933585 -0.546565
-3.356507 -5.936779 -0.549262
-3.371061 -5.930432 -0.550431
-3.389402 -5.929255 -0.552577
-3.412647 -5.934711 -0.555961
-3.420332 -5.917711 -0.555543
-3.445397 -5.924991 -0.559418
-3.465734 -5.925233 -0.562150
-3.483713 -5.921901 -0.564326
-3.497777 -5.912993 -0.565576
-3.514072 -5.906951 -0.567384
-3.532018 -5.902927 -0.569601
-3.558105 -5.909437 -0.573766
-3.574686 -5.903124 -0.575667
-3.595554 -5.902213 -0.578587
-3.618602 -5.903853 -0.582015
-3.645959 -5.910680 -0.586443
-3.672491 -5.916093 -0.590658
-3.693448 -5.914225 -0.593553
-3.706294 -5.902159 -0.594553
-3.714168 -5.884032 -0.594401
-3.732783 -5.879015 -0.596726
-3.764973 -5.890128 -0.602150
-3.789209 -5.891381 -0.605715
-3.810748 -5.889232 -0.608637
-3.820803 -5.873550 -0.608926
-3.827693 -5.854316 -0.608492
-3.864505 -5.869381 -0.614795
-4.018392 -5.904665 -0.638800
-4.186952 -5.787039 -0.651132
-4.266814 -5.838944 -0.665749
-4.279558 -5.825034 -0.666085
-4.309806 -5.827844 -0.670074
-4.327126 -5.818150 -0.671306
-4.343302 -5.807324 -0.672269
-4.357841 -5.794940 -0.672864
-4.396873 -5.805047 -0.678495
-4.392367 -5.775088 -0.675096
-4.430591 -5.783971 -0.680465
-4.474888 -5.797862 -0.687010
-4.501645 -5.795717 -0.689912
-4.515595 -5.782123 -0.690174
-4.540132 -5.777715 -0.692547
-4.568446 -5.776377 -0.695637
-4.599856 -5.777435 -0.699300
-4.623078 -5.771288 -0.701277
-4.622629 -5.745182 -0.698516
-4.618642 -5.716357 -0.695056
-4.622426 -5.694175 -0.693131
-4.610089 -5.659024 -0.688039
-4.607924 -5.632450 -0.684953
-4.616058 -5.614315 -0.683873
-4.628405 -5.599572 -0.683595
-4.626395 -5.573589 -0.680530
-4.606241 -5.533749 -0.673985
-4.608975 -5.511961 -0.671849
-4.600871 -5.482061 -0.667647
-4.597491 -5.456007 -0.664354
-4.601534 -5.435707 -0.662468
-4.599324 -5.410890 -0.659402
-4.601316 -5.366478 -0.654478
-4.574165 -5.324286 -0.646798
-4.573737 -5.301615 -0.644096
-4.565325 -5.273481 -0.639930
-4.568051 -5.253370 -0.637816
-4.569450 -5.232449 -0.635458
-4.579316 -5.217433 -0.634634
-4.609053 -5.215864 -0.637382
-4.708089 -5.238165 -0.649813
-4.783442 -5.046467 -0.632827
-4.779565 -5.022982 -0.629412
-4.781832 -5.003224 -0.627039
-4.785010 -4.984076 -0.624817
-4.783133 -4.962136 -0.621747
-4.781199 -4.940299 -0.618672
-4.786127 -4.922407 -0.616734
-4.776574 -4.896611 -0.612409
-4.763046 -4.868878 -0.607451
-4.758675 -4.846333 -0.604004
-4.758273 -4.826052 -0.601206
-4.778862 -4.816906 -0.601787
-4.788824 -4.802099 -0.600633
-4.786228 -4.780823 -0.597460
-4.776649 -4.756129 -0.593182
-4.759473 -4.727829 -0.587721
-4.753465 -4.705365 -0.584038
-4.759774 -4.689105 -0.582286
-4.780200 -4.679710 -0.582715
-4.766645 -4.653889 -0.577857
-4.759573 -4.631380 -0.574014
-4.726632 -4.596931 -0.566225
-4.748702 -4.588373 -0.566851
-4.731395 -4.561664 -0.561482
-4.754079 -4.553276 -0.562153
-4.765648 -4.539764 -0.561119
-4.741259 -4.510374 -0.554710
-4.729258 -4.486714 -0.550168
-4.691384 -4.452155 -0.541833
-4.702216 -4.438727 -0.540682
-4.714680 -4.425936 -0.539744
-4.717103 -4.408936 -0.537326
-4.717947 -4.391334 -0.534669
-4.703120 -4.367486 -0.529762
-4.722039 -4.357262 -0.529669
-4.708252 -4.334091 -0.524913
-4.711598 -4.317750 -0.522578
-4.708944 -4.299148 -0.519390
-4.691883 -4.275219 -0.514197
-4.682684 -4.254444 -0.510107
-4.685959 -4.238380 -0.507732
-4.683550 -4.220290 -0.504566
-4.680274 -4.201972 -0.501275
-4.673361 -4.182468 -0.497488
-4.679770 -4.167680 -0.495482
-4.659659 -4.143869 -0.489931
-4.661525 -4.127664 -0.487300
-4.657917 -4.109683 -0.483935
-4.656448 -4.092479 -0.480842
-4.645318 -4.072249 -0.476488
-4.634326 -4.052219 -0.472158
-4.633950 -4.035622 -0.469185
-4.643317 -4.022031 -0.467432
-4.647666 -4.006884 -0.465017
-4.633948 -3.986419 -0.460324
-4.462035 -3.904979 -0.433209
-4.370461 -3.864029 -0.419182
-4.360062 -3.846266 -0.415138
-4.358595 -3.831038 -0.412172
-4.347266 -3.813249 -0.408021
-4.345003 -3.797949 -0.404948
-4.352251 -3.785116 -0.402983
-4.354561 -3.771007 -0.400417
-4.351840 -3.755672 -0.397254
-4.250106 -3.440673 -0.327521
-4.252224 -3.427683 -0.325159
-4.259386 -3.415431 -0.323311
-4.264968 -3.402994 -0.321356
-4.268220 -3.390306 -0.319233
-4.264916 -3.376897 -0.316569
-4.265610 -3.364087 -0.314336
-4.262948 -3.351006 -0.311872
-4.269806 -3.339088 -0.310329
-4.272636 -3.326819 -0.308500
-4.267566 -3.313873 -0.306060
-4.273703 -3.302166 -0.304682
-4.273147 -3.289941 -0.302809
-4.258245 -3.276631 -0.299803
-4.241168 -3.263415 -0.296724
-4.246430 -3.252232 -0.295639
-4.258431 -3.241663 -0.295210
-4.258231 -3.230302 -0.293851
-4.258343 -3.219127 -0.292615
-4.255507 -3.207932 -0.291236
-4.245491 -3.196504 -0.289367
-4.241772 -3.185663 -0.288117
-4.232204 -3.174717 -0.286489
-4.235184 -3.164606 -0.285981
-4.226174 -3.154111 -0.284594
-4.227013 -3.144246 -0.284098
-3.087363 -5.976344 -0.548047
-3.098215 -5.971426 -0.547570
-3.112197 -5.971383 -0.548018
-3.128565 -5.974837 -0.549164
-3.138578 -5.967137 -0.548546
-3.142794 -5.949473 -0.546358
-3.154371 -5.943655 -0.546278
-3.172711 -5.948412 -0.548102
-3.187788 -5.947324 -0.549056
-3.200502 -5.941984 -0.549406
-3.217430 -5.942903 -0.550938
-3.240789 -5.953395 -0.554229
-3.252825 -5.945623 -0.554515
-3.267844 -5.942107 -0.555643
-3.284904 -5.941298 -0.557350
-3.302219 -5.940432 -0.559160
-3.312768 -5.929008 -0.559240
-3.331517 -5.929522 -0.561500
-3.347923 -5.926165 -0.563184
-3.363431 -5.921157 -0.564672
-3.385187 -5.924851 -0.567791
-3.409402 -5.931603 -0.571554
-3.431134 -5.934348 -0.574697
-3.450994 -5.934066 -0.577382
-3.470286 -5.932660 -0.579941
-3.482895 -5.921777 -0.580842
-3.495915 -5.911349 -0.581872
-3.509760 -5.901929 -0.583128
-3.530825 -5.902022 -0.586185
-3.555984 -5.907237 -0.590249
-3.580724 -5.911530 -0.594199
-3.597446 -5.905101 -0.596181
-3.616340 -5.901325 -0.598692
-3.642701 -5.906852 -0.603005
-3.675700 -5.920374 -0.608898
-3.693850 -5.914918 -0.611186
-3.720546 -5.919871 -0.615510
-3.727241 -5.900087 -0.615033
-3.739457 -5.887139 -0.615874
-3.761777 -5.886320 -0.619102
-3.786471 -5.888119 -0.622865
-3.805649 -5.883193 -0.625298
-3.819476 -5.871931 -0.626456
-3.837558 -5.865576 -0.628591
-3.847973 -5.719029 -0.618475
-4.029987 -5.657216 -0.637692
-4.227546 -5.826460 -0.678735
-4.254118 -5.826190 -0.682127
-4.287604 -5.832349 -0.686975
-4.301680 -5.819648 -0.687563
-4.327065 -5.817630 -0.690564
-4.349925 -5.813046 -0.692979
-4.367098 -5.803032 -0.694137
-4.380442 -5.789443 -0.694447
-4.393980 -5.776035 -0.694776
-4.420181 -5.774043 -0.697758
-4.483860 -5.805312 -0.708589
-4.501200 -5.794740 -0.709590
-4.515963 -5.781846 -0.710022
-4.538363 -5.775562 -0.712018
-4.559937 -5.768418 -0.713805
-4.578485 -5.758563 -0.714930
-4.618168 -5.766463 -0.720368
-4.623501 -5.745214 -0.718708
-4.626612 -5.722248 -0.716586
-4.601665 -5.676410 -0.708763
-4.613931 -5.661406 -0.708507
-4.582659 -5.611349 -0.699466
-4.610297 -5.608943 -0.702287
-4.620490 -5.592524 -0.701581
-4.607731 -5.558172 -0.696297
-4.612270 -5.537598 -0.694460
-4.611439 -5.513009 -0.691558
-4.594333 -5.476231 -0.685466
-4.595110 -5.453340 -0.682899
-4.594484 -5.429555 -0.680059
-4.598300 -5.409225 -0.678083
-4.588784 -5.379247 -0.673532
-4.588495 -5.356245 -0.670770
-4.578075 -5.326134 -0.666075
-4.568368 -5.296828 -0.661536
-4.559809 -5.268612 -0.657232
-4.564644 -5.249990 -0.655473
-4.567762 -5.230259 -0.653385
-4.577940 -5.215448 -0.652615
-4.598496 -5.207654 -0.653762
-4.781583 -5.043999 -0.651059
-4.785253 -5.024928 -0.648888
-4.785594 -5.004001 -0.646135
-4.782887 -4.981439 -0.642857
-4.768580 -4.952449 -0.637589
-4.783688 -4.940244 -0.637382
-4.789168 -4.922625 -0.635512
-4.787943 -4.901369 -0.632497
-4.777958 -4.875481 -0.628007
-4.767110 -4.849357 -0.623389
-4.778635 -4.835342 -0.622528
-4.773254 -4.812419 -0.618837
-4.777663 -4.794743 -0.616775
-4.781534 -4.776839 -0.614617
-4.778729 -4.755600 -0.611359
-4.768521 -4.730778 -0.606897
-4.759430 -4.706721 -0.602633
-4.758500 -4.686864 -0.599699
-4.763841 -4.670146 -0.597772
-4.767862 -4.652826 -0.595624
-4.761483 -4.630630 -0.591814
-4.769442 -4.615295 -0.590278
-4.746207 -4.585549 -0.583821
-4.757104 -4.571723 -0.582739
-4.769204 -4.558400 -0.581821
-4.754076 -4.532901 -0.576666
-4.760911 -4.517307 -0.574911
-4.762623 -4.499492 -0.572357
-4.718698 -4.462165 -0.562846
-4.697682 -4.435092 -0.556871
-4.711878 -4.423035 -0.556228
-4.728006 -4.411694 -0.555844
-4.748641 -4.402084 -0.556097
-4.749585 -4.384410 -0.553393
-4.714805 -4.352630 -0.545420
-4.714037 -4.334590 -0.542477
-4.709389 -4.315125 -0.538961
-4.701174 -4.294414 -0.534928
-4.687638 -4.271853 -0.530135
-4.681684 -4.252300 -0.526439
-4.683606 -4.235741 -0.523862
-4.679184 -4.216937 -0.520375
-4.672235 -4.197336 -0.516531
-4.673705 -4.180802 -0.513860
-4.668668 -4.162065 -0.510274
-4.670243 -4.145671 -0.507595
-4.663149 -4.126415 -0.503714
-4.665649 -4.110434 -0.501137
-4.664357 -4.093246 -0.498031
-4.652135 -4.072631 -0.493446
-4.638754 -4.051820 -0.488714
-4.632254 -4.033309 -0.484904
-4.642266 -4.019915 -0.483261
-4.645368 -4.004396 -0.480683
-4.620703 -3.980736 -0.474486
-4.597707 -3.957840 -0.468533
-4.373988 -3.863354 -0.434166
-4.376216 -3.849030 -0.431639
-4.349803 -3.827022 -0.425515
-4.320441 -3.804528 -0.419061
-4.347773 -3.797012 -0.419626
-4.347190 -3.782171 -0.416718
-4.352765 -3.768895 -0.414543
-4.363986 -3.756964 -0.413024
-4.250104 -3.452081 -0.343336
-4.256360 -3.373633 -0.328689
-4.172104 -3.338576 -0.316143
-4.225027 -3.331899 -0.318916
-4.262722 -3.323322 -0.320278
-4.280358 -3.312581 -0.319827
-4.264087 -3.298649 -0.316354
-4.269605 -3.286941 -0.314956
-4.267748 -3.274702 -0.312979
-4.237514 -3.260326 -0.308571
-4.259148 -3.250344 -0.308879
-4.257322 -3.238631 -0.307197
-4.255361 -3.227084 -0.305602
-4.239563 -3.214814 -0.302904
-4.241618 -3.203924 -0.301863
-4.236914 -3.192797 -0.300336
-4.238083 -3.182188 -0.299414
-4.240859 -3.171820 -0.298726
-4.242873 -3.161566 -0.298067
-4.246571 -3.151538 -0.297645
-4.212147 -3.140151 -0.294084
-3.097703 -5.975825 -0.562227
-3.114480 -5.980336 -0.563578
-3.128552 -5.979707 -0.564155
-3.135478 -5.966641 -0.562693
-3.141606 -5.951957 -0.561058
-3.152766 -5.945261 -0.560921
-3.175499 -5.956987 -0.564108
-3.191484 -5.957120 -0.565400
-3.203652 -5.950645 -0.565655
-3.218890 -5.948644 -0.566812
-3.236443 -5.949816 -0.568645
-3.252599 -5.948308 -0.570125
-3.260493 -5.933621 -0.569382
-3.281587 -5.938884 -0.572289
-3.300968 -5.941005 -0.574755
-3.314973 -5.934587 -0.575800
-3.331776 -5.932012 -0.577634
-3.346496 -5.926004 -0.578946
-3.361279 -5.919799 -0.580310
-3.373652 -5.909851 -0.581072
-3.408404 -5.931664 -0.587748
-3.429433 -5.933295 -0.590817
-3.450859 -5.935098 -0.594002
-3.469103 -5.932118 -0.596372
-3.483215 -5.923198 -0.597689
-3.491649 -5.906422 -0.597569
-3.513399 -5.907599 -0.600885
-3.531581 -5.903711 -0.603290
-3.558519 -5.911180 -0.607920
-3.583498 -5.915676 -0.612038
-3.599380 -5.908051 -0.613851
-3.617105 -5.902685 -0.616126
-3.643471 -5.908148 -0.620554
-3.664311 -5.906324 -0.623583
-3.702446 -5.925832 -0.630885
-3.719884 -5.919221 -0.633023
-3.733876 -5.908309 -0.634301
-3.746832 -5.896137 -0.635316
-3.763984 -5.889008 -0.637347
-3.788004 -5.889949 -0.641032
-3.807251 -5.885057 -0.643528
-3.819693 -5.872136 -0.644356
-3.830463 -5.857330 -0.644769
-3.836476 -5.731912 -0.635335
-3.828026 -5.697144 -0.631182
-3.831862 -5.676074 -0.629927
-4.229908 -5.828411 -0.698258
-4.255045 -5.826709 -0.701410
-4.272589 -5.817497 -0.702817
-4.304564 -5.821984 -0.707412
-4.333540 -5.823316 -0.711285
-4.359235 -5.821313 -0.714380
-4.377504 -5.812217 -0.715793
-4.394309 -5.801701 -0.716852
-4.401419 -5.782309 -0.715761
-4.420165 -5.773517 -0.717193
-4.460473 -5.783891 -0.723271
-4.494227 -5.788017 -0.727862
-4.511001 -5.776925 -0.728740
-4.534463 -5.771584 -0.731022
-4.565371 -5.772481 -0.734854
-4.589582 -5.767385 -0.737209
-4.610772 -5.759565 -0.738883
-4.623868 -5.744848 -0.738815
-4.616592 -5.713259 -0.734448
-4.615153 -5.686773 -0.731316
-4.618671 -5.664535 -0.729220
-4.614631 -5.636353 -0.725552
-4.613286 -5.610570 -0.722451
-4.607471 -5.581464 -0.718434
-4.606449 -5.556377 -0.715412
-4.606529 -5.532339 -0.712619
-4.604983 -5.507227 -0.709498
-4.591811 -5.473474 -0.704032
-4.594428 -5.451966 -0.701770
-4.595546 -5.429469 -0.699205
-4.581467 -5.395899 -0.693610
-4.582794 -5.328572 -0.685568
-4.571163 -5.297851 -0.680525
-4.569530 -5.274469 -0.677457
-4.574958 -5.256172 -0.675768
-4.571507 -5.231824 -0.672355
-4.568855 -5.208210 -0.669106
-4.581081 -5.194823 -0.668718
-4.671247 -5.233547 -0.683195
-4.719818 -5.221404 -0.686764
-4.699424 -5.164214 -0.677249
-4.709640 -5.149000 -0.676333
-4.750756 -5.045568 -0.666886
-4.775971 -5.039312 -0.668603
-4.787258 -5.024713 -0.667772
-4.785420 -5.002495 -0.664576
-4.783898 -4.980597 -0.661442
-4.791285 -4.963879 -0.659893
-4.783137 -4.938479 -0.655591
-4.788842 -4.920968 -0.653740
-4.778491 -4.894695 -0.649072
-4.775655 -4.872730 -0.645732
-4.775712 -4.852456 -0.642899
-4.765106 -4.826631 -0.638229
-4.767097 -4.807642 -0.635740
-4.768992 -4.788681 -0.633231
-4.767142 -4.767878 -0.630083
-4.773296 -4.751252 -0.628292
-4.773286 -4.731563 -0.625454
-4.768367 -4.709537 -0.621794
-4.757787 -4.684889 -0.617198
-4.763046 -4.668120 -0.615244
-4.764223 -4.649430 -0.612607
-4.769015 -4.632525 -0.610560
-4.757901 -4.608225 -0.605906
-4.765290 -4.592673 -0.604273
-4.763665 -4.573016 -0.601169
-4.766332 -4.555392 -0.598754
-4.778552 -4.542068 -0.597859
-4.768511 -4.518913 -0.593399
-4.762534 -4.497711 -0.589595
-4.730776 -4.465609 -0.581740
-4.722785 -4.443978 -0.577653
-4.719692 -4.424553 -0.574336
-4.722820 -4.407796 -0.571982
-4.747423 -4.399809 -0.572922
-4.732760 -4.375871 -0.567803
-4.727690 -4.355955 -0.564161
-4.715867 -4.333521 -0.559499
-4.709646 -4.313436 -0.555692
-4.702008 -4.292942 -0.551675
-4.685240 -4.269166 -0.546304
-4.688872 -4.253166 -0.543971
-4.689642 -4.236144 -0.541200
-4.674750 -4.213544 -0.536129
-4.668919 -4.194362 -0.532390
-4.665752 -4.176222 -0.529035
-4.669386 -4.160504 -0.526650
-4.663925 -4.141721 -0.522949
-4.663075 -4.124579 -0.519900
-4.662330 -4.107528 -0.516854
-4.662575 -4.090851 -0.513936
-4.655630 -4.071928 -0.510004
-4.647624 -4.052787 -0.505924
-4.639922 -4.033862 -0.501886
-4.642479 -4.018163 -0.499247
-4.644256 -4.002244 -0.496483
-4.622458 -3.979440 -0.490530
-4.600451 -3.956831 -0.484575
-4.413091 -3.887702 -0.456715
-4.366660 -3.859639 -0.447751
-4.371566 -3.846078 -0.445572
-4.370792 -3.830976 -0.442634
-4.348406 -3.810226 -0.436898
-4.345465 -3.794742 -0.433677
-4.344497 -3.779813 -0.430700
-4.354725 -3.767697 -0.429122
-4.258838 -3.235817 -0.319477
-4.219031 -3.221622 -0.314326
-4.204359 -3.209513 -0.311602
-4.196902 -3.198116 -0.309643
-4.222523 -3.188807 -0.310774
-4.246105 -3.179364 -0.311798
-4.235698 -3.168252 -0.309860
-4.252331 -3.158612 -0.310437
-4.261680 -3.148720 -0.310453
-4.319061 -3.140770 -0.314818
-3.108026 -5.998731 -0.580279
-3.113163 -5.983128 -0.578205
-3.116907 -5.964909 -0.575771
-3.128332 -5.959307 -0.575691
-3.137289 -5.949188 -0.574919
-3.156973 -5.956345 -0.577347
-3.176049 -5.961870 -0.579610
-3.190715 -5.959662 -0.580610
-3.204336 -5.955312 -0.581344
-3.218864 -5.951974 -0.582377
-3.231454 -5.945153 -0.582896
-3.238307 -5.929040 -0.581833
-3.270750 -5.952210 -0.588045
-3.273081 -5.928480 -0.585801
-3.293107 -5.931520 -0.588565
-3.316485 -5.939086 -0.592280
-3.329244 -5.930314 -0.593077
-3.342748 -5.922389 -0.594118
-3.359493 -5.918937 -0.596081
-3.390110 -5.935173 -0.601842
-3.411623 -5.937718 -0.605127
-3.429885 -5.935259 -0.607548
-3.447017 -5.930917 -0.609680
-3.463988 -5.926106 -0.611786
-3.481362 -5.921623 -0.614013
-3.498885 -5.917126 -0.616291
-3.508115 -5.901253 -0.616388
-3.538116 -5.913105 -0.621965
-3.561610 -5.915864 -0.625814
-3.579340 -5.910768 -0.628150
-3.595431 -5.903396 -0.630057
-3.621854 -5.909165 -0.634633
-3.641644 -5.906165 -0.637477
-3.662461 -5.904281 -0.640570
-3.684176 -5.903323 -0.643875
-3.706764 -5.903237 -0.647381
-3.725931 -5.898757 -0.649995
-3.746566 -5.895924 -0.652960
-3.770692 -5.897114 -0.656780
-3.792070 -5.894812 -0.659879
-3.809515 -5.887729 -0.661967
-3.821976 -5.874777 -0.662793
-3.826165 -5.852339 -0.661554
-3.819977 -5.818288 -0.657752
-3.825233 -5.693954 -0.647780
-3.828529 -5.672316 -0.646334
-4.233382 -5.831484 -0.718084
-4.249069 -5.820554 -0.719120
-4.266708 -5.811473 -0.720578
-4.301661 -5.818834 -0.725983
-4.332812 -5.822228 -0.730454
-4.361100 -5.822640 -0.734218
-4.383934 -5.817745 -0.736695
-4.403551 -5.809737 -0.738403
-4.413341 -5.792689 -0.737864
-4.422823 -5.775429 -0.737240
-4.443870 -5.768561 -0.739183
-4.474760 -5.770271 -0.743280
-4.499037 -5.765896 -0.745857
-4.550817 -5.785214 -0.754460
-4.575737 -5.780806 -0.757069
-4.592062 -5.768889 -0.757755
-4.608678 -5.757168 -0.758477
-4.623204 -5.743643 -0.758718
-4.618621 -5.714272 -0.754806
-4.616740 -5.687390 -0.751486
-4.625837 -5.669654 -0.750525
-4.619609 -5.639638 -0.746280
-4.602277 -5.601057 -0.739690
-4.601653 -5.576116 -0.736670
-4.597820 -5.548856 -0.732978
-4.601079 -5.527326 -0.730784
-4.592999 -5.497223 -0.726219
-4.606683 -5.483947 -0.726201
-4.592978 -5.450030 -0.720487
-4.587675 -5.422738 -0.716535
-4.588264 -5.400035 -0.713807
-4.575304 -5.367580 -0.708310
-4.587564 -5.353720 -0.707977
-4.580589 -5.326054 -0.703726
-4.576596 -5.300753 -0.700093
-4.573911 -5.276577 -0.696735
-4.575615 -5.255637 -0.694263
-4.570216 -5.229924 -0.690379
-4.568072 -5.206647 -0.687153
-4.631395 -5.227752 -0.696865
-4.674638 -5.125544 -0.688175
-4.748766 -5.043040 -0.684970
-4.766845 -5.032552 -0.685442
-4.784488 -5.021703 -0.685805
-4.790466 -5.004006 -0.683989
-4.789414 -4.982328 -0.680876
-4.794395 -4.964194 -0.678870
-4.792996 -4.942540 -0.675698
-4.783599 -4.916585 -0.671083
-4.775086 -4.891337 -0.666646
-4.775177 -4.870964 -0.663770
-4.764754 -4.845060 -0.659018
-4.761195 -4.823024 -0.655506
-4.765698 -4.805358 -0.653428
-4.770449 -4.787869 -0.651387
-4.771966 -4.768768 -0.648773
-4.775395 -4.750716 -0.646490
-4.777298 -4.731957 -0.643937
-4.775042 -4.711215 -0.640664
-4.767418 -4.687966 -0.636473
-4.765423 -4.667619 -0.633256
-4.769848 -4.650453 -0.631134
-4.749695 -4.621724 -0.624845
-4.760101 -4.607564 -0.623734
-4.746311 -4.582223 -0.618550
-4.748062 -4.564198 -0.615978
-4.766447 -4.553717 -0.616158
-4.777984 -4.540072 -0.615175
-4.781224 -4.522742 -0.612808
-4.766901 -4.497846 -0.607563
-4.764785 -4.478407 -0.604322
-4.748302 -4.453000 -0.598759
-4.720417 -4.423093 -0.591387
-4.717192 -4.403707 -0.587999
-4.706478 -4.381386 -0.583421
-4.716265 -4.367465 -0.582097
-4.715449 -4.349314 -0.579082
-4.714963 -4.331368 -0.576113
-4.709000 -4.311383 -0.572285
-4.701754 -4.291038 -0.568262
-4.690065 -4.269168 -0.563560
-4.692944 -4.252856 -0.561097
-4.698644 -4.237600 -0.559048
-4.698666 -4.220305 -0.556122
-4.670159 -4.192983 -0.548899
-4.674459 -4.177434 -0.546617
-4.670689 -4.159124 -0.543117
-4.663385 -4.139710 -0.539091
-4.667214 -4.124126 -0.536700
-4.662886 -4.105876 -0.533101
-4.657493 -4.087373 -0.529342
-4.653153 -4.069304 -0.525733
-4.649588 -4.051565 -0.522228
-4.644681 -4.033490 -0.518526
-4.641967 -4.016169 -0.515128
-4.643659 -4.000224 -0.512340
-4.637028 -3.981866 -0.508374
-4.397730 -3.881647 -0.469357
-4.397576 -3.866518 -0.466482
-4.368829 -3.843633 -0.459716
-4.361098 -3.826682 -0.455820
-4.356403 -3.810633 -0.452332
-4.345997 -3.793187 -0.448080
-4.351713 -3.779940 -0.445960
-4.354872 -3.766030 -0.443480
-3.103241 -5.995710 -0.593904
-3.111663 -5.985543 -0.592862
-3.114325 -5.965290 -0.590088
-3.122612 -5.954265 -0.589108
-3.138987 -5.956322 -0.590638
-3.153185 -5.954238 -0.591530
-3.173258 -5.961246 -0.594217
-3.190796 -5.963516 -0.596158
-3.203240 -5.957072 -0.596610
-3.218856 -5.955273 -0.598039
-3.225518 -5.938928 -0.596874
-3.231034 -5.920609 -0.595436
-3.250493 -5.923678 -0.598109
-3.276272 -5.935891 -0.602628
-3.296484 -5.938991 -0.605549
-3.314287 -5.937978 -0.607800
-3.331041 -5.935001 -0.609779
-3.341908 -5.923009 -0.610118
-3.361623 -5.923743 -0.612989
-3.395408 -5.944386 -0.619817
-3.414760 -5.943635 -0.622597
-3.427817 -5.933637 -0.623642
-3.439565 -5.921658 -0.624352
-3.454818 -5.914451 -0.626054
-3.480648 -5.921603 -0.630668
-3.498926 -5.918042 -0.633210
-3.517057 -5.914064 -0.635716
-3.539959 -5.916250 -0.639513
-3.560975 -5.915634 -0.642792
-3.575726 -5.906579 -0.644379
-3.593832 -5.901795 -0.646865
-3.616652 -5.902907 -0.650597
-3.645621 -5.911569 -0.655941
-3.659535 -5.900905 -0.657273
-3.676716 -5.894292 -0.659459
-3.694172 -5.887927 -0.661704
-3.714944 -5.885518 -0.664799
-3.738184 -5.885928 -0.668512
-3.767148 -5.892975 -0.673677
-3.789744 -5.892128 -0.677155
-3.804719 -5.882142 -0.678642
-3.821445 -5.874178 -0.680560
-3.829686 -5.856390 -0.680290
-3.825392 -5.824438 -0.676826
-3.836690 -5.706300 -0.667908
-3.820438 -5.663467 -0.661526
-3.906237 -5.730162 -0.680444
-4.275146 -5.872132 -0.747124
-4.258873 -5.829761 -0.740522
-4.270310 -5.814608 -0.740526
-4.303388 -5.820130 -0.745623
-4.337888 -5.826653 -0.750995
-4.357217 -5.818622 -0.752749
-4.383400 -5.816844 -0.756068
-4.407328 -5.812782 -0.758817
-4.418625 -5.797056 -0.758598
-4.430277 -5.781688 -0.758443
-4.446210 -5.770174 -0.759252
-4.466896 -5.762820 -0.761121
-4.512741 -5.777384 -0.768686
-4.566537 -5.798312 -0.777974
-4.577046 -5.781365 -0.777382
-4.585667 -5.762856 -0.776350
-4.609457 -5.757217 -0.778704
-4.630341 -5.748979 -0.780370
-4.650490 -5.740007 -0.781837
-4.628234 -5.696152 -0.773884
-4.630931 -5.673107 -0.771477
-4.600970 -5.623940 -0.761901
-4.593820 -5.593599 -0.757370
-4.588484 -5.564984 -0.753251
-4.586362 -5.539143 -0.749843
-4.591662 -5.519258 -0.748045
-4.609408 -5.509014 -0.748916
-4.594677 -5.474012 -0.742810
-4.593065 -5.449263 -0.739531
-4.595968 -5.428066 -0.737218
-4.584346 -5.396275 -0.731836
-4.594154 -5.380466 -0.730987
-4.577673 -5.345654 -0.724620
-4.577239 -5.322726 -0.721634
-4.575941 -5.299343 -0.718475
-4.578245 -5.278656 -0.716068
-4.576203 -5.255061 -0.712767
-4.576559 -5.233289 -0.709967
-4.585129 -5.217255 -0.708847
-4.691726 -5.156902 -0.712882
-4.697825 -5.139076 -0.711154
-4.755839 -5.067276 -0.707752
-4.741774 -5.037529 -0.702083
-4.763618 -5.029282 -0.703326
-4.791219 -5.024244 -0.705633
-4.796853 -5.006285 -0.703725
-4.795841 -4.984573 -0.700554
-4.791895 -4.961329 -0.696838
-4.788368 -4.938482 -0.693210
-4.781413 -4.913893 -0.688953
-4.778108 -4.891496 -0.685389
-4.778492 -4.871246 -0.682515
-4.773889 -4.848428 -0.678727
-4.768077 -4.825129 -0.674728
-4.767346 -4.804663 -0.671667
-4.774911 -4.788603 -0.670113
-4.785029 -4.773862 -0.669009
-4.783311 -4.753112 -0.665764
-4.774910 -4.729138 -0.661329
-4.768259 -4.706222 -0.657220
-4.769455 -4.687313 -0.654513
-4.768093 -4.667246 -0.651353
-4.769367 -4.648546 -0.648658
-4.763646 -4.626623 -0.644741
-4.738223 -4.595671 -0.637413
-4.729060 -4.572577 -0.632937
-4.729289 -4.553942 -0.630088
-4.750540 -4.544832 -0.630831
-4.766970 -4.533429 -0.630715
-4.750192 -4.507374 -0.624948
-4.760786 -4.493428 -0.623817
-4.771366 -4.479437 -0.622661
-4.753370 -4.453354 -0.616721
-4.731691 -4.426009 -0.610198
-4.715286 -4.401138 -0.604577
-4.712972 -4.382232 -0.601291
-4.707629 -4.362206 -0.597510
-4.705100 -4.343418 -0.594188
-4.708254 -4.326936 -0.591783
-4.713388 -4.311248 -0.589682
-4.707623 -4.291438 -0.585825
-4.705331 -4.273048 -0.582522
-4.699312 -4.253371 -0.578627
-4.701623 -4.236841 -0.576041
-4.706162 -4.221142 -0.573790
-4.695283 -4.200011 -0.569128
-4.681810 -4.178145 -0.564075
-4.668401 -4.156494 -0.559045
-4.662904 -4.137701 -0.555236
-4.662458 -4.120692 -0.552191
-4.663458 -4.104208 -0.549353
-4.655473 -4.084867 -0.545156
-4.651361 -4.066879 -0.541537
-4.647056 -4.048917 -0.537884
-4.645008 -4.031733 -0.534558
-4.642568 -4.014491 -0.531165
-4.644661 -3.998658 -0.528421
-4.623376 -3.976022 -0.522286
-4.578585 -3.946894 -0.512810
-4.404452 -3.881811 -0.484992
-4.389134 -3.862449 -0.479946
-4.356748 -3.838632 -0.472518
-4.350540 -3.822150 -0.468790
-4.355114 -3.808579 -0.466554
-4.358366 -3.794651 -0.464114
-4.355152 -3.779087 -0.460770
-4.360836 -3.765779 -0.458626
-3.094316 -5.985488 -0.606225
-3.103665 -5.976817 -0.605528
-3.112459 -5.966815 -0.604695
-3.127014 -5.966106 -0.605719
-3.136784 -5.956924 -0.605269
-3.149556 -5.952317 -0.605796
-3.165429 -5.952329 -0.607316
-3.184434 -5.956888 -0.609823
-3.200895 -5.956770 -0.611568
-3.209700 -5.943985 -0.611014
-3.221209 -5.935191 -0.611329
-3.233035 -5.926568 -0.611783
-3.247820 -5.922206 -0.613164
-3.273228 -5.933721 -0.617734
-3.296783 -5.941761 -0.621755
-3.317433 -5.944850 -0.624927
-3.328961 -5.933893 -0.625445
-3.340829 -5.923242 -0.626100
-3.365723 -5.931397 -0.630566
-3.390624 -5.939027 -0.635031
-3.411479 -5.940361 -0.638332
-3.422415 -5.927277 -0.638805
-3.436703 -5.918813 -0.640261
-3.454909 -5.915632 -0.642844
-3.475337 -5.915262 -0.646060
-3.500228 -5.920676 -0.650527
-3.517063 -5.914846 -0.652728
-3.541013 -5.918351 -0.656911
-3.553142 -5.905906 -0.657800
-3.567674 -5.896596 -0.659361
-3.593030 -5.901242 -0.663899
-3.609796 -5.894545 -0.666059
-3.637427 -5.901541 -0.671174
-3.664977 -5.908073 -0.676233
-3.680877 -5.899755 -0.678103
-3.698557 -5.893573 -0.680441
-3.712203 -5.882373 -0.681677
-3.735849 -5.883272 -0.685579
-3.767000 -5.892935 -0.691449
-3.779701 -5.880326 -0.692370
-3.799900 -5.876561 -0.695262
-3.816049 -5.867956 -0.697057
-3.844739 -5.873761 -0.702124
-3.849590 -5.852055 -0.700908
-3.851198 -5.826897 -0.698847
-3.866864 -5.739036 -0.693014
-3.818675 -5.661471 -0.678237
-4.315650 -5.966283 -0.782155
-4.279685 -5.876311 -0.767589
-4.269460 -5.839758 -0.762263
-4.279257 -5.822915 -0.761841
-4.319155 -5.834840 -0.768712
-4.338358 -5.826760 -0.770505
-4.354344 -5.815578 -0.771488
-4.378649 -5.812067 -0.774440
-4.408325 -5.813303 -0.778633
-4.430740 -5.807662 -0.781043
-4.442331 -5.792119 -0.780848
-4.468034 -5.789202 -0.783966
-4.503991 -5.795147 -0.789450
-4.518321 -5.781777 -0.789805
-4.553524 -5.786500 -0.795003
-4.573434 -5.777720 -0.796587
-4.584975 -5.761706 -0.796202
-4.608965 -5.756218 -0.798667
-4.628745 -5.747037 -0.800125
-4.631558 -5.723708 -0.797675
-4.640378 -5.705460 -0.796590
-4.634604 -5.675423 -0.792188
-4.634652 -5.650351 -0.789115
-4.605615 -5.602298 -0.779514
-4.585256 -5.561719 -0.771914
-4.583683 -5.536312 -0.768543
-4.594981 -5.521069 -0.768035
-4.605902 -5.505543 -0.767428
-4.605930 -5.481757 -0.764411
-4.591198 -5.447040 -0.758166
-4.598649 -5.429223 -0.756793
-4.607326 -5.412364 -0.755677
-4.585782 -5.373470 -0.748017
-4.585061 -5.350101 -0.744886
-4.579075 -5.323124 -0.740634
-4.570964 -5.294877 -0.735944
-4.576599 -5.276543 -0.734198
-4.571975 -5.251143 -0.730275
-4.573927 -5.230480 -0.727754
-4.584250 -5.215635 -0.726990
-4.611383 -5.212131 -0.729725
-4.773401 -5.275690 -0.757371
-4.750545 -5.041421 -0.722256
-4.772229 -5.032998 -0.723524
-4.790679 -5.022533 -0.724123
-4.799328 -5.006297 -0.722781
-4.798305 -4.984544 -0.719547
-4.791170 -4.959466 -0.715137
-4.789911 -4.937876 -0.711876
-4.788860 -4.916527 -0.708661
-4.784577 -4.893534 -0.704835
-4.786199 -4.873896 -0.702143
-4.787703 -4.854283 -0.699430
-4.778671 -4.829185 -0.694734
-4.773754 -4.806450 -0.690827
-4.783343 -4.791379 -0.689639
-4.794308 -4.777001 -0.688692
-4.785469 -4.752582 -0.684068
-4.765246 -4.722677 -0.677368
-4.768983 -4.704935 -0.675090
-4.759657 -4.680869 -0.670428
-4.735854 -4.650018 -0.663159
-4.762408 -4.643540 -0.665018
-4.759995 -4.623204 -0.661629
-4.743618 -4.596483 -0.655750
-4.721453 -4.567371 -0.648869
-4.714348 -4.545434 -0.644692
-4.731992 -4.534766 -0.644883
-4.750608 -4.524414 -0.645213
-4.750959 -4.505944 -0.642324
-4.753032 -4.488294 -0.639730
-4.758012 -4.471939 -0.637632
-4.742171 -4.446836 -0.631947
-4.728820 -4.423017 -0.626712
-4.713876 -4.398760 -0.621225
-4.711372 -4.379776 -0.617863
-4.711097 -4.361779 -0.614876
-4.710150 -4.343589 -0.611772
-4.710590 -4.326015 -0.608894
-4.712011 -4.308879 -0.606172
-4.715939 -4.292740 -0.603853
-4.709138 -4.272618 -0.599763
-4.696471 -4.250472 -0.594723
-4.694052 -4.232233 -0.591356
-4.694550 -4.215120 -0.588455
-4.690143 -4.196330 -0.584759
-4.670688 -4.172417 -0.578665
-4.667573 -4.154346 -0.575183
-4.658513 -4.134355 -0.570761
-4.665378 -4.119789 -0.568837
-4.665392 -4.102964 -0.565824
-4.658914 -4.084098 -0.561794
-4.651590 -4.065075 -0.557634
-4.646852 -4.046976 -0.553871
-4.650517 -4.031540 -0.551380
-4.648945 -4.014530 -0.548078
-4.644515 -3.996730 -0.544337
-4.624258 -3.974402 -0.538231
-4.568237 -3.942081 -0.526850
-4.382916 -3.874002 -0.496529
-4.374458 -3.856648 -0.492414
-4.349013 -3.834803 -0.485833
-4.350809 -3.820490 -0.483218
-4.358936 -3.807842 -0.481495
-4.360477 -3.793452 -0.478804
-4.362945 -3.779305 -0.476228
-4.363221 -3.764618 -0.473325
-4.128826 -3.349920 -0.366181
-3.099561 -5.974642 -0.619438
-3.115649 -5.976839 -0.621020
-3.125120 -5.967345 -0.620471
-3.132561 -5.954099 -0.619311
-3.144457 -5.947901 -0.619627
-3.160753 -5.948479 -0.621378
-3.180704 -5.954446 -0.624303
-3.197175 -5.954201 -0.626145
-3.213084 -5.952559 -0.627834
-3.221862 -5.939211 -0.627336
-3.237462 -5.936275 -0.628995
-3.253094 -5.932971 -0.630693
-3.271039 -5.932814 -0.633126
-3.293224 -5.938642 -0.636867
-3.314750 -5.942936 -0.640415
